# .PCD v0.7 - Point Cloud Data file format
VERSION 0.7
FIELDS x y z intensity tag line
SIZE 4 4 4 4 1 1
TYPE F F F F U U
COUNT 1 1 1 1 1 1
WIDTH 1357
HEIGHT 1
VIEWPOINT 0 0 0 1 0 0 0
POINTS 1357
DATA ascii
2.3859999 1.0319999 0.75999999 77 16 0
2.3800001 1.034 0.764 81 16 0
2.3770001 1.0369999 0.76899999 69 16 0
2.3710001 1.04 0.773 79 16 0
2.362 1.04 0.77600002 74 16 0
2.349 1.039 0.778 78 16 0
2.342 1.04 0.78200001 67 16 0
2.332 1.04 0.78399998 85 16 0
2.3239999 1.041 0.78799999 83 16 0
2.3169999 1.0420001 0.79100001 84 16 0
2.309 1.043 0.79400003 88 16 0
2.303 1.044 0.79799998 84 16 0
2.2920001 1.043 0.80000001 87 16 0
2.289 1.046 0.80500001 90 16 0
2.2750001 1.043 0.80599999 85 16 0
2.273 1.046 0.81099999 91 16 0
2.2650001 1.046 0.81400001 85 16 0
2.2550001 1.045 0.81599998 78 16 0
2.25 1.046 0.81999999 78 16 0
2.247 1.049 0.824 86 16 0
2.2349999 1.046 0.82599998 87 16 0
2.2309999 1.048 0.82999998 86 16 0
2.223 1.0470001 0.83200002 88 16 0
2.2149999 1.0470001 0.83499998 88 16 0
2.2079999 1.0470001 0.838 84 16 0
2.2019999 1.0470001 0.84100002 89 16 0
2.197 1.048 0.84500003 84 16 0
2.188 1.0470001 0.847 84 16 0
2.184 1.0470001 0.85100001 86 16 0
2.1760001 1.046 0.85299999 87 16 0
2.1730001 1.048 0.85699999 86 16 0
2.1670001 1.048 0.86000001 93 16 0
2.1559999 1.044 0.861 83 16 0
2.152 1.045 0.86500001 86 16 0
2.1459999 1.045 0.86699998 93 16 0
2.1400001 1.044 0.87 82 16 0
2.135 1.044 0.87300003 82 16 0
2.1270001 1.0420001 0.875 93 16 0
2.1210001 1.041 0.87800002 90 16 0
2.1170001 1.041 0.88099998 85 16 0
2.1099999 1.04 0.88300002 90 16 0
2.1010001 1.0369999 0.884 89 16 0
2.099 1.038 0.88800001 87 16 0
2.096 1.038 0.89200002 97 16 0
2.0899999 1.0369999 0.89399999 91 16 0
2.0840001 1.036 0.89600003 93 16 0
2.082 1.036 0.89999998 91 16 0
2.076 1.034 0.90200001 82 16 0
2.073 1.034 0.90499997 96 16 0
2.0639999 1.031 0.90600002 89 16 0
2.0569999 1.029 0.90700001 89 16 0
2.052 1.027 0.91000003 88 16 0
2.0480001 1.026 0.91299999 93 16 0
2.0409999 1.024 0.91399997 109 16 0
2.036 1.022 0.91600001 97 16 0
2.0350001 1.022 0.91900003 111 16 0
2.0250001 1.018 0.91900003 95 16 0
2.0250001 1.018 0.92299998 103 16 0
2.02 1.016 0.92500001 99 16 0
2.013 1.013 0.926 103 16 0
2.0120001 1.013 0.92900002 103 16 0
2.0039999 1.0089999 0.92900002 103 16 0
2.0020001 1.008 0.93199998 96 16 0
1.995 1.005 0.93300003 91 16 0
1.995 1.005 0.93599999 97 16 0
1.988 1.001 0.93699998 96 16 0
1.987 1.001 0.94 98 16 0
1.985 0.99900001 0.94199997 96 16 0
1.979 0.99599999 0.94300002 102 16 0
1.974 0.99299997 0.94400001 102 16 0
1.973 0.99199998 0.94700003 111 16 0
1.964 0.98699999 0.94599998 107 19 0
1.964 0.986 0.94800001 107 16 0
1.9579999 0.98199999 0.949 104 16 0
1.955 0.98000002 0.94999999 94 16 0
1.954 0.97899997 0.95300001 97 16 0
1.952 0.977 0.95499998 98 16 0
1.948 0.97399998 0.95499998 94 16 0
1.947 0.972 0.958 100 16 0
1.946 0.97000003 0.95999998 98 16 0
1.9400001 0.96600002 0.95999998 101 16 0
1.936 0.96200001 0.95999998 103 16 0
1.9349999 0.96100003 0.96200001 98 16 0
1.929 0.95599997 0.96100003 100 16 0
1.929 0.95499998 0.96399999 105 16 0
1.925 0.95099998 0.96399999 104 16 0
1.9220001 0.94800001 0.96399999 104 16 0
1.9220001 0.94599998 0.96600002 107 16 0
1.921 0.94400001 0.96799999 106 16 0
1.921 0.94099998 0.96899998 104 16 0
1.914 0.93599999 0.96799999 107 19 0
1.913 0.93300003 0.96899998 107 16 0
1.913 0.93099999 0.97100002 109 16 0
1.913 0.92900002 0.972 113 16 0
1.908 0.92400002 0.97100002 115 16 0
1.9069999 0.921 0.972 112 16 0
1.908 0.91900003 0.97399998 112 16 0
1.908 0.917 0.97500002 113 16 0
1.906 0.91299999 0.97500002 111 16 0
1.908 0.91100001 0.977 115 16 0
1.901 0.90499997 0.97500002 116 19 0
1.905 0.90399998 0.97799999 112 16 0
1.905 0.90200001 0.97899997 120 16 0
1.9 0.89700001 0.977 111 16 0
1.898 0.89200002 0.97600001 115 16 0
1.898 0.88999999 0.977 117 16 0
1.899 0.88700002 0.97799999 119 16 0
1.898 0.88300002 0.97799999 114 16 0
1.899 0.88 0.97799999 109 16 0
1.901 0.87800002 0.98000002 119 16 0
1.896 0.87199998 0.977 112 16 0
1.897 0.86900002 0.97799999 126 16 0
1.897 0.866 0.97799999 120 16 0
1.899 0.86299998 0.97899997 116 16 0
1.899 0.86000001 0.97899997 119 16 0
1.9 0.85699999 0.97899997 117 16 0
1.901 0.85399997 0.98000002 122 16 0
1.898 0.84899998 0.97799999 130 16 0
1.899 0.84600002 0.97799999 128 16 0
1.9 0.84200001 0.97799999 125 16 0
1.9 0.838 0.977 137 16 0
1.905 0.83700001 0.97899997 138 16 0
1.903 0.83200002 0.977 133 16 0
1.904 0.82800001 0.977 124 16 0
1.906 0.82499999 0.977 129 16 0
1.909 0.82200003 0.97799999 137 16 0
1.905 0.81599998 0.97399998 141 16 0
1.9069999 0.81300002 0.97399998 138 16 0
1.908 0.81 0.97399998 140 16 0
1.91 0.80599999 0.97299999 137 16 0
1.9119999 0.80299997 0.97299999 141 16 0
1.913 0.79900002 0.972 143 16 0
1.915 0.79500002 0.972 140 16 0
1.916 0.792 0.97100002 139 16 0
1.918 0.78799999 0.97000003 146 16 0
1.921 0.78500003 0.96899998 143 16 0
1.924 0.78200001 0.96899998 143 16 0
1.924 0.77700001 0.96700001 147 16 0
1.928 0.77399999 0.96799999 150 16 0
1.9299999 0.76999998 0.96700001 150 16 0
1.931 0.76599997 0.96499997 140 16 0
1.934 0.76300001 0.96399999 150 16 0
1.9349999 0.759 0.96200001 150 16 0
1.936 0.75400001 0.96100003 147 16 0
1.941 0.75199997 0.96100003 143 16 0
1.943 0.74800003 0.95899999 126 16 0
1.9450001 0.74400002 0.958 123 16 0
1.949 0.74000001 0.95700002 121 16 0
1.95 0.736 0.95499998 127 16 0
1.952 0.73199999 0.95300001 132 16 0
1.957 0.72899997 0.95300001 122 16 0
1.962 0.72600001 0.95300001 126 16 0
1.965 0.722 0.95099998 131 16 0
1.97 0.71899998 0.95099998 132 16 0
1.972 0.71499997 0.949 128 16 0
1.973 0.71100003 0.94599998 125 16 0
1.977 0.70700002 0.94499999 138 16 0
1.982 0.704 0.94400001 139 16 0
1.984 0.69999999 0.94199997 133 16 0
1.987 0.69599998 0.94 138 16 0
1.989 0.69199997 0.93800002 142 16 0
1.995 0.68900001 0.93699998 131 16 0
1.998 0.685 0.935 135 16 0
2.0039999 0.68199998 0.93400002 136 16 0
2.0039999 0.67699999 0.93099999 132 16 0
2.01 0.67400002 0.92900002 125 16 0
2.0120001 0.66900003 0.92699999 128 16 0
2.0220001 0.66799998 0.92799997 139 16 0
2.0239999 0.66299999 0.92500001 133 16 0
2.029 0.66000003 0.92299998 137 16 0
2.0320001 0.65600002 0.921 136 16 0
2.0380001 0.653 0.91900003 143 16 0
2.0439999 0.64899999 0.91799998 149 16 0
2.0469999 0.64499998 0.91500002 138 16 0
2.0510001 0.64099997 0.91299999 140 16 0
2.0539999 0.63700002 0.91000003 136 16 0
2.062 0.634 0.90899998 140 16 0
2.0650001 0.63 0.90600002 140 16 0
2.0710001 0.62699997 0.90499997 141 16 0
2.076 0.62300003 0.903 135 16 0
2.076 0.61799997 0.898 132 16 0
2.082 0.61500001 0.89600003 142 16 0
2.089 0.61199999 0.89499998 144 16 0
2.0999999 0.61000001 0.89499998 149 16 0
2.1040001 0.60600001 0.89200002 150 16 0
2.1059999 0.60100001 0.88800001 144 16 0
2.115 0.59899998 0.88700002 146 16 0
2.1210001 0.59500003 0.88499999 143 16 0
2.125 0.59100002 0.88200003 134 16 0
2.132 0.588 0.88 135 16 0
2.1359999 0.58399999 0.87699997 130 16 0
2.1440001 0.58099997 0.875 138 16 0
2.148 0.57700002 0.87099999 124 16 0
2.154 0.57300001 0.86900002 125 16 0
2.1589999 0.56900001 0.866 139 16 0
2.168 0.56599998 0.86400002 143 16 0
2.1719999 0.56199998 0.861 142 16 0
2.1800001 0.55900002 0.85900003 137 16 0
2.188 0.55599999 0.85600001 141 16 0
2.198 0.55299997 0.85500002 141 16 0
2.2 0.54900002 0.85100001 142 16 0
2.207 0.54500002 0.84799999 133 16 0
2.2079999 0.54000002 0.84299999 146 16 0
2.2179999 0.53799999 0.84100002 141 16 0
2.2249999 0.53399998 0.83899999 135 16 0
2.233 0.53100002 0.83600003 133 16 0
2.2420001 0.528 0.83399999 121 16 0
2.2479999 0.52399999 0.82999998 135 16 0
2.256 0.52100003 0.82700002 131 16 0
2.266 0.51800001 0.82499999 125 16 0
2.2739999 0.51499999 0.82300001 123 16 0
2.2780001 0.50999999 0.81800002 117 16 0
2.2850001 0.50700003 0.815 127 16 0
2.2969999 0.50400001 0.81300002 127 16 0
2.303 0.50099999 0.81 136 16 0
2.3110001 0.49700001 0.80599999 124 16 0
2.316 0.493 0.80199999 107 16 0
2.3239999 0.49000001 0.79900002 103 16 0
2.3340001 0.48699999 0.796 106 16 0
2.339 0.48300001 0.792 104 16 0
2.349 0.47999999 0.78899997 93 16 0
2.3540001 0.47499999 0.78500003 97 16 0
2.3640001 0.472 0.78200001 102 16 0
2.3699999 0.46799999 0.778 100 16 0
2.378 0.465 0.77399999 97 16 0
2.3870001 0.461 0.76999998 98 16 0
2.3940001 0.458 0.76599997 88 16 0
2.408 0.45500001 0.764 92 16 0
2.414 0.45100001 0.75999999 96 16 0
2.424 0.44800001 0.75599998 96 16 0
2.4349999 0.44499999 0.75300002 101 16 0
2.4419999 0.44100001 0.74900001 88 16 0
2.451 0.43700001 0.745 90 16 0
2.4630001 0.435 0.74199998 88 16 0
2.4719999 0.43099999 0.73799998 92 16 0
2.477 0.42699999 0.73299998 71 16 0
2.487 0.42399999 0.72899997 65 16 0
2.4979999 0.41999999 0.72600001 78 16 0
2.506 0.41600001 0.72100002 61 16 0
2.5179999 0.41299999 0.71700001 69 16 0
2.529 0.41 0.71399999 68 16 0
2.539 0.40700001 0.70999998 68 16 0
2.546 0.403 0.70499998 65 16 0
2.5539999 0.39899999 0.69999999 55 16 0
2.5639999 0.396 0.69599998 61 16 0
2.5739999 0.39199999 0.69099998 56 16 0
2.5899999 0.389 0.68800002 62 16 0
2.599 0.38600001 0.68400002 57 16 0
2.609 0.382 0.67900002 41 16 0
2.622 0.37900001 0.67500001 44 16 0
2.628 0.375 0.66900003 54 16 0
2.6400001 0.37099999 0.66500002 56 16 0
2.6470001 0.36700001 0.65899998 42 16 0
2.6600001 0.36399999 0.65499997 55 16 0
2.665 0.36000001 0.64899999 51 16 0
2.6789999 0.35699999 0.64499998 30 16 0
2.688 0.35299999 0.63999999 36 16 0
2.6989999 0.34900001 0.63499999 70 16 0
2.7079999 0.345 0.62900001 59 16 0
2.7219999 0.34200001 0.625 43 16 0
2.7360001 0.33899999 0.62 40 16 0
2.7509999 0.33500001 0.616 38 16 0
2.7579999 0.331 0.61000001 41 16 0
2.7690001 0.32800001 0.60500002 37 16 0
2.7839999 0.324 0.60000002 37 16 0
2.7920001 0.31999999 0.59399998 37 16 0
2.8039999 0.317 0.58899999 36 16 0
2.816 0.31299999 0.583 37 16 0
2.8329999 0.31 0.579 38 16 0
2.8399999 0.30500001 0.57200003 35 16 0
2.8610001 0.303 0.56800002 36 16 0
2.8699999 0.29800001 0.56199998 38 16 0
2.8800001 0.29499999 0.55599999 36 16 0
2.8940001 0.29100001 0.55000001 36 16 0
2.9070001 0.287 0.54500002 38 16 0
2.9200001 0.28299999 0.53899997 37 16 0
2.9289999 0.27900001 0.53200001 37 16 0
2.944 0.27599999 0.52600002 39 16 0
2.9549999 0.27200001 0.51999998 38 16 0
2.971 0.26800001 0.514 38 16 0
2.9820001 0.264 0.50800002 39 16 0
2.9949999 0.25999999 0.50099999 33 16 0
3.0139999 0.257 0.49599999 34 16 0
3.0309999 0.25299999 0.49000001 35 16 0
3.0450001 0.249 0.484 33 16 0
3.0639999 0.24600001 0.47799999 33 16 0
3.076 0.242 0.47099999 34 16 0
3.0910001 0.23800001 0.465 33 16 0
3.108 0.234 0.45899999 30 16 0
3.128 0.23 0.45300001 32 16 0
3.1400001 0.226 0.44499999 32 16 0
3.1589999 0.222 0.43900001 33 16 0
3.177 0.219 0.43200001 33 16 0
3.1889999 0.214 0.42500001 33 16 0
3.1989999 0.20999999 0.417 32 16 0
3.2260001 0.206 0.41100001 32 16 0
3.2420001 0.20200001 0.40400001 32 16 0
3.2590001 0.198 0.39700001 32 16 0
3.2690001 0.19400001 0.389 32 16 0
3.29 0.19 0.382 39 16 0
3.299 0.185 0.373 140 16 0
3.3069999 0.18099999 0.36500001 150 16 0
3.296 0.175 0.354 133 16 0
3.2939999 0.17 0.34400001 129 16 0
3.2920001 0.16500001 0.33500001 133 16 0
3.289 0.15899999 0.32499999 124 16 0
3.2869999 0.154 0.315 129 16 0
3.2880001 0.149 0.30599999 114 16 0
3.286 0.14399999 0.296 128 16 0
3.2839999 0.139 0.28600001 132 16 0
3.2850001 0.134 0.27700001 137 16 0
3.286 0.12899999 0.26800001 114 16 0
3.2839999 0.124 0.25799999 128 16 0
3.2809999 0.119 0.248 135 16 0
3.279 0.115 0.23800001 127 16 0
3.28 0.11 0.229 135 16 0
3.276 0.105 0.219 150 16 0
3.2690001 0.1 0.20900001 137 16 0
3.27 0.094999999 0.2 148 16 0
3.2709999 0.090000004 0.19 137 16 0
3.2679999 0.086000003 0.18099999 138 16 0
3.2639999 0.081 0.171 128 16 0
3.2620001 0.075999998 0.161 140 16 0
3.2620001 0.071000002 0.152 150 16 0
3.2620001 0.067000002 0.142 135 16 0
3.2590001 0.061999999 0.133 141 16 0
3.2590001 0.057 0.123 47 16 0
3.2820001 0.052999999 0.115 28 16 0
3.306 0.048999999 0.106 27 16 0
3.3239999 0.045000002 0.097000003 26 16 0
3.3429999 0.039999999 0.086999997 18 16 0
3.362 0.035999998 0.078000002 31 16 0
3.3610001 0.030999999 0.068000004 53 16 0
3.3570001 0.027000001 0.057999998 45 16 0
3.348 0.022 0.048 29 16 0
3.3329999 0.017000001 0.037999999 19 16 0
3.3180001 0.013 0.028000001 17 16 0
3.3039999 0.0080000004 0.017999999 17 16 0
3.2939999 0.0040000002 0.0089999996 17 16 0
3.279 0 0 16 16 0
3.2639999 -0.0040000002 -0.0099999998 16 16 0
3.2520001 -0.0080000004 -0.018999999 16 16 0
3.237 -0.013 -0.028999999 19 16 0
3.227 -0.017000001 -0.037999999 27 16 0
3.217 -0.021 -0.048 44 16 0
3.2219999 -0.025 -0.057 89 16 0
3.224 -0.029999999 -0.067000002 101 16 0
3.214 -0.034000002 -0.075999998 112 16 0
3.2149999 -0.037999999 -0.086000003 106 16 0
3.2149999 -0.041999999 -0.094999999 128 16 0
3.211 -0.046 -0.105 117 16 0
3.2119999 -0.050000001 -0.114 123 16 0
3.207 -0.054000001 -0.124 131 16 0
3.2049999 -0.057999998 -0.133 115 16 0
3.2060001 -0.061999999 -0.14300001 150 16 0
3.2049999 -0.066 -0.152 150 16 0
3.1989999 -0.07 -0.162 108 16 0
3.188 -0.074000001 -0.171 50 16 0
3.1860001 -0.078000002 -0.18000001 32 16 0
3.1730001 -0.082000002 -0.189 26 16 0
3.158 -0.085000001 -0.197 25 16 0
3.145 -0.089000002 -0.206 26 16 0
3.1300001 -0.092 -0.214 24 16 0
3.118 -0.096000001 -0.223 24 16 0
3.1129999 -0.098999999 -0.23199999 25 16 0
3.102 -0.103 -0.241 24 16 0
3.092 -0.106 -0.249 24 16 0
3.0799999 -0.109 -0.257 24 16 0
3.0710001 -0.113 -0.266 25 16 0
3.0610001 -0.116 -0.27399999 25 16 0
3.0439999 -0.119 -0.28200001 24 16 0
3.03 -0.122 -0.28999999 24 16 0
3.0239999 -0.125 -0.29800001 25 16 0
3.0090001 -0.12800001 -0.30599999 27 16 0
2.993 -0.131 -0.31400001 27 16 0
2.9860001 -0.134 -0.322 27 16 0
2.9760001 -0.13699999 -0.33000001 27 16 0
2.9619999 -0.14 -0.338 26 16 0
2.954 -0.14300001 -0.34599999 26 16 0
2.948 -0.146 -0.354 26 16 0
2.938 -0.149 -0.36199999 26 16 0
2.9319999 -0.152 -0.37 25 16 0
2.927 -0.155 -0.37900001 27 16 0
2.911 -0.15700001 -0.38499999 26 16 0
2.8970001 -0.16 -0.39199999 26 16 0
2.892 -0.163 -0.40099999 27 16 0
2.881 -0.16500001 -0.40799999 26 16 0
2.8770001 -0.168 -0.41600001 26 16 0
2.8659999 -0.171 -0.42399999 27 16 0
2.855 -0.17299999 -0.43099999 25 16 0
2.8440001 -0.176 -0.43799999 25 16 0
2.839 -0.178 -0.44600001 26 16 0
2.829 -0.18099999 -0.45300001 26 16 0
2.8169999 -0.183 -0.46000001 25 16 0
2.8150001 -0.186 -0.46900001 27 16 0
2.8099999 -0.18799999 -0.477 26 16 0
2.802 -0.191 -0.484 25 16 0
2.7920001 -0.193 -0.491 26 16 0
2.7750001 -0.19499999 -0.49700001 26 16 0
2.773 -0.197 -0.505 26 16 0
2.7709999 -0.2 -0.514 26 16 0
2.757 -0.20200001 -0.51999998 26 16 0
2.7460001 -0.204 -0.52600002 26 16 0
2.7379999 -0.206 -0.53299999 25 16 0
2.7349999 -0.20900001 -0.542 26 16 0
2.7290001 -0.211 -0.54900002 26 16 0
2.717 -0.213 -0.55500001 25 16 0
2.714 -0.215 -0.56300002 26 16 0
2.7060001 -0.21699999 -0.56999999 25 16 0
2.7019999 -0.219 -0.57800001 25 16 0
2.6849999 -0.221 -0.583 25 16 0
2.6800001 -0.223 -0.58999997 25 16 0
2.674 -0.22499999 -0.59799999 25 16 0
2.6689999 -0.227 -0.60500002 25 16 0
2.665 -0.229 -0.61299998 25 16 0
2.658 -0.23100001 -0.62 25 16 0
2.6530001 -0.233 -0.62699997 25 16 0
2.645 -0.235 -0.63300002 25 16 0
2.6400001 -0.237 -0.64099997 29 16 0
2.6289999 -0.23800001 -0.64600003 29 16 0
2.6259999 -0.23999999 -0.65399998 28 16 0
2.6210001 -0.242 -0.662 28 16 0
2.608 -0.243 -0.667 28 16 0
2.6040001 -0.245 -0.67400002 29 16 0
2.5969999 -0.24600001 -0.68099999 29 16 0
2.5940001 -0.248 -0.68900001 28 16 0
2.5869999 -0.25 -0.69499999 27 16 0
2.585 -0.252 -0.70300001 28 16 0
2.5699999 -0.25299999 -0.70700002 28 16 0
2.5639999 -0.25400001 -0.71399999 29 16 0
2.5569999 -0.255 -0.72000003 30 16 0
2.5510001 -0.257 -0.727 35 16 0
2.549 -0.259 -0.73500001 34 16 0
2.543 -0.25999999 -0.741 35 16 0
2.5350001 -0.26100001 -0.74699998 35 16 0
2.529 -0.26300001 -0.75400001 35 16 0
2.526 -0.264 -0.76099998 34 16 0
2.5209999 -0.266 -0.76800001 33 16 0
2.5120001 -0.26699999 -0.77399999 33 16 0
2.51 -0.26800001 -0.78100002 33 16 0
2.5039999 -0.26899999 -0.78799999 33 16 0
2.4979999 -0.271 -0.79400003 35 16 0
2.494 -0.27200001 -0.801 34 16 0
2.484 -0.273 -0.80699998 35 16 0
2.48 -0.27399999 -0.81300002 35 16 0
2.4790001 -0.27500001 -0.82099998 34 16 0
2.471 -0.27599999 -0.82700002 35 16 0
2.467 -0.27700001 -0.83399999 38 16 0
2.4619999 -0.278 -0.83999997 35 16 0
2.4549999 -0.27900001 -0.84600002 34 16 0
2.454 -0.28099999 -0.85399997 35 16 0
2.4489999 -0.28200001 -0.861 40 16 0
2.441 -0.28200001 -0.866 33 16 0
2.438 -0.28299999 -0.87300003 34 16 0
2.434 -0.28400001 -0.88 34 16 0
2.431 -0.285 -0.88700002 37 16 0
2.424 -0.28600001 -0.89200002 33 16 0
2.415 -0.28600001 -0.89700001 37 16 0
2.414 -0.287 -0.90499997 33 16 0
2.4100001 -0.28799999 -0.91100001 34 16 0
2.4070001 -0.289 -0.91799998 38 16 0
2.404 -0.28999999 -0.92500001 34 16 0
2.3959999 -0.28999999 -0.93000001 33 16 0
2.395 -0.29100001 -0.93800002 36 16 0
2.3900001 -0.292 -0.94400001 53 16 0
2.3829999 -0.292 -0.949 52 16 0
2.3800001 -0.29300001 -0.95599997 52 16 0
2.3740001 -0.29300001 -0.96200001 49 16 0
2.3740001 -0.294 -0.97000003 53 16 0
2.3710001 -0.29499999 -0.977 58 16 0
2.365 -0.29499999 -0.98299998 46 16 0
2.3629999 -0.296 -0.98900002 51 16 0
2.358 -0.296 -0.995 58 16 0
2.355 -0.296 -1.002 50 16 0
2.352 -0.29699999 -1.0089999 52 16 0
2.349 -0.29699999 -1.015 58 16 0
2.346 -0.29800001 -1.022 49 16 0
2.3429999 -0.29800001 -1.029 49 16 0
2.3369999 -0.29800001 -1.034 52 16 0
2.3340001 -0.29800001 -1.04 54 16 0
2.3340001 -0.29899999 -1.048 52 16 0
2.3310001 -0.29899999 -1.0549999 54 16 0
2.326 -0.29899999 -1.0599999 55 16 0
2.325 -0.30000001 -1.068 56 16 0
2.3199999 -0.29899999 -1.073 59 16 0
2.319 -0.30000001 -1.081 52 16 0
2.313 -0.29899999 -1.085 53 16 0
2.3110001 -0.29899999 -1.092 51 16 0
2.312 -0.30000001 -1.1 49 16 0
2.3069999 -0.30000001 -1.1059999 47 16 0
2.302 -0.29899999 -1.1109999 52 16 0
2.3010001 -0.29899999 -1.118 54 16 0
2.3 -0.30000001 -1.125 52 16 0
2.2950001 -0.29899999 -1.131 52 16 0
2.2939999 -0.29899999 -1.138 43 16 0
2.2909999 -0.29899999 -1.1440001 47 16 0
2.2880001 -0.29800001 -1.15 43 16 0
2.2850001 -0.29800001 -1.156 46 16 0
2.2820001 -0.29800001 -1.1619999 48 16 0
2.2839999 -0.29800001 -1.17 41 16 0
2.2809999 -0.29699999 -1.176 38 16 0
2.2780001 -0.29699999 -1.182 39 16 0
2.279 -0.29699999 -1.1900001 64 16 0
2.277 -0.29699999 -1.196 61 16 0
2.279 -0.296 -1.204 63 16 0
2.2739999 -0.296 -1.209 60 16 0
2.2709999 -0.29499999 -1.215 63 16 0
2.2679999 -0.294 -1.22 62 16 0
2.2679999 -0.294 -1.227 61 16 0
2.2650001 -0.29300001 -1.233 61 16 0
2.2620001 -0.292 -1.238 67 16 0
2.267 -0.292 -1.248 64 16 0
2.2650001 -0.29100001 -1.2539999 64 16 0
2.2650001 -0.29100001 -1.261 60 16 0
2.263 -0.28999999 -1.267 64 16 0
2.2639999 -0.28999999 -1.275 59 16 0
2.263 -0.289 -1.281 56 16 0
2.2579999 -0.287 -1.285 55 16 0
2.2609999 -0.287 -1.293 53 16 0
2.2609999 -0.28600001 -1.3 54 16 0
2.2590001 -0.285 -1.3049999 54 16 0
2.2579999 -0.28400001 -1.312 52 16 0
2.2579999 -0.28299999 -1.319 51 16 0
2.26 -0.28200001 -1.326 53 16 0
2.2579999 -0.28099999 -1.331 52 16 0
2.2579999 -0.28 -1.3380001 50 16 0
2.2579999 -0.27900001 -1.344 48 16 0
2.2579999 -0.278 -1.351 49 16 0
2.2550001 -0.27599999 -1.355 51 16 0
2.256 -0.27500001 -1.362 49 16 0
2.253 -0.273 -1.367 46 16 0
2.256 -0.27200001 -1.375 40 16 0
2.2590001 -0.271 -1.383 41 16 0
2.256 -0.27000001 -1.387 39 16 0
2.2579999 -0.26800001 -1.3940001 40 16 0
2.2620001 -0.26699999 -1.403 41 16 0
2.26 -0.26499999 -1.4069999 36 16 0
2.26 -0.264 -1.413 36 16 0
2.263 -0.26300001 -1.42 42 16 0
2.2609999 -0.26100001 -1.425 39 16 0
2.2609999 -0.259 -1.4299999 36 16 0
2.2639999 -0.25799999 -1.438 36 16 0
2.2639999 -0.25600001 -1.443 35 16 0
2.267 -0.25400001 -1.45 37 16 0
2.2720001 -0.25299999 -1.459 36 16 0
2.2690001 -0.25099999 -1.462 36 16 0
2.2720001 -0.249 -1.469 36 16 0
2.273 -0.24699999 -1.475 35 16 0
2.273 -0.245 -1.48 33 16 0
2.276 -0.243 -1.487 33 16 0
2.2780001 -0.241 -1.493 34 16 0
2.2739999 -0.23899999 -1.495 33 16 0
2.277 -0.237 -1.501 34 16 0
2.2809999 -0.235 -1.508 35 16 0
2.29 -0.234 -1.5190001 35 16 0
2.2880001 -0.23100001 -1.522 33 16 0
2.289 -0.229 -1.527 34 16 0
2.2880001 -0.227 -1.531 34 16 0
2.2920001 -0.22400001 -1.5369999 32 16 0
2.2969999 -0.222 -1.545 32 16 0
2.296 -0.22 -1.5470001 32 16 0
2.302 -0.21799999 -1.5549999 33 16 0
2.303 -0.215 -1.5599999 33 16 0
2.3069999 -0.213 -1.566 32 16 0
2.3099999 -0.211 -1.571 32 16 0
2.316 -0.20900001 -1.579 32 16 0
2.319 -0.206 -1.584 32 16 0
2.319 -0.20299999 -1.587 32 16 0
2.322 -0.20100001 -1.5930001 31 16 0
2.326 -0.198 -1.598 31 16 0
2.3310001 -0.19599999 -1.604 31 16 0
2.335 -0.193 -1.61 31 16 0
2.336 -0.19 -1.613 30 16 0
2.3410001 -0.18799999 -1.619 31 16 0
2.342 -0.185 -1.622 32 16 0
2.349 -0.182 -1.6289999 32 16 0
2.355 -0.18000001 -1.636 33 16 0
2.3599999 -0.177 -1.641 32 16 0
2.3599999 -0.17399999 -1.643 32 16 0
2.362 -0.171 -1.646 31 16 0
2.3710001 -0.168 -1.654 31 19 0
2.372 -0.16500001 -1.656 32 16 0
2.3789999 -0.162 -1.6619999 31 16 0
2.3829999 -0.15899999 -1.666 32 16 0
2.3870001 -0.156 -1.67 32 16 0
2.3959999 -0.154 -1.677 31 16 0
2.398 -0.15099999 -1.6799999 32 16 0
2.4030001 -0.148 -1.684 31 16 0
2.4100001 -0.145 -1.689 32 16 0
2.414 -0.141 -1.692 32 16 0
2.415 -0.138 -1.694 31 16 0
2.4230001 -0.13500001 -1.7 31 19 0
2.4319999 -0.132 -1.706 32 16 0
2.4360001 -0.12899999 -1.709 32 16 0
2.444 -0.126 -1.714 32 16 0
2.4460001 -0.123 -1.715 31 16 0
2.451 -0.119 -1.7180001 32 16 0
2.454 -0.116 -1.72 30 16 0
2.4660001 -0.113 -1.727 31 18 0
2.4679999 -0.109 -1.728 31 16 0
2.4749999 -0.106 -1.732 32 16 0
2.483 -0.103 -1.7359999 33 16 0
2.4920001 -0.1 -1.7410001 44 16 0
2.494 -0.096000001 -1.7410001 97 16 0
2.5039999 -0.093000002 -1.7460001 150 19 0
2.5 -0.089000002 -1.742 150 16 0
2.4979999 -0.086000003 -1.739 150 16 0
2.4990001 -0.082000002 -1.738 150 16 0
2.497 -0.079000004 -1.734 150 16 0
2.4979999 -0.075000003 -1.732 150 16 0
2.497 -0.071000002 -1.729 150 16 0
2.494 -0.068000004 -1.725 150 16 0
2.4960001 -0.064000003 -1.723 150 16 0
2.4909999 -0.061000001 -1.717 150 16 0
2.4909999 -0.057 -1.714 150 16 0
2.49 -0.054000001 -1.711 150 16 0
2.4909999 -0.050000001 -1.7079999 148 16 0
2.483 -0.046999998 -1.699 87 16 0
2.4909999 -0.043000001 -1.702 42 16 0
2.494 -0.039999999 -1.7 28 16 0
2.5039999 -0.037 -1.7029999 23 16 0
2.5079999 -0.033 -1.702 21 16 0
2.5150001 -0.029999999 -1.7029999 21 16 0
2.5220001 -0.027000001 -1.704 21 16 0
2.53 -0.023 -1.705 20 16 0
2.5350001 -0.02 -1.704 21 16 0
2.543 -0.017000001 -1.705 21 16 0
2.5450001 -0.014 -1.702 22 16 0
2.563 -0.011 -1.709 24 19 0
2.566 -0.0070000002 -1.706 27 16 0
2.5799999 -0.0040000002 -1.711 37 16 0
2.582 -0.001 -1.707 48 16 0
2.5810001 0.001 -1.702 96 16 0
2.5810001 0.0049999999 -1.696 108 16 0
2.5769999 0.0080000004 -1.689 136 16 0
2.576 0.011 -1.683 117 16 0
2.575 0.014 -1.676 124 16 0
2.5769999 0.017000001 -1.6720001 120 16 0
2.5769999 0.02 -1.666 115 16 0
2.5829999 0.023 -1.664 90 16 0
2.5829999 0.026000001 -1.658 77 16 0
2.589 0.028999999 -1.656 61 16 0
2.5899999 0.032000002 -1.651 70 16 0
2.5899999 0.035 -1.645 101 16 0
2.5899999 0.037999999 -1.6390001 116 16 0
2.5910001 0.041000001 -1.633 150 16 0
2.5929999 0.044 -1.628 150 16 0
2.589 0.046 -1.618 150 16 0
2.592 0.048999999 -1.614 150 16 0
2.5940001 0.052000001 -1.608 150 16 0
2.5999999 0.055 -1.605 150 16 0
2.598 0.057 -1.597 150 16 0
2.598 0.059999999 -1.59 150 16 0
2.596 0.061999999 -1.5829999 150 16 0
2.599 0.064999998 -1.577 150 16 0
2.602 0.068000004 -1.572 150 16 0
2.602 0.07 -1.5650001 150 16 0
2.605 0.072999999 -1.559 150 16 0
2.609 0.075000003 -1.554 150 16 0
2.612 0.077 -1.548 150 16 0
2.6099999 0.079999998 -1.54 150 16 0
2.609 0.082000002 -1.5319999 150 16 0
2.612 0.083999999 -1.526 150 16 0
2.615 0.086000003 -1.52 150 16 0
2.618 0.089000002 -1.5140001 150 16 0
2.619 0.090999998 -1.507 150 16 0
2.6229999 0.093000002 -1.501 150 16 0
2.6259999 0.094999999 -1.495 150 16 0
2.622 0.097000003 -1.485 150 16 0
2.6240001 0.098999999 -1.478 150 16 0
2.628 0.101 -1.473 150 16 0
2.6329999 0.103 -1.467 150 16 0
2.6329999 0.105 -1.459 150 16 0
2.6329999 0.107 -1.451 150 16 0
2.6359999 0.109 -1.4450001 150 16 0
2.6429999 0.111 -1.4400001 150 16 0
2.6429999 0.112 -1.432 150 16 0
2.6440001 0.114 -1.424 150 16 0
2.6470001 0.116 -1.4170001 150 16 0
2.6530001 0.117 -1.4119999 150 16 0
2.6500001 0.119 -1.402 150 16 0
2.654 0.12 -1.395 150 16 0
2.6600001 0.122 -1.39 150 16 0
2.6600001 0.124 -1.381 150 16 0
2.661 0.125 -1.373 150 16 0
2.6659999 0.127 -1.367 150 16 0
2.6659999 0.12800001 -1.358 150 16 0
2.6689999 0.12899999 -1.351 150 16 0
2.664 0.13 -1.34 150 16 0
2.664 0.132 -1.331 150 16 0
2.674 0.133 -1.327 150 16 0
2.6789999 0.13500001 -1.321 150 16 0
2.675 0.13500001 -1.3099999 150 16 0
2.6860001 0.13699999 -1.307 150 16 0
2.681 0.138 -1.295 150 16 0
2.6819999 0.139 -1.2869999 150 16 0
2.688 0.14 -1.28 150 16 0
2.7 0.141 -1.277 150 16 0
2.6949999 0.142 -1.265 150 16 0
2.698 0.14300001 -1.258 150 16 0
2.697 0.14399999 -1.248 150 16 0
2.698 0.145 -1.24 150 16 0
2.704 0.146 -1.233 150 16 0
2.707 0.146 -1.226 150 16 0
2.711 0.147 -1.2180001 150 16 0
2.714 0.148 -1.21 150 16 0
2.717 0.149 -1.2029999 150 16 0
2.721 0.15000001 -1.1950001 150 16 0
2.724 0.15000001 -1.187 150 16 0
2.727 0.15099999 -1.179 150 16 0
2.7290001 0.15099999 -1.171 150 16 0
2.734 0.152 -1.164 150 16 0
2.733 0.152 -1.154 150 16 0
2.7409999 0.153 -1.148 150 16 0
2.7420001 0.154 -1.1390001 150 16 0
2.743 0.154 -1.13 150 16 0
2.75 0.155 -1.124 150 16 0
2.7539999 0.155 -1.1160001 150 16 0
2.7620001 0.156 -1.11 150 16 0
2.76 0.156 -1.1 150 16 0
2.78 0.15700001 -1.098 92 16 0
2.812 0.15899999 -1.101 16 16 0
2.7880001 0.15700001 -1.082 0 16 0
2.802 0.15800001 -1.0779999 0 16 0
2.826 0.16 -1.0779999 0 16 0
2.898 0.164 -1.095 0 16 0
3.0039999 0.169 -1.125 0 16 0
2.9979999 0.169 -1.113 0 16 0
2.9820001 0.168 -1.096 0 16 0
2.9979999 0.169 -1.092 0 16 0
2.9230001 0.164 -1.0549999 0 17 0
2.858 0.16 -1.022 21 19 0
2.8150001 0.15800001 -0.99699998 112 16 0
2.8210001 0.15800001 -0.98900002 150 16 0
2.8280001 0.15800001 -0.98199999 150 16 0
2.825 0.15700001 -0.97100002 150 16 0
2.8269999 0.15700001 -0.96200001 150 16 0
2.835 0.15700001 -0.95499998 150 16 0
2.836 0.15700001 -0.94599998 150 16 0
2.8399999 0.156 -0.93800002 150 16 0
2.845 0.156 -0.93000001 150 16 0
2.8499999 0.156 -0.92199999 150 16 0
2.8540001 0.156 -0.91399997 150 16 0
2.8559999 0.155 -0.90399998 150 16 0
2.858 0.155 -0.89600003 150 16 0
2.8670001 0.154 -0.889 150 16 0
2.8670001 0.154 -0.87900001 150 16 0
2.8729999 0.153 -0.87099999 150 16 0
2.8770001 0.153 -0.86299998 150 16 0
2.881 0.152 -0.85399997 150 16 0
2.8829999 0.152 -0.84500003 150 16 0
2.8900001 0.15099999 -0.83700001 150 16 0
2.895 0.15099999 -0.829 150 16 0
2.898 0.15000001 -0.81999999 150 16 0
2.902 0.149 -0.81199998 150 16 0
2.901 0.148 -0.80199999 150 16 0
2.9070001 0.148 -0.79400003 150 16 0
2.914 0.147 -0.78600001 150 16 0
2.9200001 0.147 -0.778 150 16 0
2.9230001 0.146 -0.76800001 150 16 0
2.928 0.145 -0.75999999 150 16 0
2.9289999 0.14399999 -0.75099999 150 16 0
2.9360001 0.14300001 -0.74199998 150 16 0
2.9389999 0.142 -0.73299998 150 16 0
2.9460001 0.141 -0.72500002 150 16 0
2.9489999 0.141 -0.71600002 150 16 0
2.954 0.14 -0.708 150 16 0
2.9579999 0.139 -0.699 150 16 0
2.96 0.13699999 -0.69 150 16 0
2.9630001 0.13600001 -0.68000001 150 16 0
2.97 0.13500001 -0.67199999 150 16 0
2.973 0.134 -0.66299999 150 16 0
2.9809999 0.133 -0.65499997 150 16 0
2.983 0.132 -0.64600003 150 16 0
2.9849999 0.131 -0.63599998 150 16 0
2.994 0.13 -0.62800002 150 16 0
2.997 0.12899999 -0.61900002 150 16 0
3.0009999 0.127 -0.61000001 150 16 0
3.003 0.126 -0.60100001 150 16 0
3.0139999 0.125 -0.59299999 150 16 0
3.017 0.124 -0.58399999 150 16 0
3.0179999 0.122 -0.574 150 16 0
3.0250001 0.121 -0.56599998 150 16 0
3.0309999 0.12 -0.55699998 150 16 0
3.036 0.118 -0.54799998 150 16 0
3.0369999 0.117 -0.53799999 150 16 0
3.046 0.115 -0.52999997 150 16 0
3.0480001 0.114 -0.51999998 150 16 0
3.0480001 0.112 -0.50999999 146 16 0
3.0550001 0.111 -0.50099999 150 16 0
3.0650001 0.109 -0.493 150 16 0
3.072 0.108 -0.484 131 16 0
3.076 0.106 -0.47499999 143 16 0
3.085 0.105 -0.46599999 150 16 0
3.0829999 0.103 -0.456 150 16 0
3.0899999 0.101 -0.447 150 16 0
3.0929999 0.1 -0.43799999 150 16 0
3.1070001 0.097999997 -0.43000001 143 16 0
3.1059999 0.096000001 -0.419 140 16 0
3.1099999 0.093999997 -0.41 123 16 0
3.115 0.093000002 -0.40099999 140 16 0
3.118 0.090999998 -0.391 134 16 0
3.1229999 0.089000002 -0.382 150 16 0
3.1340001 0.086999997 -0.373 138 16 0
3.1359999 0.085000001 -0.36300001 145 16 0
3.1400001 0.082999997 -0.354 150 16 0
3.1470001 0.081 -0.34400001 150 16 0
3.152 0.079999998 -0.33500001 144 16 0
3.164 0.078000002 -0.32600001 150 16 0
3.1630001 0.075999998 -0.31600001 149 16 0
3.168 0.074000001 -0.30599999 145 16 0
3.1760001 0.071999997 -0.29699999 150 16 0
3.184 0.07 -0.287 147 16 0
3.187 0.067000002 -0.27700001 142 16 0
3.188 0.064999998 -0.26800001 150 16 0
3.1949999 0.063000001 -0.25799999 103 16 0
3.201 0.061000001 -0.248 78 16 0
3.2119999 0.059 -0.23899999 74 16 0
3.214 0.057 -0.229 57 16 0
3.22 0.054000001 -0.219 56 16 0
3.2290001 0.052000001 -0.20999999 68 16 0
3.233 0.050000001 -0.2 84 16 0
3.2360001 0.048 -0.19 109 16 0
3.2379999 0.045000002 -0.18000001 148 16 0
3.244 0.043000001 -0.17 137 16 0
3.25 0.039999999 -0.16 119 16 0
3.26 0.037999999 -0.15000001 132 16 0
3.263 0.035999998 -0.14 131 16 0
3.2709999 0.033 -0.13 118 16 0
3.2809999 0.030999999 -0.12 106 16 0
3.2850001 0.028000001 -0.11 50 16 0
3.286 0.026000001 -0.098999999 39 16 0
3.2869999 0.023 -0.089000002 29 16 0
3.2850001 0.02 -0.079000004 23 16 0
3.286 0.017999999 -0.068000004 21 16 0
3.277 0.015 -0.057999998 20 16 0
3.2820001 0.012 -0.048 20 16 0
3.2820001 0.0099999998 -0.037 20 16 0
3.279 0.0070000002 -0.027000001 20 16 0
3.2720001 0.0040000002 -0.017000001 19 16 0
3.2720001 0.001 -0.0070000002 19 16 0
3.2720001 0 0.003 19 16 0
3.2709999 -0.003 0.013 19 16 0
3.2690001 -0.0060000001 0.023 22 16 0
3.2650001 -0.0089999996 0.033 26 16 0
3.2679999 -0.012 0.043000001 36 16 0
3.2720001 -0.014 0.054000001 54 16 0
3.277 -0.017000001 0.064000003 127 16 0
3.279 -0.02 0.074000001 150 16 0
3.286 -0.023 0.085000001 150 16 0
3.2939999 -0.026000001 0.094999999 150 16 0
3.3 -0.028999999 0.106 150 16 0
3.302 -0.032000002 0.116 150 16 0
3.313 -0.035 0.127 150 16 0
3.313 -0.037999999 0.13699999 150 16 0
3.3210001 -0.041000001 0.148 150 16 0
3.329 -0.045000002 0.15800001 150 16 0
3.3410001 -0.048 0.169 150 16 0
3.3440001 -0.050999999 0.18000001 150 16 0
3.352 -0.054000001 0.191 150 16 0
3.3540001 -0.057999998 0.20100001 150 16 0
3.3629999 -0.061000001 0.212 149 16 0
3.369 -0.064000003 0.223 69 16 0
3.3610001 -0.067000002 0.233 39 16 0
3.3610001 -0.071000002 0.243 31 16 0
3.359 -0.074000001 0.25400001 29 16 0
3.3529999 -0.077 0.26300001 29 16 0
3.3469999 -0.079999998 0.273 28 16 0
3.346 -0.083999999 0.28400001 28 16 0
3.3429999 -0.086999997 0.294 29 16 0
3.336 -0.090000004 0.303 28 16 0
3.335 -0.093000002 0.31400001 29 16 0
3.3329999 -0.097000003 0.324 28 16 0
3.329 -0.1 0.33399999 28 16 0
3.325 -0.103 0.34400001 29 16 0
3.326 -0.107 0.354 33 16 0
3.319 -0.11 0.36399999 38 16 0
3.309 -0.113 0.373 46 16 0
3.2920001 -0.116 0.38100001 50 16 0
3.28 -0.119 0.38999999 44 16 0
3.2639999 -0.122 0.398 41 16 0
3.2490001 -0.125 0.40599999 39 16 0
3.2320001 -0.12800001 0.414 39 16 0
3.2119999 -0.13 0.421 39 16 0
3.1930001 -0.133 0.42899999 40 16 0
3.178 -0.13600001 0.43599999 40 16 0
3.1600001 -0.139 0.44400001 40 16 0
3.1400001 -0.141 0.45100001 38 16 0
3.128 -0.14399999 0.458 38 16 0
3.1070001 -0.147 0.465 39 16 0
3.086 -0.149 0.47099999 38 16 0
3.075 -0.152 0.479 39 16 0
3.0580001 -0.155 0.486 38 16 0
3.0369999 -0.15700001 0.49200001 39 16 0
3.0209999 -0.16 0.49900001 37 16 0
3.007 -0.163 0.50599998 38 16 0
2.9879999 -0.16500001 0.51200002 38 16 0
2.9809999 -0.168 0.51999998 37 16 0
2.964 -0.171 0.52600002 38 16 0
2.9530001 -0.17399999 0.53299999 37 16 0
2.9360001 -0.176 0.53899997 39 16 0
2.9260001 -0.17900001 0.546 39 16 0
2.904 -0.18099999 0.551 39 16 0
2.895 -0.185 0.55800003 37 16 0
2.881 -0.18700001 0.56400001 39 16 0
2.8699999 -0.19 0.57099998 38 16 0
2.855 -0.193 0.57700002 37 16 0
2.8429999 -0.19499999 0.583 40 16 0
2.8310001 -0.198 0.58899999 38 16 0
2.8169999 -0.20100001 0.59500003 39 16 0
2.8039999 -0.20299999 0.60100001 38 16 0
2.7920001 -0.206 0.60699999 41 16 0
2.78 -0.20900001 0.61299998 40 16 0
2.7650001 -0.211 0.61799997 41 16 0
2.757 -0.214 0.625 39 16 0
2.747 -0.21699999 0.63099998 52 16 0
2.724 -0.219 0.634 44 16 0
2.7119999 -0.222 0.63999999 53 16 0
2.701 -0.22400001 0.64499998 50 16 0
2.687 -0.227 0.64999998 56 16 0
2.681 -0.23 0.65700001 59 16 0
2.668 -0.23199999 0.662 90 16 0
2.658 -0.235 0.667 79 16 0
2.642 -0.237 0.67199999 85 16 0
2.6389999 -0.241 0.67900002 78 16 0
2.6210001 -0.243 0.68199998 91 16 0
2.6159999 -0.24600001 0.68900001 88 16 0
2.6110001 -0.249 0.69499999 80 16 0
2.5940001 -0.25099999 0.699 89 16 0
2.579 -0.25299999 0.70300001 89 16 0
2.5680001 -0.25600001 0.708 92 16 0
2.562 -0.259 0.71399999 110 16 0
2.5480001 -0.26199999 0.71799999 114 16 0
2.5380001 -0.264 0.722 109 16 0
2.5280001 -0.26699999 0.727 119 16 0
2.517 -0.27000001 0.73199999 113 16 0
2.5120001 -0.273 0.73799998 109 16 0
2.5 -0.27500001 0.74199998 120 16 0
2.4909999 -0.278 0.74699998 118 16 0
2.4749999 -0.28 0.74900001 114 16 0
2.47 -0.28299999 0.755 115 16 0
2.4590001 -0.28600001 0.759 120 16 0
2.4489999 -0.28799999 0.764 121 16 0
2.4430001 -0.29100001 0.76899999 138 16 0
2.4289999 -0.294 0.77200001 120 16 0
2.418 -0.296 0.77600002 127 16 0
2.4100001 -0.29899999 0.77999997 138 16 0
2.401 -0.30199999 0.78500003 136 16 0
2.3929999 -0.30399999 0.79000002 132 16 0
2.381 -0.30700001 0.79299998 144 16 0
2.3710001 -0.30899999 0.796 135 16 0
2.365 -0.31200001 0.801 128 16 0
2.3599999 -0.31600001 0.80699998 150 16 0
2.345 -0.317 0.80900002 135 16 0
2.342 -0.32100001 0.815 142 16 0
2.332 -0.324 0.81800002 149 16 0
2.326 -0.32699999 0.82300001 125 16 0
2.3150001 -0.329 0.82599998 133 16 0
2.306 -0.33199999 0.82999998 144 16 0
2.2969999 -0.33399999 0.833 140 16 0
2.286 -0.33700001 0.83600003 143 16 0
2.2809999 -0.34 0.83999997 140 16 0
2.2679999 -0.34200001 0.84200001 150 16 0
2.2609999 -0.345 0.84600002 150 16 0
2.256 -0.34799999 0.85100001 140 16 0
2.243 -0.34999999 0.85299999 146 16 0
2.2390001 -0.35299999 0.85799998 150 16 0
2.2279999 -0.35600001 0.86000001 150 16 0
2.2219999 -0.359 0.86400002 150 16 0
2.2119999 -0.361 0.86699998 150 16 0
2.204 -0.36399999 0.87 150 16 0
2.1960001 -0.366 0.87300003 150 16 0
2.1930001 -0.37 0.87800002 150 16 0
2.1830001 -0.37200001 0.88 150 16 0
2.177 -0.375 0.884 150 16 0
2.1689999 -0.37799999 0.88700002 150 16 0
2.1619999 -0.38100001 0.88999999 150 16 0
2.151 -0.38299999 0.89099997 150 16 0
2.1440001 -0.38600001 0.89499998 150 16 0
2.1370001 -0.389 0.898 150 16 0
2.1300001 -0.391 0.90100002 150 16 0
2.1229999 -0.39399999 0.90399998 150 16 0
2.118 -0.39700001 0.90799999 150 16 0
2.112 -0.40000001 0.91100001 150 16 0
2.1059999 -0.403 0.91399997 150 16 0
2.0929999 -0.405 0.91399997 150 16 0
2.089 -0.40799999 0.91799998 150 16 0
2.0829999 -0.41100001 0.921 150 16 0
2.0769999 -0.414 0.92400002 150 16 0
2.073 -0.41800001 0.92799997 150 16 0
2.0610001 -0.419 0.92799997 150 16 0
2.0580001 -0.42300001 0.93199998 150 16 0
2.0539999 -0.426 0.93599999 150 16 0
2.0450001 -0.428 0.93699998 150 16 0
2.039 -0.43099999 0.94 150 16 0
2.036 -0.435 0.94300002 150 16 0
2.027 -0.43700001 0.94400001 150 16 0
2.0239999 -0.44100001 0.94800001 150 16 0
2.0190001 -0.44400001 0.95099998 150 16 0
2.016 -0.447 0.95499998 150 16 0
2.006 -0.449 0.95499998 150 16 0
2 -0.45199999 0.95700002 150 16 0
1.998 -0.456 0.96100003 150 16 0
1.9910001 -0.458 0.963 150 16 0
1.985 -0.461 0.96399999 150 16 0
1.982 -0.465 0.96799999 150 16 0
1.972 -0.46700001 0.96799999 150 16 0
1.967 -0.47 0.97000003 150 16 0
1.959 -0.472 0.97100002 150 16 0
1.955 -0.47499999 0.97299999 150 16 0
1.9529999 -0.479 0.977 150 16 0
1.948 -0.48199999 0.97899997 150 16 0
1.944 -0.48500001 0.98100001 150 16 0
1.938 -0.48800001 0.98299998 150 16 0
1.933 -0.491 0.98500001 150 16 0
1.931 -0.49399999 0.98799998 150 16 0
1.927 -0.498 0.99000001 150 16 0
1.926 -0.50099999 0.99400002 150 16 0
1.916 -0.50300002 0.99199998 150 16 0
1.906 -0.505 0.99199998 150 16 0
1.904 -0.50800002 0.99400002 150 16 0
1.899 -0.51099998 0.99599999 150 16 0
1.897 -0.51499999 0.99900001 150 16 0
1.89 -0.51700002 0.99900001 150 16 0
1.888 -0.51999998 1.001 150 16 0
1.885 -0.52399999 1.0039999 150 16 0
1.885 -0.528 1.007 150 16 0
1.881 -0.53100002 1.008 150 16 0
1.875 -0.53299999 1.0089999 150 16 0
1.873 -0.537 1.011 150 16 0
1.869 -0.54000002 1.012 150 16 0
1.864 -0.54299998 1.013 150 16 0
1.865 -0.54699999 1.017 150 16 0
1.862 -0.55000001 1.018 150 16 0
1.8559999 -0.55199999 1.018 150 16 0
1.854 -0.55599999 1.02 150 16 0
1.858 -0.56099999 1.025 135 16 0
1.854 -0.56400001 1.026 144 16 0
1.848 -0.56599998 1.026 150 16 0
1.841 -0.56800002 1.025 150 16 0
1.84 -0.57200003 1.027 150 16 0
1.8380001 -0.57499999 1.028 150 16 0
1.834 -0.57800001 1.028 150 16 0
1.83 -0.57999998 1.029 150 16 0
1.8279999 -0.58399999 1.03 150 16 0
1.8279999 -0.588 1.033 150 16 0
1.823 -0.58999997 1.0319999 150 16 0
1.825 -0.59399998 1.035 150 16 0
1.823 -0.597 1.036 150 16 0
1.816 -0.59899998 1.035 150 16 0
1.813 -0.602 1.035 150 16 0
1.814 -0.60600001 1.0369999 150 16 0
1.813 -0.60900003 1.038 150 16 0
1.811 -0.61199999 1.039 150 16 0
1.806 -0.61400002 1.038 150 16 0
1.807 -0.61799997 1.04 150 16 0
1.807 -0.62199998 1.0420001 150 16 0
1.8049999 -0.625 1.0420001 150 16 0
1.806 -0.62900001 1.044 150 16 0
1.803 -0.63099998 1.043 150 16 0
1.798 -0.63300002 1.0420001 150 16 0
1.802 -0.63800001 1.045 150 16 0
1.799 -0.63999999 1.044 150 16 0
1.799 -0.64399999 1.046 150 16 0
1.795 -0.64499998 1.044 150 16 0
1.798 -0.64999998 1.046 150 16 0
1.793 -0.65200001 1.045 150 16 0
1.798 -0.65700001 1.048 150 16 0
1.795 -0.65899998 1.0470001 150 16 0
1.798 -0.66299999 1.049 133 16 0
1.8 -0.667 1.051 106 16 0
1.804 -0.67199999 1.053 90 16 0
1.8049999 -0.67500001 1.054 68 16 0
1.808 -0.67900002 1.056 50 16 0
1.812 -0.68400002 1.059 60 16 0
1.819 -0.68900001 1.062 57 16 0
1.818 -0.69199997 1.062 46 16 0
1.821 -0.69599998 1.064 45 16 0
1.821 -0.699 1.063 46 16 0
1.8279999 -0.704 1.067 44 19 0
1.829 -0.708 1.067 44 16 0
1.831 -0.71100003 1.068 44 16 0
1.835 -0.71499997 1.069 43 16 0
1.839 -0.71899998 1.071 44 16 0
1.84 -0.72299999 1.071 45 16 0
1.841 -0.72600001 1.071 40 16 0
1.8430001 -0.72899997 1.071 43 16 0
1.842 -0.73100001 1.069 44 16 0
1.847 -0.73500001 1.071 39 16 0
1.847 -0.73699999 1.0700001 39 16 0
1.8430001 -0.73799998 1.066 39 16 0
1.849 -0.74299997 1.068 37 16 0
1.85 -0.745 1.067 37 16 0
1.85 -0.74699998 1.066 37 16 0
1.85 -0.75 1.064 37 16 0
1.85 -0.75199997 1.062 41 16 0
1.851 -0.75400001 1.061 37 16 0
1.851 -0.755 1.059 39 16 0
1.851 -0.75700003 1.057 38 16 0
1.851 -0.759 1.0549999 41 16 0
1.852 -0.76099998 1.053 41 16 0
1.851 -0.76300001 1.051 42 16 0
1.852 -0.764 1.049 48 16 0
1.85 -0.76499999 1.045 49 16 0
1.848 -0.76599997 1.0420001 43 16 0
1.847 -0.76700002 1.038 59 16 0
1.846 -0.76700002 1.035 67 16 0
1.855 -0.77200001 1.038 95 19 0
1.851 -0.77200001 1.033 108 16 0
1.855 -0.77399999 1.0319999 141 16 0
1.8559999 -0.77600002 1.03 150 16 0
1.8559999 -0.77700001 1.027 150 16 0
1.86 -0.77999997 1.026 150 16 0
1.8609999 -0.78100002 1.024 150 16 0
1.862 -0.78200001 1.021 150 16 0
1.87 -0.78600001 1.022 150 19 0
1.873 -0.78799999 1.02 150 16 0
1.876 -0.79000002 1.018 150 16 0
1.877 -0.79100001 1.016 150 16 0
1.883 -0.79400003 1.015 150 16 0
1.887 -0.796 1.0140001 150 16 0
1.893 -0.79900002 1.013 150 16 0
1.895 -0.79900002 1.01 150 16 0
1.896 -0.80000001 1.007 150 16 0
1.9 -0.80199999 1.005 150 16 0
1.91 -0.80599999 1.006 150 19 0
1.9119999 -0.80699998 1.0039999 150 16 0
1.9170001 -0.80900002 1.002 150 16 0
1.918 -0.80900002 0.99900001 150 16 0
1.924 -0.81199998 0.99699998 150 16 0
1.926 -0.81199998 0.99400002 150 16 0
1.9349999 -0.815 0.99400002 150 16 0
1.937 -0.81599998 0.991 150 16 0
1.946 -0.81900001 0.991 150 16 0
1.948 -0.81900001 0.98699999 150 16 0
1.9529999 -0.82099998 0.98500001 150 16 0
1.955 -0.82099998 0.98199999 150 16 0
1.9529999 -0.81900001 0.97600001 149 16 0
1.955 -0.81900001 0.97299999 140 16 0
1.955 -0.81900001 0.96799999 126 16 0
1.959 -0.81900001 0.96499997 142 16 0
1.9579999 -0.81699997 0.95899999 140 16 0
1.956 -0.81599998 0.954 135 16 0
1.9579999 -0.815 0.94999999 131 16 0
1.96 -0.815 0.94599998 124 16 0
1.959 -0.81300002 0.94 122 16 0
1.959 -0.81199998 0.935 112 16 0
1.961 -0.81099999 0.93099999 111 16 0
1.955 -0.80699998 0.92299998 104 16 0
1.96 -0.80800003 0.92000002 90 16 0
1.962 -0.80699998 0.91600001 98 16 0
1.962 -0.80500001 0.91100001 88 16 0
1.965 -0.80500001 0.90700001 92 16 0
1.965 -0.80299997 0.90200001 91 16 0
1.962 -0.80000001 0.89499998 94 16 0
1.966 -0.80000001 0.89200002 89 16 0
1.967 -0.79799998 0.88700002 96 16 0
1.969 -0.79699999 0.88200003 90 16 0
1.973 -0.79699999 0.87900001 92 16 0
1.975 -0.796 0.875 95 16 0
1.976 -0.79400003 0.86900002 94 16 0
1.978 -0.792 0.86500001 97 16 0
1.9809999 -0.79100001 0.861 93 16 0
1.983 -0.78899997 0.85600001 107 16 0
1.9859999 -0.78799999 0.852 97 16 0
1.988 -0.787 0.847 97 16 0
1.987 -0.78399998 0.84100002 99 16 0
1.99 -0.78200001 0.83700001 90 16 0
1.993 -0.78100002 0.83200002 90 16 0
1.994 -0.77899998 0.82700002 89 16 0
1.997 -0.77700001 0.82300001 99 16 0
2 -0.77600002 0.81900001 99 16 0
2.003 -0.77399999 0.81400001 98 16 0
2.0079999 -0.773 0.81 102 16 0
2.007 -0.76999998 0.80500001 102 16 0
2.01 -0.76800001 0.80000001 97 16 0
2.013 -0.76599997 0.796 90 16 0
2.0179999 -0.76499999 0.792 99 16 0
2.0179999 -0.76200002 0.78600001 98 16 0
2.0209999 -0.75999999 0.78100002 98 16 0
2.026 -0.759 0.778 88 16 0
2.029 -0.75700003 0.773 101 16 0
2.0320001 -0.755 0.76800001 108 16 0
2.0350001 -0.75300002 0.764 95 16 0
2.036 -0.75 0.75800002 98 16 0
2.04 -0.74800003 0.75400001 98 16 0
2.0450001 -0.74599999 0.75 105 16 0
2.046 -0.74299997 0.745 96 16 0
2.05 -0.741 0.741 99 16 0
2.053 -0.73799998 0.736 94 16 0
2.0580001 -0.73699999 0.73199999 100 16 0
2.0580001 -0.73299998 0.72600001 97 16 0
2.0639999 -0.73199999 0.722 91 16 0
2.072 -0.73000002 0.71899998 100 16 0
2.0739999 -0.72799999 0.71399999 95 16 0
2.0769999 -0.72500002 0.70899999 84 16 0
2.0799999 -0.722 0.704 81 16 0
2.086 -0.72000003 0.70099998 78 16 0
2.0880001 -0.71700001 0.69499999 76 16 0
2.0929999 -0.71499997 0.69099998 76 16 0
2.096 -0.71200001 0.68599999 76 16 0
2.099 -0.70899999 0.68199998 83 16 0
2.1070001 -0.708 0.67799997 83 16 0
2.1059999 -0.70300001 0.67199999 80 16 0
2.1140001 -0.70099998 0.66900003 83 16 0
2.118 -0.699 0.66399997 77 16 0
2.1210001 -0.69499999 0.65899998 82 16 0
2.1240001 -0.69199997 0.65499997 78 16 0
2.1270001 -0.68900001 0.64999998 77 16 0
2.1359999 -0.68800002 0.64700001 81 16 0
2.138 -0.68400002 0.64099997 81 16 0
2.145 -0.68199998 0.63700002 73 16 0
2.1500001 -0.67900002 0.63300002 77 16 0
2.155 -0.676 0.62900001 79 16 0
2.158 -0.67299998 0.62400001 76 16 0
2.1659999 -0.671 0.62 77 16 0
2.1730001 -0.66799998 0.616 79 16 0
2.1730001 -0.66399997 0.61000001 48 16 0
2.181 -0.66100001 0.60699999 45 16 0
2.1830001 -0.65799999 0.602 47 16 0
2.187 -0.65399998 0.597 44 16 0
2.197 -0.65200001 0.59399998 50 16 0
2.2030001 -0.64899999 0.58999997 41 16 0
2.2060001 -0.64600003 0.58499998 44 16 0
2.2149999 -0.64300001 0.58099997 48 16 0
2.217 -0.639 0.57599998 41 16 0
2.223 -0.63599998 0.57099998 41 16 0
2.221 -0.63099998 0.565 38 16 0
2.2349999 -0.63 0.56300002 41 16 0
2.24 -0.62599999 0.55800003 41 16 0
2.243 -0.62199998 0.55299997 41 16 0
2.2490001 -0.61900002 0.54900002 35 16 0
2.263 -0.61699998 0.54699999 44 16 0
2.2679999 -0.61400002 0.542 39 16 0
2.273 -0.61000001 0.537 35 16 0
2.276 -0.60600001 0.53200001 33 16 0
2.2809999 -0.602 0.528 38 16 0
2.29 -0.59899998 0.52399999 30 16 0
2.2980001 -0.59600002 0.51999998 30 16 0
2.3010001 -0.59200001 0.51499999 29 16 0
2.312 -0.58899999 0.51099998 36 16 0
2.316 -0.58499998 0.50700003 29 16 0
2.319 -0.57999998 0.50099999 30 16 0
2.3310001 -0.57800001 0.498 32 16 0
2.336 -0.574 0.493 31 16 0
2.3440001 -0.56999999 0.48899999 30 16 0
2.3499999 -0.56599998 0.48500001 32 16 0
2.358 -0.56300002 0.47999999 30 16 0
2.3659999 -0.55900002 0.47600001 31 16 0
2.372 -0.55500001 0.472 31 16 0
2.3770001 -0.551 0.46700001 29 16 0
2.388 -0.54699999 0.463 29 16 0
2.3940001 -0.54299998 0.45899999 30 16 0
2.3970001 -0.53799999 0.454 29 16 0
2.4100001 -0.53500003 0.44999999 30 16 0
2.418 -0.53100002 0.44600001 29 16 0
2.421 -0.52600002 0.44100001 29 16 0
2.4319999 -0.523 0.43700001 28 16 0
2.4349999 -0.51800001 0.43099999 29 16 0
2.4400001 -0.51300001 0.42699999 28 16 0
2.45 -0.509 0.42199999 27 16 0
2.4560001 -0.505 0.41800001 28 16 0
2.4660001 -0.50099999 0.414 28 16 0
2.4749999 -0.49700001 0.40900001 28 16 0
2.483 -0.49200001 0.405 27 16 0
2.4909999 -0.48800001 0.40000001 29 16 0
2.4990001 -0.484 0.396 28 16 0
2.5109999 -0.47999999 0.39199999 28 16 0
2.5150001 -0.47400001 0.38699999 26 16 0
2.523 -0.47 0.382 28 16 0
2.533 -0.46599999 0.37799999 27 16 0
2.543 -0.461 0.37400001 27 16 0
2.553 -0.45699999 0.36899999 28 16 0
2.5580001 -0.45199999 0.36399999 28 16 0
2.5669999 -0.447 0.36000001 27 16 0
2.5780001 -0.442 0.35600001 29 16 0
2.582 -0.43700001 0.34999999 27 16 0
2.5940001 -0.43200001 0.34599999 29 16 0
2.6029999 -0.428 0.34200001 27 16 0
2.612 -0.42300001 0.33700001 28 16 0
2.6210001 -0.41800001 0.33199999 28 16 0
2.638 -0.414 0.329 28 16 0
2.645 -0.40799999 0.324 28 16 0
2.6489999 -0.40200001 0.31799999 28 16 0
2.661 -0.398 0.31400001 27 16 0
2.674 -0.39300001 0.30899999 28 16 0
2.6800001 -0.38699999 0.30500001 27 16 0
2.6930001 -0.382 0.30000001 25 16 0
2.704 -0.377 0.29499999 23 16 0
2.71 -0.37099999 0.28999999 22 16 0
2.7130001 -0.36500001 0.285 23 16 0
2.733 -0.361 0.28099999 24 16 0
2.74 -0.35499999 0.27599999 24 16 0
2.7460001 -0.34900001 0.27000001 24 16 0
2.7590001 -0.34400001 0.266 23 16 0
2.7679999 -0.338 0.26100001 24 16 0
2.7820001 -0.333 0.25600001 23 16 0
2.7880001 -0.32600001 0.25099999 24 16 0
2.7939999 -0.31999999 0.24600001 24 16 0
2.8080001 -0.31400001 0.241 24 16 0
2.825 -0.30899999 0.237 24 16 0
2.832 -0.303 0.23100001 23 16 0
2.842 -0.29699999 0.226 23 16 0
2.8570001 -0.29100001 0.221 23 16 0
2.865 -0.285 0.21600001 23 16 0
2.8770001 -0.27900001 0.211 24 16 0
2.891 -0.273 0.206 24 16 0
2.8989999 -0.266 0.20100001 23 16 0
2.9119999 -0.25999999 0.19599999 23 16 0
2.9319999 -0.25400001 0.191 23 16 0
2.937 -0.24699999 0.185 23 16 0
2.954 -0.241 0.18000001 23 16 0
2.9630001 -0.234 0.175 23 16 0
2.9809999 -0.228 0.17 24 16 0
2.9890001 -0.221 0.164 23 16 0
3 -0.214 0.15899999 23 16 0
3.0090001 -0.207 0.154 23 16 0
3.0339999 -0.20100001 0.149 23 16 0
3.05 -0.19400001 0.14300001 23 16 0
3.063 -0.18700001 0.138 23 16 0
3.076 -0.18000001 0.133 22 16 0
3.0910001 -0.17299999 0.127 22 16 0
3.105 -0.16599999 0.121 23 16 0
3.1210001 -0.15800001 0.116 23 16 0
3.132 -0.15099999 0.11 24 16 0
3.1429999 -0.14300001 0.105 24 16 0
3.1630001 -0.13600001 0.098999999 24 16 0
3.1860001 -0.12899999 0.093000002 24 16 0
3.1919999 -0.121 0.086999997 24 16 0
3.2079999 -0.113 0.082000002 24 16 0
3.227 -0.105 0.075999998 24 16 0
3.237 -0.097000003 0.07 24 16 0
3.2509999 -0.089000002 0.064000003 25 16 0
3.2750001 -0.081 0.057999998 26 16 0
3.2809999 -0.072999999 0.052000001 36 16 0
3.2920001 -0.064000003 0.046 114 16 0
3.2820001 -0.055 0.039999999 97 16 0
3.2720001 -0.046999998 0.033 100 16 0
3.267 -0.037999999 0.027000001 81 16 0
3.263 -0.028999999 0.021 91 16 0
3.2479999 -0.021 0.015 44 16 0
3.2539999 -0.012 0.0080000004 20 16 0
3.277 -0.0040000002 0.0020000001 16 16 0
3.286 0.0040000002 -0.003 16 16 0
3.306 0.013 -0.0089999996 17 16 0
3.3239999 0.022 -0.015 27 16 0
3.3210001 0.029999999 -0.021 46 16 0
3.3080001 0.039000001 -0.027000001 49 16 0
3.3039999 0.048 -0.033 42 16 0
3.2950001 0.057 -0.039000001 36 16 0
3.289 0.064999998 -0.045000002 48 16 0
3.283 0.074000001 -0.050999999 45 16 0
3.279 0.082999997 -0.057 49 16 0
3.2690001 0.090999998 -0.063000001 48 16 0
3.26 0.098999999 -0.068999998 49 16 0
3.2509999 0.108 -0.074000001 50 16 0
3.2449999 0.117 -0.079999998 51 16 0
