# .PCD v0.7 - Point Cloud Data file format
VERSION 0.7
FIELDS x y z intensity tag line
SIZE 4 4 4 4 1 1
TYPE F F F F U U
COUNT 1 1 1 1 1 1
WIDTH 1374
HEIGHT 1
VIEWPOINT 0 0 0 1 0 0 0
POINTS 1374
DATA ascii
2.5050001 1.557 -0.026000001 150 16 0
2.4990001 1.5599999 -0.024 150 16 0
2.5020001 1.568 -0.021 150 16 0
2.5 1.573 -0.017999999 150 16 0
2.4979999 1.5779999 -0.015 150 16 0
2.4949999 1.582 -0.013 150 16 0
2.4920001 1.586 -0.0099999998 150 16 0
2.4949999 1.594 -0.0070000002 150 16 0
2.4920001 1.598 -0.0040000002 150 16 0
2.494 1.604 -0.001 150 16 0
2.4890001 1.607 0.001 149 16 0
2.4920001 1.615 0.0040000002 144 16 0
2.49 1.618 0.0070000002 150 16 0
2.4849999 1.62 0.0099999998 150 16 0
2.4860001 1.627 0.013 150 16 0
2.4860001 1.631 0.016000001 150 16 0
2.4849999 1.636 0.02 148 16 0
2.4849999 1.641 0.023 135 16 0
2.483 1.6440001 0.026000001 150 16 0
2.4809999 1.648 0.028999999 150 16 0
2.48 1.652 0.032000002 145 16 0
2.4779999 1.655 0.035999998 150 16 0
2.4790001 1.66 0.039000001 150 16 0
2.4790001 1.664 0.041999999 150 16 0
2.477 1.6670001 0.046 150 16 0
2.474 1.669 0.048999999 145 16 0
2.473 1.673 0.052000001 144 16 0
2.4779999 1.6799999 0.056000002 148 16 0
2.4760001 1.682 0.059 148 16 0
2.4809999 1.689 0.063000001 142 16 0
2.4809999 1.692 0.066 150 16 0
2.474 1.691 0.068999998 138 16 0
2.4779999 1.697 0.072999999 141 16 0
2.4790001 1.701 0.075999998 124 16 0
2.4790001 1.704 0.079999998 134 16 0
2.477 1.705 0.082999997 91 16 0
2.4760001 1.7079999 0.086999997 47 16 0
2.477 1.71 0.090000004 38 16 0
2.4749999 1.712 0.093999997 36 16 0
2.474 1.714 0.097000003 38 16 0
2.4719999 1.714 0.101 45 16 0
2.477 1.72 0.105 74 16 0
2.477 1.722 0.108 117 16 0
2.4760001 1.723 0.112 136 16 0
2.4760001 1.724 0.115 134 16 0
2.4790001 1.728 0.119 130 16 0
2.4760001 1.727 0.122 130 16 0
2.4820001 1.733 0.126 131 16 0
2.4820001 1.734 0.13 148 16 0
2.48 1.734 0.133 150 16 0
2.4879999 1.74 0.13699999 150 16 0
2.487 1.7410001 0.141 150 16 0
2.4890001 1.743 0.14399999 150 16 0
2.4909999 1.745 0.148 149 16 0
2.49 1.744 0.152 142 16 0
2.497 1.749 0.156 106 16 0
2.494 1.747 0.15899999 88 16 0
2.497 1.749 0.163 77 16 0
2.494 1.747 0.16599999 56 16 0
2.4960001 1.748 0.17 46 16 0
2.497 1.748 0.17299999 45 16 0
2.5020001 1.751 0.177 43 16 0
2.5020001 1.751 0.18099999 41 16 0
2.503 1.75 0.184 41 16 0
2.503 1.749 0.18799999 40 16 0
2.51 1.753 0.192 42 16 0
2.5090001 1.751 0.19499999 43 16 0
2.507 1.749 0.198 44 16 0
2.5120001 1.75 0.20200001 48 16 0
2.516 1.751 0.206 48 16 0
2.5139999 1.748 0.20900001 63 16 0
2.517 1.748 0.212 84 16 0
2.52 1.748 0.21600001 112 16 0
2.5190001 1.745 0.219 117 16 0
2.5220001 1.745 0.223 141 16 0
2.5239999 1.744 0.226 150 16 0
2.5280001 1.744 0.23 150 16 0
2.529 1.742 0.233 150 16 0
2.5250001 1.7359999 0.236 150 16 0
2.529 1.7359999 0.23899999 150 16 0
2.5320001 1.734 0.242 134 16 0
2.533 1.732 0.24600001 124 16 0
2.5350001 1.73 0.249 133 16 0
2.536 1.727 0.252 129 16 0
2.5380001 1.725 0.255 123 16 0
2.536 1.72 0.25799999 117 16 0
2.55 1.726 0.26199999 74 19 0
2.552 1.723 0.26499999 48 16 0
2.5550001 1.721 0.26800001 42 16 0
2.559 1.719 0.271 40 16 0
2.563 1.717 0.27399999 42 16 0
2.5599999 1.711 0.27700001 51 16 0
2.569 1.712 0.28099999 98 16 0
2.5680001 1.707 0.28299999 128 16 0
2.572 1.704 0.28600001 135 16 0
2.572 1.699 0.289 134 16 0
2.5780001 1.698 0.292 138 16 0
2.5780001 1.693 0.294 142 16 0
2.5840001 1.692 0.29699999 134 16 0
2.5869999 1.688 0.30000001 137 16 0
2.589 1.684 0.303 150 16 0
2.592 1.6799999 0.30500001 150 16 0
2.596 1.677 0.308 147 16 0
2.596 1.671 0.31 137 16 0
2.6010001 1.669 0.31299999 127 16 0
2.6059999 1.666 0.31600001 138 16 0
2.6070001 1.66 0.31799999 150 16 0
2.6129999 1.658 0.31999999 150 16 0
2.6140001 1.652 0.322 150 16 0
2.6170001 1.647 0.32499999 150 16 0
2.6210001 1.6440001 0.32699999 139 16 0
2.6229999 1.638 0.329 128 16 0
2.6129999 1.625 0.33000001 123 16 0
2.598 1.609 0.329 140 16 0
2.5840001 1.5930001 0.329 150 16 0
2.582 1.586 0.331 147 16 0
2.586 1.581 0.333 136 16 0
2.589 1.576 0.33500001 138 16 0
2.5910001 1.5700001 0.336 133 16 0
2.598 1.568 0.33899999 145 16 0
2.6070001 1.566 0.34099999 150 16 0
2.6199999 1.566 0.34400001 150 16 0
2.635 1.567 0.347 150 16 0
2.645 1.566 0.34999999 150 16 0
2.6630001 1.569 0.354 150 16 0
2.674 1.568 0.35600001 124 16 0
2.674 1.5599999 0.35699999 78 16 0
2.6659999 1.548 0.35699999 47 16 0
2.6400001 1.525 0.35499999 48 16 0
2.635 1.5140001 0.35499999 63 16 0
2.635 1.506 0.35600001 43 16 0
2.638 1.5 0.35699999 34 16 0
2.6489999 1.498 0.359 32 16 0
2.6619999 1.497 0.36199999 36 16 0
2.665 1.4910001 0.36300001 37 16 0
2.665 1.483 0.36399999 32 16 0
2.6389999 1.46 0.361 24 18 0
2.6400001 1.452 0.361 23 16 0
2.655 1.452 0.36399999 32 16 0
2.658 1.4450001 0.36500001 41 16 0
2.6589999 1.438 0.36500001 41 16 0
2.658 1.429 0.366 46 16 0
2.6559999 1.419 0.366 67 16 0
2.655 1.41 0.366 91 16 0
2.6570001 1.402 0.366 126 16 0
2.655 1.393 0.366 140 16 0
2.6630001 1.3890001 0.36700001 150 16 0
2.6659999 1.382 0.368 150 16 0
2.6659999 1.373 0.368 150 16 0
2.6730001 1.368 0.36899999 150 16 0
2.6789999 1.362 0.37 150 16 0
2.6789999 1.354 0.36899999 150 16 0
2.6830001 1.347 0.37 150 16 0
2.687 1.34 0.37 150 16 0
2.6900001 1.3329999 0.37 150 16 0
2.694 1.326 0.37099999 150 16 0
2.7 1.3200001 0.37099999 150 16 0
2.701 1.311 0.37099999 150 16 0
2.707 1.3049999 0.37099999 150 16 0
2.711 1.298 0.37099999 150 16 0
2.714 1.291 0.37099999 150 16 0
2.7179999 1.283 0.37099999 150 16 0
2.721 1.276 0.37099999 150 16 0
2.7249999 1.268 0.37099999 150 16 0
2.73 1.262 0.37099999 150 16 0
2.734 1.255 0.37099999 150 16 0
2.7349999 1.2460001 0.37 150 16 0
2.7390001 1.238 0.37 150 16 0
2.7449999 1.232 0.37 150 16 0
2.7479999 1.224 0.37 150 16 0
2.7490001 1.215 0.36899999 150 16 0
2.7539999 1.2079999 0.36899999 150 16 0
2.7579999 1.2 0.368 150 16 0
2.7620001 1.193 0.368 150 16 0
2.76 1.183 0.366 150 16 0
2.766 1.176 0.366 150 16 0
2.7739999 1.17 0.366 150 16 0
2.7780001 1.1619999 0.36500001 150 16 0
2.783 1.155 0.36500001 150 16 0
2.78 1.1440001 0.36300001 150 16 0
2.7909999 1.1390001 0.36300001 150 16 0
2.7869999 1.128 0.361 150 16 0
2.7950001 1.122 0.361 150 16 0
2.796 1.113 0.36000001 150 16 0
2.803 1.107 0.359 150 16 0
2.803 1.097 0.35800001 150 16 0
2.8099999 1.09 0.35699999 150 16 0
2.812 1.081 0.35600001 150 16 0
2.8169999 1.074 0.35499999 150 16 0
2.8199999 1.066 0.354 150 16 0
2.823 1.057 0.352 150 16 0
2.826 1.049 0.35100001 150 16 0
2.8310001 1.041 0.34999999 150 16 0
2.8340001 1.033 0.34900001 150 16 0
2.839 1.025 0.347 150 16 0
2.8429999 1.017 0.34599999 150 16 0
2.842 1.007 0.34400001 150 16 0
2.8510001 1.001 0.34299999 150 16 0
2.8540001 0.99299997 0.34200001 150 16 0
2.855 0.98299998 0.34 150 16 0
2.8599999 0.97500002 0.33899999 150 16 0
2.8640001 0.96700001 0.33700001 150 16 0
2.868 0.95899999 0.336 150 16 0
2.8710001 0.94999999 0.33399999 150 16 0
2.8740001 0.94199997 0.33199999 150 16 0
2.8789999 0.93400002 0.331 150 16 0
2.882 0.92500001 0.329 150 16 0
2.8859999 0.917 0.32699999 150 16 0
2.891 0.90899998 0.32499999 150 16 0
2.8940001 0.90100002 0.324 150 16 0
2.8970001 0.89200002 0.322 150 16 0
2.9000001 0.88300002 0.31999999 150 16 0
2.9030001 0.875 0.31799999 150 16 0
2.9059999 0.866 0.31600001 150 16 0
2.9130001 0.85799998 0.31400001 150 16 0
2.918 0.85000002 0.31200001 150 16 0
2.9189999 0.84100002 0.31 150 16 0
2.924 0.833 0.308 150 16 0
2.928 0.824 0.30599999 150 16 0
2.931 0.81599998 0.30399999 150 16 0
2.9319999 0.80599999 0.301 150 16 0
2.9360001 0.79799998 0.29899999 150 16 0
2.941 0.79000002 0.29699999 150 16 0
2.9389999 0.77999997 0.294 150 16 0
2.9489999 0.773 0.292 150 16 0
2.9519999 0.764 0.28999999 150 16 0
2.954 0.755 0.28799999 150 16 0
2.957 0.74599999 0.285 150 16 0
2.9619999 0.73799998 0.28299999 150 16 0
2.9619999 0.72899997 0.28 150 16 0
2.9690001 0.72000003 0.278 150 16 0
2.9719999 0.71200001 0.27500001 150 16 0
2.971 0.70200002 0.27200001 150 16 0
2.9760001 0.69400001 0.27000001 150 16 0
2.984 0.68599999 0.26800001 150 16 0
2.9860001 0.67699999 0.26499999 150 16 0
2.9890001 0.66799998 0.26199999 150 16 0
2.993 0.65899998 0.25999999 150 16 0
2.9949999 0.64999998 0.257 150 16 0
3 0.64200002 0.25400001 150 16 0
3.0020001 0.63300002 0.252 150 16 0
3.0050001 0.62400001 0.249 150 16 0
3.0109999 0.616 0.24600001 150 16 0
3.017 0.60699999 0.244 150 16 0
3.0150001 0.597 0.23999999 150 16 0
3.0209999 0.58899999 0.23800001 150 16 0
3.023 0.57999998 0.235 150 16 0
3.029 0.57099998 0.23199999 150 16 0
3.033 0.56300002 0.229 150 16 0
3.036 0.55400002 0.226 150 16 0
3.0369999 0.54400003 0.223 150 16 0
3.036 0.53500003 0.219 150 16 0
3.0450001 0.52700001 0.21699999 150 16 0
3.0450001 0.51700002 0.213 149 16 0
3.0580001 0.50999999 0.211 111 16 0
3.0639999 0.50099999 0.208 92 16 0
3.0639999 0.49200001 0.204 66 16 0
3.066 0.48300001 0.20100001 47 16 0
3.0799999 0.47499999 0.199 41 16 0
3.0810001 0.46599999 0.19499999 34 16 0
3.089 0.458 0.192 32 16 0
3.096 0.449 0.189 30 16 0
3.109 0.442 0.186 29 16 0
3.1129999 0.433 0.183 29 16 0
3.1270001 0.42500001 0.18000001 30 16 0
3.128 0.41499999 0.177 29 16 0
3.1370001 0.40700001 0.17399999 30 16 0
3.1500001 0.39899999 0.171 29 16 0
3.152 0.38999999 0.167 29 16 0
3.1630001 0.38100001 0.164 30 16 0
3.177 0.373 0.161 29 16 0
3.1849999 0.36500001 0.15700001 30 16 0
3.1889999 0.35499999 0.154 32 16 0
3.1989999 0.347 0.15000001 33 16 0
3.2060001 0.338 0.147 33 16 0
3.2130001 0.329 0.14300001 36 16 0
3.227 0.31999999 0.14 41 16 0
3.2309999 0.31099999 0.13600001 49 16 0
3.23 0.301 0.132 45 16 0
3.2279999 0.29100001 0.12800001 30 16 0
3.2079999 0.28 0.123 30 16 0
3.1989999 0.26899999 0.119 29 16 0
3.2149999 0.26100001 0.116 45 16 0
3.224 0.252 0.112 106 16 0
3.2119999 0.242 0.108 89 16 0
3.198 0.23100001 0.103 73 16 0
3.194 0.221 0.098999999 71 16 0
3.1949999 0.212 0.094999999 67 16 0
3.2060001 0.20299999 0.090999998 83 16 0
3.204 0.193 0.086999997 66 16 0
3.2149999 0.184 0.082999997 79 16 0
3.22 0.175 0.079000004 78 16 0
3.2160001 0.16500001 0.075000003 82 16 0
3.2219999 0.156 0.071000002 88 16 0
3.227 0.146 0.067000002 91 16 0
3.2279999 0.13699999 0.061999999 93 16 0
3.26 0.12899999 0.059 94 19 0
3.3 0.12 0.055 63 16 0
3.303 0.111 0.050999999 66 16 0
3.3110001 0.101 0.046999998 66 16 0
3.3110001 0.092 0.041999999 55 16 0
3.3150001 0.082000002 0.037999999 68 16 0
3.3180001 0.071999997 0.033 63 16 0
3.323 0.061999999 0.028999999 44 16 0
3.325 0.052999999 0.024 43 16 0
3.3239999 0.043000001 0.02 58 16 0
3.3280001 0.033 0.015 54 16 0
3.3269999 0.024 0.011 30 16 0
3.306 0.014 0.0060000001 19 16 0
3.2839999 0.0040000002 0.0020000001 18 16 0
3.26 -0.0049999999 -0.0020000001 17 16 0
3.237 -0.014 -0.0060000001 29 16 0
3.2449999 -0.024 -0.011 112 16 0
3.2449999 -0.033 -0.016000001 150 16 0
3.25 -0.043000001 -0.02 140 16 0
3.256 -0.052000001 -0.025 142 16 0
3.253 -0.061999999 -0.028999999 150 16 0
3.2520001 -0.071000002 -0.034000002 53 16 0
3.23 -0.079999998 -0.037999999 29 16 0
3.2079999 -0.089000002 -0.043000001 27 16 0
3.1860001 -0.097000003 -0.046999998 28 16 0
3.1630001 -0.106 -0.050999999 27 16 0
3.141 -0.114 -0.055 27 16 0
3.1199999 -0.123 -0.059999999 25 16 0
3.098 -0.131 -0.064000003 25 16 0
3.082 -0.139 -0.068000004 25 16 0
3.0650001 -0.147 -0.071999997 26 16 0
3.0409999 -0.155 -0.075999998 27 16 0
3.0079999 -0.162 -0.079000004 24 16 0
3.0009999 -0.17 -0.083999999 26 16 0
2.9809999 -0.177 -0.088 26 16 0
2.9619999 -0.185 -0.090999998 26 16 0
2.948 -0.192 -0.094999999 27 16 0
2.928 -0.2 -0.098999999 27 16 0
2.905 -0.206 -0.103 27 16 0
2.891 -0.214 -0.107 28 16 0
2.875 -0.221 -0.111 27 16 0
2.8529999 -0.227 -0.114 26 16 0
2.842 -0.235 -0.118 27 16 0
2.826 -0.241 -0.122 29 16 0
2.802 -0.24699999 -0.125 28 16 0
2.789 -0.25400001 -0.12899999 28 16 0
2.7720001 -0.26100001 -0.132 28 16 0
2.7579999 -0.26699999 -0.13600001 28 16 0
2.7390001 -0.273 -0.139 29 16 0
2.7309999 -0.28 -0.14300001 31 16 0
2.7179999 -0.287 -0.147 29 16 0
2.701 -0.29300001 -0.15000001 31 16 0
2.688 -0.29899999 -0.154 32 16 0
2.674 -0.30500001 -0.15700001 31 16 0
2.655 -0.31 -0.16 31 16 0
2.6389999 -0.31600001 -0.163 31 16 0
2.6300001 -0.322 -0.167 31 16 0
2.6140001 -0.32800001 -0.17 31 16 0
2.5999999 -0.333 -0.17399999 32 16 0
2.586 -0.33899999 -0.177 31 16 0
2.575 -0.345 -0.18099999 30 16 0
2.5599999 -0.34999999 -0.184 31 16 0
2.5450001 -0.35499999 -0.18700001 31 16 0
2.5350001 -0.361 -0.19 32 16 0
2.523 -0.366 -0.19400001 35 16 0
2.507 -0.37099999 -0.197 33 16 0
2.493 -0.37599999 -0.2 31 16 0
2.4820001 -0.38100001 -0.20299999 32 16 0
2.4660001 -0.38600001 -0.206 31 16 0
2.4590001 -0.39199999 -0.20900001 31 16 0
2.4460001 -0.39700001 -0.213 38 16 0
2.434 -0.40200001 -0.21600001 38 16 0
2.4200001 -0.40599999 -0.219 36 16 0
2.411 -0.41100001 -0.222 35 16 0
2.398 -0.41600001 -0.22499999 32 16 0
2.3870001 -0.421 -0.228 38 16 0
2.378 -0.426 -0.23100001 40 16 0
2.3629999 -0.43000001 -0.234 29 16 0
2.352 -0.43399999 -0.237 30 16 0
2.335 -0.43799999 -0.23999999 32 16 0
2.3280001 -0.44299999 -0.243 38 16 0
2.3150001 -0.447 -0.24600001 37 16 0
2.302 -0.45100001 -0.249 35 16 0
2.2969999 -0.456 -0.252 46 16 0
2.2850001 -0.46000001 -0.255 44 16 0
2.2709999 -0.46399999 -0.25799999 39 16 0
2.2620001 -0.46799999 -0.26100001 45 16 0
2.2509999 -0.472 -0.264 42 16 0
2.244 -0.477 -0.26699999 42 16 0
2.2320001 -0.48100001 -0.27000001 42 16 0
2.2219999 -0.48500001 -0.27200001 41 16 0
2.211 -0.48899999 -0.27500001 44 16 0
2.2030001 -0.493 -0.278 47 16 0
2.1960001 -0.49700001 -0.28200001 55 16 0
2.1819999 -0.5 -0.28400001 57 16 0
2.174 -0.505 -0.287 52 16 0
2.1689999 -0.509 -0.28999999 60 16 0
2.1500001 -0.51099998 -0.292 59 16 0
2.1429999 -0.51499999 -0.29499999 56 16 0
2.1300001 -0.51800001 -0.29699999 59 16 0
2.122 -0.52200001 -0.30000001 56 16 0
2.1110001 -0.52499998 -0.303 60 16 0
2.105 -0.52899998 -0.30599999 63 16 0
2.095 -0.53200001 -0.30899999 68 16 0
2.0869999 -0.53600001 -0.31200001 86 16 0
2.079 -0.53899997 -0.315 87 16 0
2.0680001 -0.542 -0.317 81 16 0
2.0550001 -0.54500002 -0.31900001 74 16 0
2.0510001 -0.54900002 -0.32300001 83 16 0
2.0409999 -0.55199999 -0.32499999 83 16 0
2.0320001 -0.55500001 -0.32800001 84 16 0
2.0280001 -0.55900002 -0.331 86 16 0
2.0150001 -0.56099999 -0.333 88 16 0
2.0079999 -0.565 -0.336 95 16 0
2 -0.56800002 -0.33899999 96 16 0
1.99 -0.57099998 -0.34200001 79 16 0
1.982 -0.574 -0.34400001 84 16 0
1.978 -0.57800001 -0.34799999 86 16 0
1.964 -0.579 -0.34900001 87 16 0
1.959 -0.583 -0.35299999 81 16 0
1.952 -0.58600003 -0.35499999 89 16 0
1.944 -0.58899999 -0.35800001 87 16 0
1.9400001 -0.59200001 -0.361 91 16 0
1.9220001 -0.59200001 -0.36199999 89 19 0
1.913 -0.59399998 -0.36500001 91 16 0
1.906 -0.597 -0.36700001 89 16 0
1.905 -0.602 -0.37099999 96 16 0
1.899 -0.60500002 -0.37400001 101 16 0
1.891 -0.60699999 -0.377 98 16 0
1.887 -0.611 -0.38 94 16 0
1.878 -0.61299998 -0.382 92 16 0
1.8710001 -0.616 -0.38499999 99 16 0
1.864 -0.61799997 -0.38800001 103 16 0
1.857 -0.62099999 -0.38999999 110 16 0
1.851 -0.62300003 -0.39300001 107 16 0
1.8430001 -0.62599999 -0.396 102 16 0
1.837 -0.62800002 -0.39899999 113 16 0
1.832 -0.63099998 -0.40200001 108 16 0
1.827 -0.634 -0.405 111 16 0
1.812 -0.634 -0.405 132 16 0
1.8099999 -0.63700002 -0.40900001 130 16 0
1.804 -0.63999999 -0.412 147 16 0
1.798 -0.64200002 -0.414 132 16 0
1.786 -0.64200002 -0.41600001 150 16 0
1.783 -0.64600003 -0.419 138 16 0
1.778 -0.648 -0.42199999 145 16 0
1.775 -0.65200001 -0.426 145 16 0
1.771 -0.65499997 -0.42899999 143 16 0
1.765 -0.65700001 -0.43200001 140 16 0
1.758 -0.65799999 -0.43399999 150 16 0
1.753 -0.66100001 -0.43700001 140 16 0
1.7460001 -0.662 -0.43900001 146 16 0
1.738 -0.66399997 -0.442 150 16 0
1.7359999 -0.667 -0.44499999 150 16 0
1.726 -0.667 -0.447 150 16 0
1.723 -0.67000002 -0.44999999 150 16 0
1.719 -0.67299998 -0.45300001 150 16 0
1.716 -0.676 -0.45699999 150 16 0
1.707 -0.676 -0.458 150 16 0
1.7029999 -0.67799997 -0.461 140 16 0
1.698 -0.68000001 -0.46399999 150 16 0
1.6950001 -0.68300003 -0.46700001 150 16 0
1.689 -0.685 -0.47 150 16 0
1.684 -0.68599999 -0.47299999 150 16 0
1.6799999 -0.68900001 -0.47600001 150 16 0
1.6720001 -0.68900001 -0.477 150 16 0
1.663 -0.68900001 -0.479 150 16 0
1.661 -0.69199997 -0.48300001 150 16 0
1.6569999 -0.69300002 -0.48500001 150 16 0
1.653 -0.69499999 -0.48800001 150 16 0
1.6440001 -0.69499999 -0.49000001 150 16 0
1.642 -0.69800001 -0.493 1 0 0
1.636 -0.699 -0.49599999 150 16 0
1.6339999 -0.70200002 -0.49900001 150 16 0
1.63 -0.70300001 -0.50199997 150 16 0
1.626 -0.70499998 -0.505 150 16 0
1.618 -0.70499998 -0.50599998 150 16 0
1.613 -0.70599997 -0.509 86 0 0
1.608 -0.70700002 -0.51099998 150 16 0
1.6059999 -0.70899999 -0.51499999 150 16 0
1.603 -0.71100003 -0.51800001 2 0 0
1.597 -0.71200001 -0.51999998 1 0 0
1.5930001 -0.71200001 -0.52200001 150 16 0
1.594 -0.71600002 -0.52700001 150 16 0
1.5880001 -0.71600002 -0.52899998 150 16 0
1.582 -0.71700001 -0.53100002 79 0 0
1.575 -0.71600002 -0.53299999 76 0 0
1.577 -0.72000003 -0.537 150 16 0
1.5700001 -0.72000003 -0.53899997 2 0 0
1.568 -0.722 -0.542 2 0 0
1.566 -0.72299999 -0.54500002 150 16 0
1.562 -0.72399998 -0.54799998 83 0 0
1.556 -0.72399998 -0.55000001 83 0 0
1.554 -0.72600001 -0.55299997 81 0 0
1.55 -0.72600001 -0.55500001 81 0 0
1.549 -0.72799999 -0.55900002 86 0 0
1.548 -0.73100001 -0.56300002 107 0 0
1.546 -0.73199999 -0.56599998 2 0 0
1.539 -0.73100001 -0.56699997 81 0 0
1.53 -0.72899997 -0.56800002 90 0 0
1.53 -0.73100001 -0.57099998 97 0 0
1.528 -0.73299998 -0.574 91 0 0
1.524 -0.73299998 -0.57700002 112 0 0
1.5190001 -0.73299998 -0.579 79 0 0
1.518 -0.73400003 -0.58200002 102 0 0
1.516 -0.73500001 -0.58499998 107 0 0
1.5140001 -0.736 -0.588 130 0 0
1.512 -0.73699999 -0.59100002 102 0 0
1.5089999 -0.73699999 -0.59299999 92 0 0
1.507 -0.73799998 -0.59600002 86 0 0
1.503 -0.73799998 -0.59799999 85 0 0
1.501 -0.73900002 -0.60100001 124 0 0
1.4960001 -0.73799998 -0.60299999 123 0 0
1.498 -0.741 -0.60699999 105 0 0
1.497 -0.741 -0.61000001 109 0 0
1.497 -0.74299997 -0.61400002 140 0 0
1.494 -0.74299997 -0.616 145 0 0
1.492 -0.74299997 -0.61900002 142 0 0
1.487 -0.74199998 -0.62 132 0 0
1.4859999 -0.74299997 -0.62300003 101 0 0
1.484 -0.74299997 -0.62599999 97 0 0
1.483 -0.74400002 -0.62900001 122 0 0
1.479 -0.74299997 -0.63 92 0 0
1.48 -0.745 -0.634 113 0 0
1.476 -0.74400002 -0.63599998 116 0 0
1.4809999 -0.74699998 -0.64099997 136 0 0
1.476 -0.745 -0.64200002 129 0 0
1.475 -0.74599999 -0.64499998 96 0 0
1.471 -0.74400002 -0.64600003 122 0 0
1.47 -0.745 -0.64899999 115 0 0
1.469 -0.745 -0.65200001 127 0 0
1.466 -0.74400002 -0.653 140 0 0
1.467 -0.745 -0.65700001 147 0 0
1.467 -0.745 -0.65899998 112 0 0
1.47 -0.74699998 -0.66399997 150 0 0
1.465 -0.745 -0.66399997 83 0 0
1.465 -0.745 -0.66799998 103 0 0
1.462 -0.74400002 -0.66900003 113 0 0
1.461 -0.74299997 -0.671 121 0 0
1.4630001 -0.745 -0.67500001 146 0 0
1.465 -0.74599999 -0.67799997 117 0 0
1.4630001 -0.745 -0.68000001 96 0 0
1.46 -0.74299997 -0.68099999 104 0 0
1.462 -0.74400002 -0.685 116 0 0
1.4579999 -0.741 -0.685 150 16 0
1.457 -0.741 -0.68800002 150 16 0
1.462 -0.74299997 -0.69199997 123 3 0
1.461 -0.74199998 -0.69499999 150 0 0
1.4579999 -0.74000001 -0.69499999 150 16 0
1.46 -0.741 -0.699 150 0 0
1.4579999 -0.73900002 -0.69999999 150 16 0
1.4579999 -0.73799998 -0.70200002 150 16 0
1.46 -0.73799998 -0.70499998 150 16 0
1.457 -0.736 -0.70599997 150 16 0
1.459 -0.736 -0.70899999 150 0 0
1.459 -0.736 -0.71100003 150 16 0
1.459 -0.73500001 -0.713 150 16 0
1.464 -0.736 -0.71700001 150 19 0
1.462 -0.73400003 -0.71799999 150 0 0
1.462 -0.73299998 -0.72000003 150 16 0
1.465 -0.73400003 -0.72299999 150 16 0
1.464 -0.73100001 -0.72399998 150 16 0
1.464 -0.73100001 -0.72600001 150 16 0
1.464 -0.72899997 -0.72799999 150 0 0
1.465 -0.72799999 -0.72899997 150 16 0
1.467 -0.727 -0.73199999 150 16 0
1.472 -0.72899997 -0.736 150 19 0
1.473 -0.72799999 -0.73799998 150 16 0
1.474 -0.72600001 -0.73900002 150 16 0
1.474 -0.72500002 -0.741 150 16 0
1.475 -0.72299999 -0.74199998 150 16 0
1.479 -0.72299999 -0.745 150 16 0
1.478 -0.72100002 -0.74599999 150 0 0
1.4809999 -0.72100002 -0.74900001 150 16 0
1.48 -0.71799999 -0.74900001 150 16 0
1.484 -0.71799999 -0.75199997 150 0 0
1.485 -0.71700001 -0.75300002 150 16 0
1.485 -0.71399999 -0.75400001 150 0 0
1.489 -0.71399999 -0.75700003 150 0 0
1.493 -0.71399999 -0.75999999 150 16 0
1.4960001 -0.71200001 -0.76099998 150 16 0
1.497 -0.71100003 -0.76200002 150 16 0
1.501 -0.70999998 -0.76499999 150 16 0
1.498 -0.70700002 -0.764 150 16 0
1.502 -0.70599997 -0.76599997 150 16 0
1.508 -0.70599997 -0.76899999 150 0 0
1.512 -0.70499998 -0.77200001 150 0 0
1.5140001 -0.704 -0.773 150 0 0
1.518 -0.70300001 -0.77499998 150 0 0
1.515 -0.69800001 -0.773 150 0 0
1.52 -0.69800001 -0.77600002 150 0 0
1.526 -0.69800001 -0.77899998 150 0 0
1.527 -0.69499999 -0.77899998 150 0 0
1.529 -0.69300002 -0.77999997 150 0 0
1.53 -0.69099998 -0.77999997 113 0 0
1.538 -0.69099998 -0.78399998 128 0 0
1.54 -0.68900001 -0.78399998 113 0 0
1.543 -0.68699998 -0.78600001 102 0 0
1.546 -0.68599999 -0.78600001 85 0 0
1.545 -0.68199998 -0.78500003 109 0 0
1.549 -0.68000001 -0.787 89 0 0
1.556 -0.68000001 -0.79000002 92 0 0
1.562 -0.67900002 -0.792 141 0 0
1.569 -0.67900002 -0.79400003 110 0 0
1.575 -0.67799997 -0.79699999 108 0 0
1.577 -0.67500001 -0.796 111 0 0
1.579 -0.67299998 -0.796 111 0 0
1.58 -0.67000002 -0.79500002 113 0 0
1.586 -0.66900003 -0.79699999 97 0 0
1.5930001 -0.66799998 -0.80000001 3 0 0
1.594 -0.66500002 -0.79900002 88 0 0
1.598 -0.66299999 -0.80000001 2 0 0
1.601 -0.66000003 -0.79900002 3 0 0
1.605 -0.65799999 -0.80000001 150 16 0
1.612 -0.65700001 -0.80199999 2 0 0
1.617 -0.65499997 -0.80299997 2 0 0
1.618 -0.65200001 -0.80199999 150 16 0
1.624 -0.65100002 -0.80299997 150 16 0
1.6289999 -0.64899999 -0.80299997 150 16 0
1.635 -0.64700001 -0.80500001 150 16 0
1.637 -0.64399999 -0.80400002 150 16 0
1.642 -0.64200002 -0.80400002 150 16 0
1.648 -0.63999999 -0.80500001 150 16 0
1.653 -0.63800001 -0.80500001 150 16 0
1.655 -0.63499999 -0.80400002 150 16 0
1.658 -0.63200003 -0.80299997 150 16 0
1.6670001 -0.63099998 -0.80500001 150 16 0
1.671 -0.62900001 -0.80500001 150 16 0
1.673 -0.625 -0.80299997 150 16 0
1.681 -0.62400001 -0.80500001 2 0 0
1.687 -0.62199998 -0.80500001 150 16 0
1.6950001 -0.62099999 -0.80699998 150 16 0
1.701 -0.61799997 -0.80699998 150 16 0
1.707 -0.61699998 -0.80699998 150 16 0
1.712 -0.61400002 -0.80599999 2 0 0
1.717 -0.61199999 -0.80599999 150 16 0
1.722 -0.60900003 -0.80599999 2 0 0
1.727 -0.60600001 -0.80500001 2 0 0
1.732 -0.60399997 -0.80500001 2 0 0
1.738 -0.60100001 -0.80400002 150 16 0
1.744 -0.59899998 -0.80400002 2 0 0
1.755 -0.59799999 -0.80599999 2 0 0
1.758 -0.59500003 -0.80400002 2 0 0
1.763 -0.59200001 -0.80299997 150 16 0
1.767 -0.58899999 -0.80199999 150 16 0
1.774 -0.58700001 -0.80199999 150 16 0
1.777 -0.58399999 -0.80000001 150 16 0
1.779 -0.57999998 -0.79699999 150 16 0
1.788 -0.57800001 -0.79699999 150 16 0
1.795 -0.57599998 -0.79699999 150 16 0
1.799 -0.57200003 -0.79500002 150 16 0
1.8150001 -0.57300001 -0.79900002 150 19 0
1.817 -0.56900001 -0.796 150 16 0
1.8200001 -0.56599998 -0.79299998 150 16 0
1.8279999 -0.56400001 -0.79299998 150 16 0
1.8329999 -0.56099999 -0.792 150 16 0
1.846 -0.56 -0.79400003 150 16 0
1.849 -0.55599999 -0.79100001 150 16 0
1.854 -0.55299997 -0.78899997 150 16 0
1.864 -0.551 -0.78899997 150 16 0
1.865 -0.54699999 -0.78600001 150 16 0
1.872 -0.54400003 -0.78399998 150 16 0
1.8789999 -0.542 -0.78299999 150 16 0
1.887 -0.54000002 -0.78200001 150 16 0
1.8940001 -0.537 -0.78100002 150 16 0
1.901 -0.53399998 -0.77999997 150 16 0
1.9069999 -0.53100002 -0.778 150 16 0
1.918 -0.52899998 -0.778 150 16 0
1.9220001 -0.52600002 -0.77499998 150 16 0
1.9299999 -0.523 -0.77399999 135 16 0
1.937 -0.52100003 -0.77200001 148 16 0
1.947 -0.51899999 -0.77100003 149 16 0
1.952 -0.51499999 -0.76899999 150 16 0
1.96 -0.51300001 -0.76700002 150 16 0
1.966 -0.50999999 -0.76499999 150 16 0
1.974 -0.50700003 -0.76300001 150 16 0
1.9809999 -0.50400001 -0.76099998 150 16 0
1.985 -0.5 -0.75800002 136 16 0
1.992 -0.49700001 -0.75599998 150 16 0
1.998 -0.49399999 -0.75400001 138 16 0
2.0090001 -0.49200001 -0.75300002 133 16 0
2.0209999 -0.49000001 -0.75199997 145 16 0
2.0250001 -0.486 -0.74900001 136 16 0
2.03 -0.48300001 -0.74599999 141 16 0
2.0369999 -0.47999999 -0.74299997 141 16 0
2.04 -0.47600001 -0.73900002 131 16 0
2.062 -0.47600001 -0.74199998 135 19 0
2.069 -0.47299999 -0.73900002 125 16 0
2.075 -0.47 -0.736 128 16 0
2.0840001 -0.46700001 -0.73400003 132 16 0
2.092 -0.46399999 -0.73100001 104 16 0
2.098 -0.461 -0.72799999 98 16 0
2.105 -0.458 -0.72500002 96 16 0
2.1140001 -0.45500001 -0.72299999 103 16 0
2.1259999 -0.45300001 -0.722 93 16 0
2.128 -0.44800001 -0.71700001 91 16 0
2.1389999 -0.44600001 -0.71499997 87 16 0
2.1470001 -0.44299999 -0.71200001 93 16 0
2.152 -0.43900001 -0.708 94 16 0
2.1630001 -0.43700001 -0.70599997 93 16 0
2.1719999 -0.43399999 -0.70300001 84 16 0
2.178 -0.43000001 -0.699 90 16 0
2.188 -0.42699999 -0.69700003 95 16 0
2.197 -0.42399999 -0.69400001 89 16 0
2.2049999 -0.421 -0.69099998 92 16 0
2.2079999 -0.417 -0.68599999 83 16 0
2.22 -0.414 -0.68300003 83 16 0
2.234 -0.412 -0.68199998 85 16 0
2.237 -0.40799999 -0.67699999 80 16 0
2.2479999 -0.405 -0.67400002 86 16 0
2.253 -0.40200001 -0.67000002 83 16 0
2.263 -0.39899999 -0.66600001 75 16 0
2.273 -0.396 -0.66299999 78 16 0
2.2850001 -0.39300001 -0.66100001 48 16 0
2.29 -0.389 -0.65600002 48 16 0
2.3010001 -0.38600001 -0.653 67 16 0
2.3069999 -0.38299999 -0.648 58 16 0
2.3210001 -0.38 -0.64600003 54 16 0
2.3280001 -0.377 -0.64200002 60 16 0
2.3399999 -0.37400001 -0.639 52 16 0
2.342 -0.37 -0.63300002 55 16 0
2.352 -0.366 -0.62900001 49 16 0
2.3640001 -0.36399999 -0.62599999 58 16 0
2.3759999 -0.361 -0.62199998 63 16 0
2.3870001 -0.35800001 -0.61900002 54 16 0
2.392 -0.354 -0.61299998 50 16 0
2.401 -0.34999999 -0.60900003 49 16 0
2.4070001 -0.34599999 -0.60399997 49 16 0
2.4159999 -0.34299999 -0.60000002 43 16 0
2.431 -0.34099999 -0.597 45 16 0
2.4330001 -0.336 -0.59100002 46 16 0
2.444 -0.333 -0.58600003 42 16 0
2.4530001 -0.329 -0.58200002 39 16 0
2.4619999 -0.32600001 -0.57700002 47 16 0
2.4719999 -0.32300001 -0.57300001 38 16 0
2.4820001 -0.31900001 -0.56800002 39 16 0
2.493 -0.31600001 -0.56400001 41 16 0
2.5020001 -0.31299999 -0.55900002 37 16 0
2.51 -0.30899999 -0.55299997 34 16 0
2.5250001 -0.30599999 -0.55000001 34 16 0
2.533 -0.30199999 -0.54500002 37 16 0
2.54 -0.29800001 -0.53899997 33 16 0
2.549 -0.29499999 -0.53399998 34 16 0
2.559 -0.29100001 -0.52899998 34 16 0
2.572 -0.28799999 -0.52399999 34 16 0
2.582 -0.285 -0.51899999 34 16 0
2.5899999 -0.28099999 -0.51300001 34 16 0
2.599 -0.27700001 -0.50800002 35 16 0
2.609 -0.27399999 -0.50199997 33 16 0
2.6229999 -0.27000001 -0.498 32 16 0
2.6340001 -0.26699999 -0.49200001 34 16 0
2.642 -0.26300001 -0.486 31 16 0
2.6530001 -0.259 -0.48100001 33 16 0
2.6659999 -0.25600001 -0.47600001 34 16 0
2.6760001 -0.252 -0.47 33 16 0
2.6830001 -0.248 -0.46399999 32 16 0
2.6949999 -0.245 -0.458 32 16 0
2.704 -0.241 -0.45199999 32 16 0
2.7090001 -0.237 -0.44499999 32 16 0
2.717 -0.233 -0.43900001 30 16 0
2.7349999 -0.23 -0.43399999 31 16 0
2.7449999 -0.226 -0.428 31 16 0
2.7579999 -0.223 -0.42199999 29 16 0
2.767 -0.219 -0.41600001 30 16 0
2.7750001 -0.215 -0.40900001 28 16 0
2.7850001 -0.211 -0.40200001 29 16 0
2.8 -0.207 -0.39700001 29 16 0
2.8110001 -0.20299999 -0.38999999 28 16 0
2.8210001 -0.199 -0.384 28 16 0
2.832 -0.19599999 -0.377 28 16 0
2.842 -0.192 -0.37 26 16 0
2.8529999 -0.18799999 -0.36399999 28 16 0
2.8699999 -0.184 -0.35800001 29 16 0
2.8740001 -0.18000001 -0.34999999 28 16 0
2.888 -0.176 -0.34299999 28 16 0
2.8989999 -0.17200001 -0.336 27 16 0
2.9100001 -0.168 -0.329 28 16 0
2.9260001 -0.164 -0.32300001 27 16 0
2.9319999 -0.16 -0.315 28 16 0
2.947 -0.156 -0.308 28 16 0
2.9579999 -0.152 -0.301 27 16 0
2.9660001 -0.148 -0.29300001 29 16 0
2.9849999 -0.14399999 -0.287 28 16 0
2.9909999 -0.14 -0.27900001 30 16 0
3.0120001 -0.13600001 -0.27200001 29 16 0
3.023 -0.132 -0.264 28 16 0
3.036 -0.12800001 -0.257 29 16 0
3.0469999 -0.124 -0.249 28 16 0
3.0580001 -0.12 -0.241 28 16 0
3.0769999 -0.116 -0.234 27 16 0
3.0910001 -0.112 -0.226 29 16 0
3.095 -0.107 -0.21699999 28 16 0
3.112 -0.103 -0.20900001 30 16 0
3.1259999 -0.098999999 -0.20100001 29 16 0
3.138 -0.093999997 -0.193 29 16 0
3.155 -0.090000004 -0.185 30 16 0
3.164 -0.086000003 -0.176 29 16 0
3.175 -0.082000002 -0.168 29 16 0
3.1919999 -0.077 -0.15899999 31 16 0
3.204 -0.072999999 -0.15099999 59 16 0
3.21 -0.068000004 -0.142 149 16 0
3.2119999 -0.064000003 -0.132 150 16 0
3.2179999 -0.059 -0.123 150 16 0
3.217 -0.055 -0.114 150 16 0
3.217 -0.050000001 -0.105 150 16 0
3.2279999 -0.046 -0.096000001 150 16 0
3.2260001 -0.041000001 -0.086000003 150 16 0
3.2279999 -0.035999998 -0.077 150 16 0
3.2290001 -0.032000002 -0.067000002 150 16 0
3.2290001 -0.027000001 -0.057999998 150 16 0
3.234 -0.023 -0.048999999 149 16 0
3.234 -0.017999999 -0.039000001 82 16 0
3.233 -0.014 -0.029999999 35 16 0
3.2409999 -0.0089999996 -0.02 22 16 0
3.2609999 -0.0049999999 -0.011 18 16 0
3.2720001 0 -0.001 19 16 0
3.2909999 0.003 0.0070000002 19 16 0
3.299 0.0080000004 0.017000001 19 16 0
3.3150001 0.012 0.027000001 20 16 0
3.3280001 0.017000001 0.037 20 16 0
3.3410001 0.021 0.046999998 25 16 0
3.358 0.026000001 0.057 39 16 0
3.3659999 0.030999999 0.067000002 79 16 0
3.3640001 0.035 0.077 102 16 0
3.346 0.039000001 0.086000003 32 16 0
3.3269999 0.043000001 0.096000001 32 16 0
3.303 0.048 0.105 32 16 0
3.2750001 0.050999999 0.113 36 16 0
3.2609999 0.056000002 0.123 95 16 0
3.2620001 0.059999999 0.132 150 16 0
3.267 0.064000003 0.142 150 16 0
3.266 0.068000004 0.152 150 16 0
3.2709999 0.072999999 0.162 150 16 0
3.27 0.077 0.17200001 150 16 0
3.276 0.081 0.182 150 16 0
3.279 0.086000003 0.192 150 16 0
3.2780001 0.090000004 0.20100001 150 16 0
3.283 0.093999997 0.212 150 16 0
3.2869999 0.097999997 0.222 150 16 0
3.286 0.102 0.23100001 150 16 0
3.29 0.107 0.242 150 16 0
3.2909999 0.111 0.252 150 16 0
3.2909999 0.115 0.26100001 150 16 0
3.2939999 0.119 0.271 150 16 0
3.293 0.123 0.28099999 150 16 0
3.3 0.127 0.292 150 16 0
3.2969999 0.131 0.30199999 150 16 0
3.3099999 0.13600001 0.31299999 150 16 0
3.309 0.14 0.32300001 150 16 0
3.3110001 0.14399999 0.333 150 16 0
3.3110001 0.148 0.34299999 150 16 0
3.3150001 0.152 0.35299999 150 16 0
3.319 0.156 0.36399999 150 16 0
3.3080001 0.16 0.373 89 16 0
3.286 0.162 0.38 44 16 0
3.2739999 0.16599999 0.389 41 16 0
3.256 0.169 0.39700001 44 16 0
3.2379999 0.171 0.40400001 44 16 0
3.22 0.17399999 0.412 44 16 0
3.2060001 0.177 0.41999999 44 16 0
3.187 0.18000001 0.42699999 43 16 0
3.171 0.183 0.435 46 16 0
3.1559999 0.185 0.44299999 42 16 0
3.1359999 0.18799999 0.449 44 16 0
3.1140001 0.19 0.456 41 16 0
3.098 0.192 0.463 43 16 0
3.0799999 0.19499999 0.47 41 16 0
3.066 0.197 0.477 42 16 0
3.05 0.2 0.484 42 16 0
3.026 0.20100001 0.49000001 42 16 0
3.016 0.204 0.498 43 16 0
2.9979999 0.206 0.50400001 45 16 0
2.9809999 0.208 0.50999999 44 16 0
2.9690001 0.20999999 0.51800001 43 16 0
2.954 0.213 0.52399999 46 16 0
2.934 0.214 0.52999997 44 16 0
2.927 0.21699999 0.53799999 44 16 0
2.915 0.219 0.54500002 47 16 0
2.8940001 0.221 0.55000001 42 16 0
2.885 0.223 0.55699998 42 16 0
2.872 0.22499999 0.56400001 42 16 0
2.8540001 0.226 0.56900001 42 16 0
2.842 0.228 0.57599998 52 16 0
2.8310001 0.23 0.583 53 16 0
2.8099999 0.23100001 0.58700001 55 16 0
2.8010001 0.233 0.59399998 54 16 0
2.7869999 0.235 0.60000002 51 16 0
2.77 0.236 0.60500002 54 16 0
2.756 0.23800001 0.611 94 16 0
2.7490001 0.23999999 0.61799997 84 16 0
2.733 0.241 0.62300003 61 16 0
2.7190001 0.243 0.62900001 71 16 0
2.71 0.244 0.63499999 72 16 0
2.6889999 0.245 0.639 64 16 0
2.6830001 0.24699999 0.64600003 62 16 0
2.674 0.249 0.653 73 16 0
2.6589999 0.25 0.65700001 111 16 0
2.6440001 0.25099999 0.662 118 16 0
2.631 0.252 0.66799998 118 16 0
2.622 0.25400001 0.67400002 116 16 0
2.609 0.255 0.67900002 113 16 0
2.596 0.25600001 0.68400002 120 16 0
2.5829999 0.257 0.68900001 131 16 0
2.575 0.25799999 0.69499999 125 16 0
2.566 0.259 0.70099998 116 16 0
2.5510001 0.25999999 0.70499998 148 16 0
2.5420001 0.26100001 0.71100003 146 16 0
2.5280001 0.26199999 0.71600002 141 16 0
2.5120001 0.26300001 0.71899998 114 16 0
2.5050001 0.264 0.72500002 95 16 0
2.493 0.26499999 0.73000002 97 16 0
2.484 0.266 0.736 144 16 0
2.47 0.266 0.74000001 150 16 0
2.4579999 0.26699999 0.74400002 150 16 0
2.4489999 0.26800001 0.74900001 150 16 0
2.438 0.26899999 0.75400001 150 16 0
2.427 0.26899999 0.759 150 16 0
2.421 0.27000001 0.76499999 150 16 0
2.4089999 0.271 0.76899999 150 16 0
2.3970001 0.271 0.773 150 16 0
2.388 0.27200001 0.778 150 16 0
2.3770001 0.27200001 0.78299999 150 16 0
2.3710001 0.273 0.78799999 150 16 0
2.359 0.27399999 0.792 150 16 0
2.3510001 0.27399999 0.79699999 150 16 0
2.342 0.27500001 0.80199999 150 16 0
2.3310001 0.27500001 0.80599999 150 16 0
2.3210001 0.27599999 0.81099999 150 16 0
2.3110001 0.27599999 0.815 150 16 0
2.2939999 0.27500001 0.81599998 150 16 0
2.2909999 0.27700001 0.82300001 150 16 0
2.28 0.27700001 0.82700002 150 16 0
2.2709999 0.27700001 0.83099997 150 16 0
2.263 0.27700001 0.83600003 150 16 0
2.2490001 0.27700001 0.838 150 16 0
2.2409999 0.27700001 0.84299999 150 16 0
2.2290001 0.27700001 0.84600002 150 16 0
2.2190001 0.27700001 0.84899998 150 16 0
2.2160001 0.278 0.85500002 148 16 0
2.2049999 0.278 0.85900003 150 16 0
2.1989999 0.278 0.86400002 150 16 0
2.187 0.278 0.866 150 16 0
2.1789999 0.278 0.87099999 150 16 0
2.1719999 0.278 0.875 150 16 0
2.158 0.27700001 0.87699997 150 16 0
2.151 0.27700001 0.88099998 150 16 0
2.1440001 0.27700001 0.88599998 150 16 0
2.1340001 0.27700001 0.889 150 16 0
2.1259999 0.27700001 0.89300001 150 16 0
2.1140001 0.27599999 0.89499998 150 16 0
2.109 0.27599999 0.89999998 150 16 0
2.1029999 0.27599999 0.90399998 150 16 0
2.095 0.27599999 0.90799999 150 16 0
2.085 0.27500001 0.91100001 150 16 0
2.0799999 0.27500001 0.91500002 150 16 0
2.0710001 0.27500001 0.91799998 150 16 0
2.0650001 0.27500001 0.92299998 150 16 0
2.0599999 0.27500001 0.92699999 150 16 0
2.046 0.273 0.92799997 150 16 0
2.043 0.27399999 0.93400002 150 16 0
2.0350001 0.273 0.93699998 150 16 0
2.0280001 0.273 0.94 150 16 0
2.0150001 0.271 0.94099998 150 16 0
2.0109999 0.271 0.94599998 150 16 0
2.003 0.27000001 0.94800001 150 16 0
1.995 0.27000001 0.95099998 150 16 0
1.984 0.26899999 0.95300001 150 16 0
1.973 0.26699999 0.954 150 16 0
1.969 0.26699999 0.95899999 150 16 0
1.966 0.26699999 0.96399999 150 16 0
1.956 0.266 0.96499997 150 16 0
1.9450001 0.26499999 0.96700001 150 16 0
1.942 0.264 0.97100002 150 16 0
1.934 0.26300001 0.97399998 150 16 0
1.932 0.26300001 0.97899997 150 16 0
1.925 0.26199999 0.98100001 150 16 0
1.915 0.26100001 0.98299998 150 16 0
1.908 0.25999999 0.98500001 150 16 0
1.902 0.259 0.98900002 150 16 0
1.8940001 0.25799999 0.99000001 150 16 0
1.8890001 0.257 0.99400002 150 16 0
1.883 0.25600001 0.99699998 150 16 0
1.8789999 0.255 1.001 150 16 0
1.867 0.25299999 1 150 16 0
1.865 0.25299999 1.005 150 16 0
1.857 0.25099999 1.007 150 16 0
1.849 0.25 1.008 150 16 0
1.844 0.249 1.011 150 16 0
1.841 0.248 1.015 150 16 0
1.834 0.24699999 1.017 150 16 0
1.829 0.24600001 1.02 150 16 0
1.8200001 0.244 1.021 150 16 0
1.816 0.243 1.024 150 16 0
1.811 0.242 1.027 150 16 0
1.807 0.241 1.029 150 16 0
1.7970001 0.23899999 1.029 150 16 0
1.788 0.237 1.03 150 16 0
1.786 0.236 1.034 150 16 0
1.7819999 0.235 1.0369999 150 16 0
1.779 0.234 1.04 150 16 0
1.772 0.23199999 1.041 150 16 0
1.756 0.229 1.0369999 150 19 0
1.752 0.228 1.04 150 16 0
1.748 0.227 1.0420001 150 16 0
1.744 0.22499999 1.044 150 16 0
1.742 0.22400001 1.048 150 16 0
1.739 0.223 1.051 150 16 0
1.734 0.221 1.053 150 16 0
1.732 0.22 1.056 150 16 0
1.724 0.21799999 1.056 150 16 0
1.722 0.21699999 1.059 150 16 0
1.721 0.215 1.063 150 16 0
1.716 0.214 1.0650001 150 16 0
1.709 0.212 1.0650001 150 16 0
1.707 0.20999999 1.068 150 16 0
1.702 0.208 1.069 150 16 0
1.7 0.207 1.072 150 16 0
1.692 0.205 1.071 150 16 0
1.691 0.20299999 1.074 150 16 0
1.6849999 0.20100001 1.075 150 16 0
1.6799999 0.199 1.075 150 16 0
1.677 0.198 1.0779999 150 16 0
1.6720001 0.19599999 1.0779999 150 16 0
1.67 0.19400001 1.08 150 16 0
1.665 0.192 1.081 150 16 0
1.661 0.19 1.082 150 16 0
1.659 0.18799999 1.084 150 16 0
1.658 0.18700001 1.087 150 16 0
1.6569999 0.185 1.089 150 16 0
1.655 0.183 1.092 150 16 0
1.648 0.18099999 1.09 150 16 0
1.649 0.17900001 1.094 150 16 0
1.648 0.177 1.096 150 16 0
1.635 0.17399999 1.091 150 18 0
1.6339999 0.17200001 1.0930001 150 16 0
1.633 0.171 1.095 150 16 0
1.631 0.169 1.097 150 16 0
1.63 0.167 1.099 150 16 0
1.626 0.16500001 1.099 150 16 0
1.622 0.162 1.099 150 16 0
1.619 0.16 1.099 150 16 0
1.618 0.15800001 1.101 150 16 0
1.6160001 0.156 1.102 150 16 0
1.6160001 0.154 1.104 150 16 0
1.615 0.152 1.1059999 150 16 0
1.6109999 0.15000001 1.105 150 16 0
1.61 0.148 1.1059999 150 16 0
1.6059999 0.146 1.105 150 16 0
1.609 0.14399999 1.109 150 16 0
1.6059999 0.142 1.109 150 16 0
1.601 0.139 1.107 150 16 0
1.6 0.13699999 1.108 150 16 0
1.6 0.13500001 1.109 150 16 0
1.599 0.133 1.11 150 16 0
1.598 0.131 1.1109999 150 16 0
1.597 0.12800001 1.1109999 150 16 0
1.595 0.126 1.1109999 150 16 0
1.596 0.124 1.113 150 16 0
1.596 0.122 1.114 150 16 0
1.595 0.12 1.114 150 16 0
1.592 0.117 1.113 150 16 0
1.592 0.115 1.113 150 16 0
1.592 0.113 1.114 150 16 0
1.591 0.111 1.114 150 16 0
1.591 0.108 1.114 150 16 0
1.592 0.106 1.115 150 16 0
1.592 0.104 1.115 150 16 0
1.591 0.102 1.115 150 16 0
1.592 0.098999999 1.115 150 16 0
1.592 0.097000003 1.1160001 150 16 0
1.592 0.094999999 1.1160001 150 16 0
1.592 0.093000002 1.115 150 16 0
1.592 0.090000004 1.115 150 16 0
1.5930001 0.088 1.115 150 16 0
1.5930001 0.086000003 1.115 150 16 0
1.592 0.082999997 1.114 150 16 0
1.594 0.081 1.115 150 16 0
1.596 0.079000004 1.115 150 16 0
1.594 0.077 1.113 150 16 0
1.594 0.074000001 1.112 150 16 0
1.597 0.071999997 1.113 150 16 0
1.596 0.07 1.112 150 16 0
1.599 0.068000004 1.113 150 16 0
1.6 0.064999998 1.112 150 16 0
1.6 0.063000001 1.11 150 16 0
1.603 0.061000001 1.1109999 150 16 0
1.604 0.059 1.11 150 16 0
1.604 0.056000002 1.109 150 16 0
1.604 0.054000001 1.108 150 16 0
1.6059999 0.052000001 1.107 150 16 0
1.607 0.050000001 1.1059999 150 16 0
1.6109999 0.046999998 1.107 150 16 0
1.615 0.045000002 1.108 150 16 0
1.6109999 0.043000001 1.103 150 16 0
1.6160001 0.041000001 1.104 150 16 0
1.614 0.039000001 1.1 150 16 0
1.618 0.035999998 1.101 150 16 0
1.624 0.034000002 1.103 150 16 0
1.625 0.032000002 1.101 150 16 0
1.627 0.029999999 1.1 150 16 0
1.6289999 0.028000001 1.098 150 16 0
1.6289999 0.026000001 1.096 150 16 0
1.635 0.024 1.097 150 16 0
1.637 0.021 1.095 150 16 0
1.641 0.018999999 1.095 150 16 0
1.643 0.017000001 1.0930001 150 16 0
1.643 0.015 1.09 150 16 0
1.646 0.013 1.089 150 16 0
1.655 0.011 1.092 150 19 0
1.66 0.0089999996 1.092 150 16 0
1.6619999 0.0070000002 1.09 150 16 0
1.663 0.0049999999 1.087 150 16 0
1.666 0.003 1.085 150 16 0
1.67 0.001 1.084 150 16 0
1.673 0 1.0829999 150 16 0
1.676 -0.0020000001 1.081 150 16 0
1.677 -0.0040000002 1.0779999 150 16 0
1.679 -0.0060000001 1.075 150 16 0
1.6849999 -0.0080000004 1.075 150 16 0
1.689 -0.0099999998 1.074 150 16 0
1.692 -0.012 1.072 150 16 0
1.699 -0.014 1.072 150 16 0
1.702 -0.016000001 1.0700001 150 16 0
1.705 -0.017999999 1.067 150 16 0
1.71 -0.02 1.066 150 16 0
1.7130001 -0.022 1.063 150 16 0
1.722 -0.024 1.064 150 16 0
1.726 -0.026000001 1.063 150 16 0
1.732 -0.027000001 1.062 150 16 0
1.735 -0.028999999 1.059 150 16 0
1.737 -0.030999999 1.0549999 150 16 0
1.743 -0.033 1.054 150 16 0
1.748 -0.035 1.052 150 16 0
1.751 -0.035999998 1.05 150 16 0
1.755 -0.037999999 1.0470001 150 16 0
1.757 -0.039999999 1.044 150 16 0
1.762 -0.041999999 1.041 150 16 0
1.7640001 -0.043000001 1.038 150 16 0
1.771 -0.045000002 1.036 150 16 0
1.7869999 -0.046999998 1.04 150 19 0
1.788 -0.048999999 1.036 150 16 0
1.795 -0.050000001 1.035 150 16 0
1.801 -0.052000001 1.033 150 16 0
1.807 -0.052999999 1.031 150 16 0
1.812 -0.055 1.028 150 16 0
1.821 -0.057 1.027 150 16 0
1.826 -0.057999998 1.025 150 16 0
1.831 -0.059999999 1.022 150 16 0
1.836 -0.061000001 1.02 150 16 0
1.841 -0.063000001 1.017 150 16 0
1.847 -0.064000003 1.0140001 150 16 0
1.852 -0.066 1.011 150 16 0
1.858 -0.067000002 1.0089999 150 16 0
1.867 -0.068999998 1.007 150 16 0
1.869 -0.07 1.003 150 16 0
1.876 -0.071000002 1 150 16 0
1.883 -0.072999999 0.99800003 150 16 0
1.892 -0.074000001 0.99699998 150 16 0
1.902 -0.075999998 0.99599999 150 16 0
1.906 -0.077 0.99199998 150 16 0
1.911 -0.078000002 0.98900002 150 16 0
1.921 -0.079999998 0.98699999 150 16 0
1.925 -0.081 0.98299998 150 16 0
1.934 -0.082000002 0.98100001 150 16 0
1.937 -0.083999999 0.977 150 16 0
1.943 -0.085000001 0.97299999 150 16 0
1.955 -0.086000003 0.97299999 150 16 0
1.96 -0.086999997 0.96899998 150 16 0
1.966 -0.088 0.96499997 150 16 0
1.977 -0.090000004 0.96399999 150 16 0
1.983 -0.090999998 0.95999998 150 16 0
1.993 -0.092 0.95899999 150 16 0
1.995 -0.093000002 0.95300001 150 16 0
2.0020001 -0.093999997 0.949 150 16 0
2.016 -0.094999999 0.949 150 16 0
2.0250001 -0.097000003 0.94700003 150 16 0
2.029 -0.097000003 0.94199997 150 16 0
2.039 -0.097999997 0.94 146 16 0
2.0450001 -0.098999999 0.93599999 140 16 0
2.0550001 -0.101 0.93300003 150 16 0
2.0639999 -0.102 0.93000001 150 16 0
2.0680001 -0.102 0.92500001 150 16 0
2.082 -0.103 0.92400002 148 16 0
2.0869999 -0.104 0.92000002 150 16 0
2.0940001 -0.105 0.91600001 148 16 0
2.1029999 -0.106 0.912 150 16 0
2.108 -0.107 0.90700001 147 16 0
2.1210001 -0.108 0.90600002 142 16 0
2.128 -0.108 0.90100002 145 16 0
2.138 -0.109 0.898 139 16 0
2.1400001 -0.11 0.89200002 106 16 0
2.152 -0.111 0.88999999 118 16 0
2.1600001 -0.111 0.88599998 120 16 0
2.1659999 -0.112 0.88099998 123 16 0
2.175 -0.113 0.87699997 115 16 0
2.184 -0.113 0.87300003 115 16 0
2.1949999 -0.114 0.87 122 16 0
2.204 -0.115 0.866 119 16 0
2.2190001 -0.115 0.86400002 121 16 0
2.2190001 -0.116 0.85699999 111 16 0
2.23 -0.116 0.85299999 109 16 0
2.2379999 -0.117 0.84899998 106 16 0
2.25 -0.117 0.84600002 102 16 0
2.2609999 -0.118 0.84200001 121 16 0
2.2739999 -0.119 0.83899999 124 16 0
2.277 -0.119 0.833 116 16 0
2.2880001 -0.119 0.829 108 16 0
2.302 -0.12 0.82599998 116 16 0
2.313 -0.12 0.82200003 102 16 0
2.3239999 -0.121 0.81800002 101 16 0
2.3310001 -0.121 0.81300002 107 16 0
2.3410001 -0.121 0.80800003 105 16 0
2.349 -0.121 0.80299997 113 16 0
2.3629999 -0.122 0.80000001 121 16 0
2.372 -0.122 0.79500002 105 16 0
2.381 -0.122 0.79000002 100 16 0
2.3900001 -0.122 0.78399998 72 16 0
2.401 -0.123 0.77999997 70 16 0
2.4100001 -0.123 0.77499998 60 16 0
2.424 -0.123 0.77100003 64 16 0
2.4289999 -0.123 0.764 61 16 0
2.4389999 -0.123 0.759 65 16 0
2.45 -0.123 0.75400001 82 16 0
2.461 -0.123 0.74900001 75 16 0
2.4749999 -0.123 0.745 58 16 0
2.4860001 -0.123 0.74000001 63 16 0
2.4960001 -0.123 0.73500001 63 16 0
2.5079999 -0.123 0.73000002 57 16 0
2.5150001 -0.123 0.72299999 60 16 0
2.5280001 -0.123 0.71899998 59 16 0
2.539 -0.123 0.713 58 16 0
2.5550001 -0.123 0.70899999 65 16 0
2.5650001 -0.123 0.70300001 54 16 0
2.5799999 -0.123 0.699 61 16 0
2.586 -0.122 0.69199997 49 16 0
2.599 -0.122 0.68699998 60 16 0
2.618 -0.122 0.68300003 57 16 0
2.631 -0.122 0.67799997 40 16 0
2.642 -0.121 0.671 43 16 0
2.6559999 -0.121 0.66600001 37 16 0
2.6689999 -0.121 0.66100001 38 16 0
2.675 -0.12 0.653 37 16 0
2.687 -0.12 0.64700001 41 16 0
2.707 -0.12 0.64300001 38 16 0
2.714 -0.119 0.63599998 29 16 0
2.7290001 -0.119 0.63 27 16 0
2.7460001 -0.118 0.625 34 16 0
2.7550001 -0.118 0.61799997 36 16 0
2.773 -0.117 0.61299998 36 16 0
2.786 -0.117 0.60600001 37 16 0
2.7969999 -0.116 0.60000002 36 16 0
2.812 -0.116 0.59399998 36 16 0
2.8329999 -0.115 0.58899999 36 16 0
2.842 -0.114 0.58099997 35 16 0
2.8540001 -0.114 0.574 36 16 0
2.869 -0.113 0.56800002 34 16 0
2.885 -0.112 0.56199998 34 16 0
2.901 -0.111 0.55500001 35 16 0
2.911 -0.11 0.54799998 34 16 0
2.9260001 -0.11 0.54100001 33 16 0
2.9430001 -0.109 0.53399998 34 16 0
2.961 -0.108 0.528 34 16 0
2.9760001 -0.107 0.52100003 27 16 0
2.9909999 -0.106 0.514 27 16 0
3.0139999 -0.106 0.50800002 28 16 0
3.023 -0.104 0.5 27 16 0
3.043 -0.103 0.493 28 16 0
3.059 -0.102 0.486 27 16 0
3.069 -0.101 0.477 27 16 0
3.089 -0.1 0.47 27 16 0
3.1140001 -0.098999999 0.46399999 27 16 0
3.122 -0.097999997 0.45500001 27 16 0
3.1459999 -0.097000003 0.449 28 16 0
3.164 -0.094999999 0.44100001 27 16 0
3.184 -0.093999997 0.433 29 16 0
3.2030001 -0.093000002 0.426 29 16 0
3.223 -0.092 0.41800001 29 16 0
3.2379999 -0.090000004 0.41 29 16 0
3.2520001 -0.089000002 0.40099999 29 16 0
3.273 -0.086999997 0.39300001 29 16 0
3.293 -0.086000003 0.38499999 28 16 0
3.309 -0.083999999 0.37599999 27 16 0
3.329 -0.082999997 0.368 28 16 0
3.349 -0.081 0.359 29 16 0
3.369 -0.079000004 0.34999999 35 16 0
3.385 -0.078000002 0.34099999 36 16 0
3.385 -0.075000003 0.33000001 28 16 0
3.392 -0.072999999 0.31999999 26 16 0
3.392 -0.071000002 0.30899999 29 16 0
3.391 -0.068999998 0.29800001 35 16 0
3.3889999 -0.067000002 0.287 43 16 0
3.3940001 -0.064999998 0.27700001 57 16 0
3.3789999 -0.061999999 0.26499999 91 16 0
3.3759999 -0.059999999 0.25400001 118 16 0
3.372 -0.057 0.243 109 16 0
3.3670001 -0.055 0.23199999 87 16 0
3.3570001 -0.052000001 0.221 70 16 0
3.355 -0.050000001 0.20999999 67 16 0
3.3440001 -0.046999998 0.199 69 16 0
3.342 -0.045000002 0.18799999 72 16 0
3.3369999 -0.043000001 0.177 82 16 0
3.3269999 -0.039999999 0.16599999 67 16 0
3.3199999 -0.037999999 0.155 78 16 0
3.313 -0.035 0.14399999 80 16 0
3.3039999 -0.033 0.134 79 16 0
3.303 -0.029999999 0.123 86 16 0
3.2969999 -0.028000001 0.113 84 16 0
3.286 -0.025 0.102 76 16 0
3.2820001 -0.022 0.090999998 62 16 0
3.2820001 -0.02 0.081 47 16 0
3.276 -0.017000001 0.071000002 36 16 0
3.2679999 -0.015 0.059999999 26 16 0
3.2739999 -0.012 0.050000001 21 16 0
3.2679999 -0.0099999998 0.039000001 16 16 0
3.2780001 -0.0070000002 0.028999999 15 16 0
3.279 -0.0049999999 0.018999999 16 16 0
3.2780001 -0.0020000001 0.0089999996 15 16 0
3.2809999 0 -0.001 15 16 0
3.286 0.0020000001 -0.011 16 16 0
3.2809999 0.0049999999 -0.021 15 16 0
3.286 0.0080000004 -0.030999999 16 16 0
3.2939999 0.011 -0.041999999 16 16 0
3.293 0.013 -0.052000001 17 16 0
3.2939999 0.016000001 -0.061999999 19 16 0
3.2950001 0.018999999 -0.072999999 23 16 0
3.2920001 0.022 -0.082999997 30 16 0
3.2920001 0.024 -0.093000002 36 16 0
3.2850001 0.027000001 -0.103 43 16 0
3.276 0.029999999 -0.113 49 16 0
3.267 0.033 -0.123 51 16 0
3.2639999 0.035999998 -0.133 50 16 0
3.253 0.037999999 -0.14300001 51 16 0
3.25 0.041000001 -0.153 47 16 0
3.2479999 0.044 -0.163 45 16 0
3.2420001 0.046999998 -0.17299999 42 16 0
3.2379999 0.050000001 -0.183 39 16 0
3.2349999 0.052999999 -0.193 38 16 0
3.224 0.055 -0.20200001 40 16 0
3.2149999 0.057999998 -0.211 45 16 0
3.21 0.061000001 -0.221 52 16 0
3.2030001 0.064000003 -0.23 51 16 0
3.2 0.067000002 -0.23999999 53 16 0
3.1989999 0.07 -0.25 52 16 0
3.188 0.072999999 -0.259 64 16 0
3.1819999 0.075999998 -0.26899999 53 16 0
3.1760001 0.079000004 -0.278 53 16 0
3.165 0.081 -0.287 50 16 0
3.1619999 0.083999999 -0.296 50 16 0
3.1589999 0.086999997 -0.30599999 58 16 0
3.1530001 0.090000004 -0.315 65 16 0
3.1470001 0.093000002 -0.324 53 16 0
3.1400001 0.096000001 -0.333 50 16 0
3.135 0.098999999 -0.34299999 48 16 0
3.1289999 0.102 -0.352 83 16 0
3.1210001 0.105 -0.36000001 77 16 0
3.1170001 0.108 -0.36899999 81 16 0
3.109 0.111 -0.37799999 86 16 0
3.1040001 0.114 -0.38699999 84 16 0
3.102 0.117 -0.39700001 80 16 0
3.098 0.12 -0.40599999 81 16 0
3.086 0.123 -0.414 83 16 0
3.0829999 0.126 -0.42300001 76 16 0
3.0769999 0.12899999 -0.43099999 87 16 0
3.0699999 0.132 -0.44 90 16 0
3.066 0.13600001 -0.449 85 16 0
3.059 0.139 -0.458 85 16 0
3.053 0.142 -0.46599999 89 16 0
3.046 0.145 -0.47400001 89 16 0
3.0420001 0.148 -0.48300001 73 16 0
3.0409999 0.15099999 -0.49200001 91 16 0
3.0339999 0.154 -0.50099999 90 16 0
3.027 0.15700001 -0.509 84 16 0
3.0179999 0.16 -0.51700002 89 16 0
3.0139999 0.164 -0.52499998 87 16 0
3.0120001 0.167 -0.53399998 76 16 0
3.003 0.17 -0.542 84 16 0
3 0.17299999 -0.551 78 16 0
2.993 0.176 -0.55900002 77 16 0
