# .PCD v0.7 - Point Cloud Data file format
VERSION 0.7
FIELDS x y z intensity tag line
SIZE 4 4 4 4 1 1
TYPE F F F F U U
COUNT 1 1 1 1 1 1
WIDTH 1364
HEIGHT 1
VIEWPOINT 0 0 0 1 0 0 0
POINTS 1364
DATA ascii
1.7309999 -0.64300001 -0.58200002 150 16 0
1.728 -0.64499998 -0.58499998 150 16 0
1.723 -0.64600003 -0.588 149 16 0
1.7180001 -0.64700001 -0.59100002 150 16 0
1.715 -0.64999998 -0.59500003 150 16 0
1.711 -0.65100002 -0.59799999 150 16 0
1.705 -0.65200001 -0.60100001 150 16 0
1.7 -0.653 -0.60299999 150 16 0
1.697 -0.65499997 -0.60699999 150 16 0
1.689 -0.65499997 -0.60900003 150 16 0
1.6849999 -0.65600002 -0.61199999 150 16 0
1.683 -0.65799999 -0.616 150 16 0
1.681 -0.66000003 -0.62 150 16 0
1.673 -0.66000003 -0.62199998 150 16 0
1.671 -0.662 -0.62599999 150 16 0
1.6670001 -0.66299999 -0.62900001 150 16 0
1.664 -0.66500002 -0.63200003 150 16 0
1.6619999 -0.66600001 -0.63599998 150 16 0
1.654 -0.66600001 -0.63700002 150 16 0
1.652 -0.667 -0.64099997 150 16 0
1.649 -0.66900003 -0.64399999 150 16 0
1.645 -0.67000002 -0.64700001 150 16 0
1.643 -0.671 -0.65100002 150 16 0
1.641 -0.67299998 -0.65499997 150 16 0
1.633 -0.67199999 -0.65600002 150 16 0
1.631 -0.67299998 -0.66000003 150 16 0
1.631 -0.676 -0.66399997 150 16 0
1.6289999 -0.67699999 -0.66799998 150 16 0
1.62 -0.67500001 -0.66900003 2 0 0
1.617 -0.676 -0.67199999 2 0 0
1.618 -0.67900002 -0.676 150 16 0
1.613 -0.67900002 -0.67900002 150 16 0
1.61 -0.68000001 -0.68199998 2 0 0
1.608 -0.68099999 -0.68599999 2 0 0
1.605 -0.68099999 -0.68800002 2 0 0
1.601 -0.68099999 -0.69099998 53 0 0
1.599 -0.68199998 -0.69400001 2 0 0
1.592 -0.68099999 -0.69599998 63 0 0
1.591 -0.68199998 -0.699 2 0 0
1.5880001 -0.68199998 -0.70200002 89 0 0
1.587 -0.68400002 -0.70599997 4 0 0
1.582 -0.68300003 -0.708 79 0 0
1.5829999 -0.685 -0.71200001 76 0 0
1.581 -0.68599999 -0.71600002 91 0 0
1.579 -0.68599999 -0.71799999 78 0 0
1.575 -0.68599999 -0.72100002 85 0 0
1.571 -0.685 -0.72299999 72 0 0
1.566 -0.68400002 -0.72500002 72 0 0
1.568 -0.68599999 -0.72899997 70 0 0
1.566 -0.68699998 -0.73199999 82 0 0
1.564 -0.68699998 -0.736 74 0 0
1.563 -0.68699998 -0.73900002 71 0 0
1.562 -0.68800002 -0.74199998 74 0 0
1.559 -0.68699998 -0.74400002 84 0 0
1.5549999 -0.68699998 -0.74599999 86 0 0
1.553 -0.68699998 -0.74900001 104 0 0
1.558 -0.68900001 -0.755 84 0 0
1.558 -0.69 -0.759 82 0 0
1.552 -0.68800002 -0.75999999 76 0 0
1.548 -0.68699998 -0.76099998 88 0 0
1.549 -0.68800002 -0.76499999 92 0 0
1.5470001 -0.68800002 -0.76800001 93 0 0
1.5470001 -0.68800002 -0.77100003 71 0 0
1.548 -0.68900001 -0.77499998 80 0 0
1.5470001 -0.68900001 -0.778 73 0 0
1.54 -0.68599999 -0.77700001 87 0 0
1.544 -0.68800002 -0.78299999 85 0 0
1.543 -0.68800002 -0.78600001 92 0 0
1.544 -0.68800002 -0.78899997 94 0 0
1.541 -0.68699998 -0.79100001 91 0 0
1.54 -0.68599999 -0.79299998 81 0 0
1.541 -0.68699998 -0.79699999 150 0 0
1.54 -0.68599999 -0.80000001 150 16 0
1.539 -0.685 -0.80199999 150 0 0
1.54 -0.685 -0.80500001 150 0 0
1.538 -0.68400002 -0.80699998 150 0 0
1.54 -0.685 -0.81099999 150 16 0
1.5420001 -0.685 -0.81400001 150 16 0
1.541 -0.68400002 -0.81699997 150 16 0
1.54 -0.68300003 -0.81900001 150 16 0
1.538 -0.68199998 -0.82099998 150 16 0
1.539 -0.68099999 -0.82300001 150 16 0
1.538 -0.68000001 -0.82499999 150 16 0
1.541 -0.68099999 -0.82999998 126 0 0
1.546 -0.68199998 -0.83399999 150 16 0
1.536 -0.67699999 -0.83099997 150 16 0
1.543 -0.67900002 -0.83700001 150 16 0
1.543 -0.67799997 -0.83999997 150 16 0
1.544 -0.67799997 -0.84200001 150 16 0
1.546 -0.67699999 -0.84600002 150 16 0
1.546 -0.676 -0.847 150 16 0
1.5470001 -0.67500001 -0.85000002 150 16 0
1.545 -0.67299998 -0.85100001 150 16 0
1.548 -0.67299998 -0.85399997 150 16 0
1.5470001 -0.671 -0.85500002 150 16 0
1.549 -0.67000002 -0.85799998 150 16 0
1.549 -0.66900003 -0.86000001 150 16 0
1.553 -0.66900003 -0.86299998 150 16 0
1.5549999 -0.66799998 -0.866 150 16 0
1.5549999 -0.667 -0.86699998 150 16 0
1.557 -0.66600001 -0.87 150 16 0
1.5599999 -0.66500002 -0.87300003 150 16 0
1.559 -0.66299999 -0.87300003 150 16 0
1.5599999 -0.662 -0.875 150 16 0
1.563 -0.66100001 -0.87800002 150 16 0
1.567 -0.66100001 -0.88099998 150 16 0
1.567 -0.65899998 -0.88200003 150 16 0
1.568 -0.65700001 -0.884 150 16 0
1.573 -0.65700001 -0.88700002 150 16 0
1.573 -0.65399998 -0.88800001 150 16 0
1.5779999 -0.65399998 -0.89099997 150 16 0
1.579 -0.65200001 -0.89200002 150 16 0
1.585 -0.65200001 -0.89600003 150 19 0
1.585 -0.64999998 -0.89700001 150 16 0
1.587 -0.648 -0.898 150 16 0
1.5880001 -0.64600003 -0.89899999 150 16 0
1.594 -0.64600003 -0.903 150 16 0
1.594 -0.64399999 -0.903 150 16 0
1.598 -0.64300001 -0.90499997 150 16 0
1.599 -0.63999999 -0.90600002 150 16 0
1.6 -0.63800001 -0.90600002 150 16 0
1.604 -0.63700002 -0.90799999 150 16 0
1.614 -0.63800001 -0.91399997 6 0 0
1.609 -0.63300002 -0.91100001 150 16 0
1.6109999 -0.63099998 -0.91100001 150 16 0
1.617 -0.63 -0.91500002 102 0 0
1.622 -0.62900001 -0.917 150 16 0
1.6289999 -0.62900001 -0.92000002 2 0 0
1.633 -0.62699997 -0.92199999 2 0 0
1.635 -0.625 -0.92199999 2 0 0
1.638 -0.62300003 -0.92299998 150 16 0
1.64 -0.62099999 -0.92400002 2 0 0
1.642 -0.61799997 -0.92400002 150 16 0
1.648 -0.61699998 -0.926 2 0 0
1.654 -0.616 -0.92799997 150 16 0
1.6569999 -0.61400002 -0.92900002 150 16 0
1.6619999 -0.61199999 -0.93000001 150 16 0
1.666 -0.61000001 -0.93099999 150 16 0
1.669 -0.60799998 -0.93099999 150 16 0
1.673 -0.60600001 -0.93199998 150 16 0
1.676 -0.60299999 -0.93199998 150 16 0
1.684 -0.602 -0.935 150 16 0
1.688 -0.60000002 -0.93599999 150 16 0
1.691 -0.59799999 -0.93599999 150 16 0
1.6950001 -0.59600002 -0.93599999 150 16 0
1.697 -0.59299999 -0.935 150 16 0
1.701 -0.58999997 -0.93599999 150 16 0
1.707 -0.58899999 -0.93699998 150 16 0
1.709 -0.58600003 -0.93599999 150 16 0
1.714 -0.583 -0.93599999 150 16 0
1.7180001 -0.58099997 -0.93599999 150 16 0
1.724 -0.579 -0.93699998 150 16 0
1.726 -0.57599998 -0.93599999 150 16 0
1.728 -0.57300001 -0.93400002 150 16 0
1.747 -0.57499999 -0.94199997 150 18 0
1.749 -0.57200003 -0.94099998 150 16 0
1.751 -0.56900001 -0.93900001 150 16 0
1.758 -0.56699997 -0.94 150 16 0
1.762 -0.56400001 -0.94 150 16 0
1.773 -0.56400001 -0.94300002 150 16 0
1.777 -0.56099999 -0.94199997 150 16 0
1.78 -0.55800003 -0.94099998 150 16 0
1.7869999 -0.55599999 -0.94099998 150 16 0
1.794 -0.55400002 -0.94199997 150 16 0
1.7970001 -0.551 -0.94 150 16 0
1.803 -0.54900002 -0.94 150 16 0
1.809 -0.546 -0.94 150 16 0
1.811 -0.54299998 -0.93699998 150 16 0
1.816 -0.54000002 -0.93699998 150 16 0
1.827 -0.53899997 -0.93900001 150 16 0
1.832 -0.537 -0.93800002 150 16 0
1.835 -0.53299999 -0.93599999 150 16 0
1.844 -0.53200001 -0.93699998 150 16 0
1.849 -0.52899998 -0.93599999 150 16 0
1.854 -0.52600002 -0.935 150 16 0
1.859 -0.523 -0.93300003 150 16 0
1.872 -0.523 -0.93599999 150 16 0
1.875 -0.51999998 -0.93300003 150 16 0
1.881 -0.51700002 -0.93199998 150 16 0
1.886 -0.514 -0.93099999 150 16 0
1.891 -0.51099998 -0.92900002 150 16 0
1.902 -0.50999999 -0.93000001 142 16 0
1.905 -0.50599998 -0.92699999 150 16 0
1.909 -0.50300002 -0.92500001 150 16 0
1.916 -0.5 -0.92400002 146 16 0
1.925 -0.49900001 -0.92400002 134 16 0
1.932 -0.49599999 -0.92299998 116 16 0
1.937 -0.493 -0.921 124 16 0
1.944 -0.49000001 -0.92000002 123 16 0
1.951 -0.48800001 -0.91799998 127 16 0
1.9579999 -0.48500001 -0.917 129 16 0
1.9630001 -0.48199999 -0.91399997 115 16 0
1.966 -0.479 -0.91100001 119 16 0
1.975 -0.47600001 -0.91000003 117 16 0
1.9809999 -0.47400001 -0.90799999 125 16 0
1.9960001 -0.47299999 -0.91000003 117 16 0
2.006 -0.47099999 -0.91000003 117 16 0
2.013 -0.46799999 -0.90799999 117 16 0
2.013 -0.46399999 -0.903 114 16 0
2.0239999 -0.46200001 -0.903 118 16 0
2.027 -0.458 -0.89899999 118 16 0
2.0380001 -0.456 -0.898 113 16 0
2.0420001 -0.45300001 -0.89499998 116 16 0
2.0539999 -0.45100001 -0.89499998 117 16 0
2.0599999 -0.44800001 -0.89200002 109 16 0
2.0680001 -0.44600001 -0.88999999 111 16 0
2.0739999 -0.442 -0.88800001 106 16 0
2.082 -0.44 -0.88499999 109 16 0
2.0840001 -0.43599999 -0.88099998 100 16 0
2.096 -0.43399999 -0.88 109 16 0
2.1010001 -0.43099999 -0.87699997 106 16 0
2.112 -0.42899999 -0.87599999 113 16 0
2.119 -0.426 -0.87300003 108 16 0
2.1259999 -0.42300001 -0.87 107 16 0
2.131 -0.41999999 -0.866 99 16 0
2.135 -0.41600001 -0.86199999 104 16 0
2.151 -0.41499999 -0.86199999 110 16 0
2.158 -0.412 -0.85900003 112 16 0
2.164 -0.40900001 -0.85600001 110 16 0
2.174 -0.40599999 -0.85399997 104 16 0
2.1819999 -0.403 -0.85100001 98 16 0
2.187 -0.40000001 -0.847 109 16 0
2.197 -0.398 -0.84500003 108 16 0
2.2019999 -0.39399999 -0.83999997 98 16 0
2.207 -0.391 -0.83600003 94 16 0
2.2179999 -0.389 -0.83399999 100 16 0
2.2249999 -0.38600001 -0.82999998 91 16 0
2.2349999 -0.38299999 -0.82800001 84 16 0
2.243 -0.38 -0.824 114 16 0
2.2509999 -0.377 -0.82099998 104 16 0
2.257 -0.37400001 -0.81699997 104 16 0
2.2679999 -0.37200001 -0.81400001 88 16 0
2.276 -0.36899999 -0.81099999 91 16 0
2.283 -0.366 -0.80599999 90 16 0
2.296 -0.36300001 -0.80400002 84 16 0
2.299 -0.36000001 -0.79900002 86 16 0
2.313 -0.35800001 -0.79699999 86 16 0
2.3150001 -0.354 -0.79100001 91 16 0
2.3269999 -0.352 -0.78799999 94 16 0
2.336 -0.34900001 -0.78500003 97 16 0
2.342 -0.345 -0.77999997 96 16 0
2.3469999 -0.34200001 -0.77499998 87 16 0
2.358 -0.33899999 -0.77100003 87 16 0
2.3640001 -0.336 -0.76599997 85 16 0
2.3759999 -0.33399999 -0.76300001 90 16 0
2.3840001 -0.331 -0.759 81 16 0
2.392 -0.32800001 -0.75400001 92 16 0
2.4000001 -0.32499999 -0.75 79 16 0
2.4059999 -0.32100001 -0.745 85 16 0
2.4130001 -0.31799999 -0.74000001 82 16 0
2.4230001 -0.315 -0.736 81 16 0
2.437 -0.31299999 -0.73299998 77 16 0
2.4400001 -0.30899999 -0.72600001 42 16 0
2.4449999 -0.30599999 -0.72100002 34 16 0
2.4579999 -0.30399999 -0.71700001 40 16 0
2.4679999 -0.301 -0.713 38 16 0
2.48 -0.29800001 -0.70899999 38 16 0
2.484 -0.29499999 -0.70300001 43 16 0
2.4949999 -0.292 -0.699 38 16 0
2.5 -0.289 -0.69300002 39 16 0
2.513 -0.28600001 -0.68900001 36 16 0
2.5209999 -0.28299999 -0.68300003 36 16 0
2.5250001 -0.27900001 -0.67699999 34 16 0
2.5380001 -0.27700001 -0.67299998 33 16 0
2.549 -0.27399999 -0.66799998 34 16 0
2.553 -0.271 -0.662 34 16 0
2.563 -0.26800001 -0.65700001 34 16 0
2.5710001 -0.264 -0.65100002 34 16 0
2.5780001 -0.26100001 -0.64499998 34 16 0
2.5910001 -0.259 -0.63999999 33 16 0
2.596 -0.255 -0.634 35 16 0
2.612 -0.25299999 -0.63 35 16 0
2.619 -0.25 -0.62400001 34 16 0
2.6289999 -0.24699999 -0.61799997 35 16 0
2.6389999 -0.244 -0.61299998 36 16 0
2.6459999 -0.23999999 -0.60600001 33 16 0
2.6559999 -0.237 -0.60100001 34 16 0
2.6619999 -0.234 -0.59399998 32 16 0
2.674 -0.23100001 -0.58899999 32 16 0
2.6800001 -0.228 -0.58200002 31 16 0
2.6849999 -0.22499999 -0.57499999 32 16 0
2.691 -0.221 -0.56800002 30 16 0
2.7060001 -0.219 -0.56300002 31 16 0
2.7149999 -0.21600001 -0.55699998 30 16 0
2.724 -0.212 -0.55000001 32 16 0
2.7290001 -0.20900001 -0.54299998 30 16 0
2.74 -0.206 -0.537 29 16 0
2.7490001 -0.20299999 -0.53100002 30 16 0
2.7620001 -0.2 -0.52499998 29 16 0
2.7679999 -0.197 -0.51700002 30 16 0
2.7809999 -0.19400001 -0.51200002 29 16 0
2.7939999 -0.191 -0.505 31 16 0
2.7980001 -0.18799999 -0.498 30 16 0
2.809 -0.185 -0.491 28 16 0
2.819 -0.182 -0.48500001 30 16 0
2.8269999 -0.178 -0.477 28 16 0
2.836 -0.175 -0.47 29 16 0
2.8499999 -0.17200001 -0.46399999 29 16 0
2.8529999 -0.169 -0.456 30 16 0
2.869 -0.16599999 -0.44999999 30 16 0
2.878 -0.163 -0.442 30 16 0
2.8859999 -0.16 -0.435 30 16 0
2.898 -0.15700001 -0.428 30 16 0
2.9089999 -0.154 -0.421 29 16 0
2.9200001 -0.15000001 -0.414 30 16 0
2.928 -0.147 -0.40599999 29 16 0
2.9400001 -0.14399999 -0.39899999 30 16 0
2.951 -0.141 -0.391 30 16 0
2.957 -0.138 -0.38299999 30 16 0
2.9660001 -0.134 -0.375 30 16 0
2.977 -0.131 -0.36700001 28 16 0
2.983 -0.12800001 -0.359 28 16 0
3.0009999 -0.125 -0.352 30 16 0
3.0150001 -0.122 -0.345 30 16 0
3.023 -0.119 -0.336 31 16 0
3.0369999 -0.116 -0.32800001 30 16 0
3.0409999 -0.112 -0.31999999 30 16 0
3.0580001 -0.109 -0.31200001 30 16 0
3.0680001 -0.106 -0.30399999 31 16 0
3.0799999 -0.103 -0.296 30 16 0
3.0869999 -0.1 -0.287 30 16 0
3.096 -0.096000001 -0.278 29 16 0
3.109 -0.093000002 -0.27000001 31 16 0
3.1199999 -0.090000004 -0.26199999 28 16 0
3.131 -0.086999997 -0.25299999 28 16 0
3.141 -0.082999997 -0.244 29 16 0
3.154 -0.079999998 -0.235 31 16 0
3.1630001 -0.077 -0.226 36 16 0
3.171 -0.074000001 -0.21699999 60 16 0
3.1760001 -0.07 -0.208 150 16 0
3.1849999 -0.067000002 -0.199 150 16 0
3.1889999 -0.064000003 -0.189 150 16 0
3.1900001 -0.059999999 -0.18000001 150 16 0
3.194 -0.057 -0.17 150 16 0
3.1960001 -0.052999999 -0.16 150 16 0
3.198 -0.050000001 -0.15099999 150 16 0
3.204 -0.046999998 -0.141 150 16 0
3.204 -0.043000001 -0.131 150 16 0
3.207 -0.039999999 -0.122 150 16 0
3.2079999 -0.037 -0.112 150 16 0
3.2090001 -0.033 -0.102 150 16 0
3.2090001 -0.029999999 -0.092 150 16 0
3.2160001 -0.027000001 -0.082999997 150 16 0
3.2190001 -0.023 -0.072999999 150 16 0
3.221 -0.02 -0.063000001 109 16 0
3.2309999 -0.017000001 -0.052999999 52 16 0
3.2290001 -0.014 -0.043000001 36 16 0
3.2379999 -0.0099999998 -0.033 26 16 0
3.247 -0.0070000002 -0.023 21 16 0
3.2609999 -0.0040000002 -0.013 19 16 0
3.2709999 -0.001 -0.003 19 16 0
3.289 0.001 0.0060000001 19 16 0
3.2920001 0.0049999999 0.016000001 20 16 0
3.3080001 0.0080000004 0.026000001 20 16 0
3.3169999 0.011 0.037 20 16 0
3.326 0.014 0.046999998 21 16 0
3.3410001 0.017999999 0.057999998 22 16 0
3.3529999 0.021 0.068000004 26 16 0
3.352 0.024 0.078000002 40 16 0
3.3410001 0.027000001 0.089000002 39 16 0
3.3150001 0.029999999 0.097999997 33 16 0
3.2980001 0.033 0.108 35 16 0
3.276 0.035999998 0.117 83 16 0
3.2720001 0.039000001 0.127 150 16 0
3.277 0.041999999 0.138 150 16 0
3.2809999 0.045000002 0.148 150 16 0
3.2809999 0.048 0.15800001 150 16 0
3.289 0.050999999 0.169 150 16 0
3.29 0.054000001 0.17900001 150 16 0
3.2920001 0.057 0.19 150 16 0
3.29 0.059999999 0.2 150 16 0
3.2969999 0.063000001 0.20999999 150 16 0
3.296 0.066 0.221 150 16 0
3.303 0.068000004 0.23100001 150 16 0
3.3069999 0.071000002 0.242 150 16 0
3.3080001 0.074000001 0.25299999 150 16 0
3.3169999 0.077 0.264 150 16 0
3.316 0.079999998 0.27399999 150 16 0
3.319 0.082999997 0.285 150 16 0
3.325 0.086000003 0.296 150 16 0
3.3239999 0.089000002 0.30599999 150 16 0
3.3329999 0.092 0.317 150 16 0
3.3299999 0.093999997 0.32800001 150 16 0
3.3340001 0.097000003 0.338 150 16 0
3.339 0.1 0.34999999 150 16 0
3.3399999 0.103 0.36000001 125 16 0
3.3210001 0.105 0.36899999 41 16 0
3.2980001 0.107 0.377 39 16 0
3.2809999 0.109 0.38499999 37 16 0
3.2650001 0.111 0.39399999 37 16 0
3.247 0.113 0.40200001 38 16 0
3.2279999 0.114 0.41 37 16 0
3.2090001 0.116 0.417 37 16 0
3.1930001 0.118 0.426 38 16 0
3.174 0.12 0.433 38 16 0
3.155 0.121 0.44100001 45 16 0
3.1389999 0.123 0.44800001 44 16 0
3.118 0.124 0.45500001 41 16 0
3.099 0.126 0.46200001 40 16 0
3.0869999 0.12800001 0.47099999 43 16 0
3.0710001 0.12899999 0.47799999 41 16 0
3.049 0.131 0.484 43 16 0
3.033 0.132 0.49200001 43 16 0
3.02 0.133 0.49900001 43 16 0
3.007 0.13500001 0.50700003 44 16 0
2.987 0.13600001 0.51300001 43 16 0
2.973 0.138 0.51999998 43 16 0
2.96 0.139 0.52700001 43 16 0
2.9389999 0.14 0.53299999 45 16 0
2.928 0.141 0.54100001 45 16 0
2.9159999 0.14300001 0.54799998 43 16 0
2.8959999 0.14399999 0.55400002 44 16 0
2.882 0.145 0.56 41 16 0
2.8640001 0.146 0.56599998 41 16 0
2.848 0.147 0.57200003 81 16 0
2.839 0.148 0.57999998 80 16 0
2.822 0.149 0.58499998 84 16 0
2.8099999 0.15000001 0.59200001 96 16 0
2.7909999 0.15099999 0.597 126 16 0
2.78 0.152 0.60399997 99 16 0
2.7679999 0.153 0.61000001 103 16 0
2.753 0.153 0.616 98 16 0
2.743 0.154 0.62300003 103 16 0
2.7290001 0.155 0.62900001 100 16 0
2.714 0.156 0.634 96 16 0
2.6949999 0.156 0.639 99 16 0
2.688 0.15700001 0.64600003 112 16 0
2.6800001 0.15800001 0.653 112 16 0
2.6719999 0.15899999 0.65899998 124 16 0
2.6559999 0.16 0.66399997 118 16 0
2.6440001 0.16 0.67000002 114 16 0
2.6289999 0.161 0.67500001 124 16 0
2.6210001 0.161 0.68199998 109 16 0
2.599 0.161 0.68400002 116 16 0
2.5910001 0.162 0.69099998 117 16 0
2.5780001 0.163 0.69599998 111 16 0
2.5680001 0.163 0.70200002 113 16 0
2.553 0.163 0.70700002 120 16 0
2.5420001 0.164 0.71200001 114 16 0
2.5309999 0.164 0.71700001 120 16 0
2.5190001 0.16500001 0.722 121 16 0
2.5079999 0.16500001 0.72799999 135 16 0
2.4990001 0.16500001 0.73299998 119 16 0
2.483 0.16500001 0.73699999 125 16 0
2.4749999 0.16599999 0.74299997 123 16 0
2.4630001 0.16599999 0.74699998 126 16 0
2.447 0.16599999 0.75099999 127 16 0
2.437 0.16599999 0.75599998 131 16 0
2.428 0.16599999 0.76200002 128 16 0
2.415 0.16599999 0.76499999 131 16 0
2.4100001 0.167 0.77200001 141 16 0
2.395 0.167 0.77499998 137 16 0
2.3870001 0.167 0.78100002 146 16 0
2.381 0.167 0.787 143 16 0
2.368 0.167 0.79100001 135 16 0
2.358 0.167 0.79500002 132 16 0
2.3440001 0.167 0.79799998 119 16 0
2.3410001 0.167 0.80500001 132 16 0
2.325 0.167 0.80800003 144 16 0
2.3199999 0.167 0.81400001 133 16 0
2.3080001 0.167 0.81800002 150 16 0
2.2939999 0.16599999 0.81999999 150 16 0
2.2869999 0.16599999 0.82599998 150 16 0
2.276 0.16599999 0.829 150 16 0
2.2720001 0.16599999 0.83600003 150 16 0
2.2550001 0.16500001 0.83700001 150 16 0
2.243 0.16500001 0.83999997 150 16 0
2.2379999 0.16500001 0.84600002 150 16 0
2.2290001 0.164 0.85000002 150 16 0
2.221 0.164 0.85500002 150 16 0
2.2130001 0.164 0.85900003 150 16 0
2.201 0.163 0.86199999 150 16 0
2.1930001 0.163 0.866 150 16 0
2.1849999 0.162 0.87 150 16 0
2.1719999 0.162 0.87300003 150 16 0
2.165 0.161 0.87699997 150 16 0
2.1589999 0.161 0.88200003 150 16 0
2.1459999 0.16 0.884 150 16 0
2.1400001 0.16 0.889 150 16 0
2.1300001 0.15899999 0.89200002 150 16 0
2.1270001 0.15899999 0.898 150 16 0
2.1159999 0.15800001 0.90100002 150 16 0
2.1040001 0.15700001 0.903 150 16 0
2.099 0.15700001 0.90799999 150 16 0
2.086 0.156 0.90899998 150 16 0
2.0840001 0.156 0.91500002 150 16 0
2.076 0.155 0.91900003 150 16 0
2.069 0.154 0.92299998 150 16 0
2.0599999 0.153 0.926 150 16 0
2.0550001 0.153 0.93099999 150 16 0
2.0439999 0.152 0.93300003 150 16 0
2.039 0.15099999 0.93699998 150 16 0
2.0280001 0.15000001 0.93900001 150 16 0
2.0209999 0.149 0.94300002 150 16 0
2.0139999 0.149 0.94599998 150 16 0
1.997 0.147 0.94499999 150 16 0
1.995 0.146 0.94999999 150 16 0
1.985 0.145 0.95200002 150 16 0
1.982 0.145 0.958 150 16 0
1.978 0.14399999 0.96200001 150 16 0
1.969 0.14300001 0.96399999 150 16 0
1.9630001 0.142 0.96799999 150 16 0
1.955 0.141 0.97100002 150 16 0
1.943 0.139 0.97100002 150 16 0
1.9400001 0.138 0.97600001 150 16 0
1.932 0.13699999 0.97799999 150 16 0
1.925 0.13600001 0.98100001 150 16 0
1.919 0.13500001 0.98400003 150 16 0
1.911 0.134 0.986 150 16 0
1.905 0.133 0.99000001 150 16 0
1.9 0.131 0.99299997 150 16 0
1.8940001 0.13 0.99599999 150 16 0
1.882 0.12899999 0.99599999 150 16 0
1.88 0.12800001 1.001 150 16 0
1.872 0.126 1.002 150 16 0
1.863 0.125 1.0039999 150 16 0
1.859 0.124 1.007 150 16 0
1.851 0.122 1.0089999 150 16 0
1.847 0.121 1.012 150 16 0
1.84 0.12 1.0140001 150 16 0
1.836 0.118 1.018 150 16 0
1.83 0.117 1.02 150 16 0
1.824 0.115 1.023 150 16 0
1.817 0.114 1.024 150 16 0
1.812 0.112 1.027 150 16 0
1.8049999 0.111 1.028 150 16 0
1.802 0.109 1.0319999 150 16 0
1.796 0.108 1.034 150 16 0
1.791 0.106 1.0369999 150 16 0
1.773 0.104 1.031 150 18 0
1.7690001 0.103 1.035 150 16 0
1.763 0.101 1.036 150 16 0
1.761 0.1 1.04 150 16 0
1.757 0.097999997 1.0420001 150 16 0
1.7539999 0.096000001 1.046 150 16 0
1.75 0.094999999 1.048 150 16 0
1.748 0.093000002 1.052 150 16 0
1.742 0.092 1.053 150 16 0
1.737 0.090000004 1.0549999 150 16 0
1.733 0.088 1.057 150 16 0
1.727 0.086000003 1.058 150 16 0
1.722 0.085000001 1.0599999 150 16 0
1.719 0.082999997 1.062 150 16 0
1.714 0.081 1.064 150 16 0
1.706 0.079000004 1.064 150 16 0
1.706 0.078000002 1.068 150 16 0
1.702 0.075999998 1.069 150 16 0
1.698 0.074000001 1.071 150 16 0
1.693 0.071999997 1.072 150 16 0
1.6900001 0.07 1.075 150 16 0
1.683 0.068000004 1.074 150 16 0
1.678 0.066 1.075 150 16 0
1.682 0.064999998 1.081 150 16 0
1.6720001 0.061999999 1.079 150 16 0
1.673 0.061000001 1.0829999 150 16 0
1.6720001 0.059 1.086 150 16 0
1.666 0.057 1.086 150 16 0
1.663 0.055 1.0880001 150 16 0
1.6619999 0.052999999 1.09 150 16 0
1.656 0.050999999 1.09 150 16 0
1.646 0.048999999 1.087 150 16 0
1.646 0.046999998 1.09 150 16 0
1.643 0.045000002 1.092 150 16 0
1.64 0.043000001 1.0930001 150 16 0
1.6390001 0.041000001 1.095 150 16 0
1.631 0.037999999 1.092 150 16 0
1.631 0.035999998 1.096 150 16 0
1.628 0.034000002 1.096 150 16 0
1.627 0.032000002 1.098 150 16 0
1.626 0.029999999 1.1 150 16 0
1.623 0.028000001 1.101 150 16 0
1.622 0.026000001 1.103 150 16 0
1.619 0.024 1.103 150 16 0
1.618 0.022 1.105 150 16 0
1.615 0.02 1.105 150 16 0
1.6109999 0.017000001 1.105 150 16 0
1.608 0.015 1.105 150 16 0
1.609 0.013 1.107 150 16 0
1.608 0.011 1.109 150 16 0
1.607 0.0089999996 1.11 150 16 0
1.604 0.0060000001 1.11 150 16 0
1.604 0.0040000002 1.1109999 150 16 0
1.602 0.0020000001 1.112 150 16 0
1.599 0 1.1109999 150 16 0
1.599 -0.001 1.113 150 16 0
1.601 -0.0040000002 1.115 150 16 0
1.602 -0.0060000001 1.117 150 16 0
1.6 -0.0080000004 1.117 139 16 0
1.599 -0.0099999998 1.118 143 16 0
1.6 -0.013 1.12 149 16 0
1.598 -0.015 1.119 150 16 0
1.595 -0.017000001 1.118 150 16 0
1.595 -0.018999999 1.119 150 16 0
1.5930001 -0.022 1.118 150 16 0
1.59 -0.024 1.1160001 150 16 0
1.59 -0.026000001 1.117 150 16 0
1.589 -0.028000001 1.117 150 16 0
1.5880001 -0.030999999 1.1160001 150 16 0
1.589 -0.033 1.117 150 16 0
1.589 -0.035 1.118 150 16 0
1.589 -0.037 1.118 150 16 0
1.589 -0.039999999 1.118 150 16 0
1.5880001 -0.041999999 1.117 150 16 0
1.591 -0.044 1.118 150 16 0
1.589 -0.046 1.117 150 16 0
1.59 -0.048999999 1.117 150 16 0
1.591 -0.050999999 1.118 150 16 0
1.591 -0.052999999 1.117 150 16 0
1.589 -0.055 1.115 150 16 0
1.59 -0.057 1.115 150 16 0
1.592 -0.059999999 1.115 150 16 0
1.5930001 -0.061999999 1.115 150 16 0
1.595 -0.064000003 1.1160001 150 16 0
1.595 -0.066 1.115 150 16 0
1.594 -0.068999998 1.113 150 16 0
1.596 -0.071000002 1.113 150 16 0
1.597 -0.072999999 1.112 150 16 0
1.602 -0.075000003 1.115 150 16 0
1.598 -0.077 1.11 150 16 0
1.602 -0.079999998 1.1109999 150 16 0
1.604 -0.082000002 1.1109999 150 16 0
1.605 -0.083999999 1.11 150 16 0
1.607 -0.086000003 1.11 150 16 0
1.608 -0.088 1.108 150 16 0
1.609 -0.090000004 1.107 150 16 0
1.6109999 -0.092 1.1059999 150 16 0
1.6109999 -0.093999997 1.104 150 16 0
1.612 -0.097000003 1.102 150 16 0
1.613 -0.098999999 1.101 150 16 0
1.619 -0.101 1.102 150 16 0
1.622 -0.103 1.102 150 16 0
1.624 -0.105 1.101 150 16 0
1.626 -0.107 1.099 150 16 0
1.632 -0.109 1.101 150 16 0
1.64 -0.112 1.104 150 16 0
1.6440001 -0.114 1.103 150 16 0
1.646 -0.116 1.102 150 16 0
1.647 -0.118 1.099 150 16 0
1.653 -0.12 1.1 146 16 0
1.654 -0.122 1.097 150 16 0
1.6569999 -0.124 1.096 150 16 0
1.661 -0.126 1.096 150 16 0
1.658 -0.127 1.09 150 16 0
1.659 -0.12899999 1.0880001 150 16 0
1.663 -0.131 1.086 150 16 0
1.669 -0.133 1.087 150 16 0
1.673 -0.13500001 1.086 150 16 0
1.675 -0.13699999 1.0829999 150 16 0
1.679 -0.139 1.082 150 16 0
1.682 -0.141 1.08 150 16 0
1.683 -0.142 1.077 150 16 0
1.689 -0.14399999 1.077 150 16 0
1.6950001 -0.146 1.076 150 16 0
1.698 -0.148 1.074 150 16 0
1.707 -0.15000001 1.076 150 16 0
1.707 -0.152 1.071 150 16 0
1.712 -0.153 1.0700001 150 16 0
1.7130001 -0.155 1.066 150 16 0
1.721 -0.15700001 1.067 150 16 0
1.724 -0.15899999 1.064 150 16 0
1.727 -0.16 1.061 150 16 0
1.732 -0.162 1.0599999 150 16 0
1.737 -0.163 1.058 150 16 0
1.7410001 -0.16500001 1.0549999 150 16 0
1.744 -0.16599999 1.053 150 16 0
1.749 -0.168 1.051 150 16 0
1.751 -0.169 1.0470001 150 16 0
1.755 -0.171 1.044 150 16 0
1.76 -0.17200001 1.0420001 150 16 0
1.763 -0.17399999 1.039 150 16 0
1.781 -0.176 1.044 150 18 0
1.783 -0.178 1.04 150 16 0
1.79 -0.17900001 1.039 150 16 0
1.789 -0.18000001 1.034 150 16 0
1.8 -0.182 1.034 150 16 0
1.809 -0.184 1.034 150 16 0
1.813 -0.185 1.031 150 16 0
1.817 -0.186 1.028 150 16 0
1.824 -0.18799999 1.026 150 16 0
1.83 -0.189 1.024 150 16 0
1.836 -0.19 1.021 150 16 0
1.8430001 -0.192 1.02 150 16 0
1.846 -0.193 1.015 150 16 0
1.854 -0.19400001 1.0140001 150 16 0
1.8609999 -0.19599999 1.012 150 16 0
1.865 -0.197 1.008 150 16 0
1.877 -0.198 1.0089999 150 16 0
1.881 -0.199 1.005 150 16 0
1.892 -0.20100001 1.0039999 150 16 0
1.9 -0.20200001 1.003 150 16 0
1.905 -0.20299999 0.99900001 150 16 0
1.908 -0.204 0.995 150 16 0
1.9170001 -0.205 0.99299997 150 16 0
1.921 -0.206 0.98900002 150 16 0
1.929 -0.207 0.98699999 150 16 0
1.939 -0.208 0.986 150 16 0
1.946 -0.20900001 0.98299998 150 16 0
1.951 -0.20999999 0.97799999 150 16 0
1.962 -0.212 0.97799999 150 16 0
1.965 -0.212 0.972 150 16 0
1.973 -0.213 0.97000003 150 16 0
1.98 -0.214 0.96700001 150 16 0
1.982 -0.214 0.96100003 150 16 0
1.992 -0.215 0.95899999 148 16 0
2.0109999 -0.21699999 0.96200001 148 16 0
2.0190001 -0.21799999 0.95899999 139 16 0
2.023 -0.21799999 0.954 146 16 0
2.029 -0.219 0.94999999 138 16 0
2.0369999 -0.22 0.94700003 144 16 0
2.0339999 -0.219 0.93900001 150 16 0
2.043 -0.22 0.93599999 140 16 0
2.0550001 -0.221 0.935 150 16 0
2.0580001 -0.221 0.92900002 132 16 0
2.0710001 -0.222 0.92799997 150 16 0
2.0780001 -0.223 0.92400002 130 16 0
2.0869999 -0.223 0.921 136 16 0
2.096 -0.22400001 0.91799998 150 16 0
2.102 -0.22400001 0.91299999 150 16 0
2.1070001 -0.22400001 0.90799999 141 16 0
2.115 -0.22499999 0.90499997 126 16 0
2.128 -0.226 0.903 146 16 0
2.138 -0.226 0.89999998 150 16 0
2.141 -0.226 0.89399999 137 16 0
2.151 -0.226 0.89099997 137 16 0
2.1570001 -0.226 0.88599998 139 16 0
2.168 -0.227 0.88300002 146 16 0
2.1760001 -0.227 0.87900001 127 16 0
2.1900001 -0.228 0.87699997 128 16 0
2.1960001 -0.228 0.87199998 140 16 0
2.2049999 -0.228 0.86799997 130 16 0
2.214 -0.228 0.86400002 123 16 0
2.224 -0.228 0.861 114 16 0
2.2320001 -0.228 0.85600001 117 16 0
2.2460001 -0.229 0.85399997 136 16 0
2.2520001 -0.229 0.84799999 92 16 0
2.2620001 -0.229 0.84500003 93 16 0
2.2690001 -0.229 0.83999997 89 16 0
2.276 -0.228 0.83499998 94 16 0
2.2909999 -0.229 0.83200002 87 16 0
2.299 -0.229 0.82700002 84 16 0
2.309 -0.229 0.82300001 85 16 0
2.325 -0.229 0.82099998 79 16 0
2.3299999 -0.229 0.815 88 16 0
2.339 -0.228 0.81 87 16 0
2.3540001 -0.229 0.80699998 90 16 0
2.359 -0.228 0.801 83 16 0
2.368 -0.227 0.796 77 16 0
2.3789999 -0.227 0.792 84 16 0
2.3889999 -0.227 0.787 79 16 0
2.3989999 -0.227 0.78299999 75 16 0
2.4089999 -0.226 0.778 82 16 0
2.4230001 -0.226 0.77399999 78 16 0
2.4330001 -0.226 0.76899999 55 16 0
2.441 -0.22499999 0.764 57 16 0
2.45 -0.22400001 0.75800002 56 16 0
2.461 -0.22400001 0.75300002 53 16 0
2.473 -0.223 0.74900001 50 16 0
2.4860001 -0.223 0.745 50 16 0
2.5 -0.223 0.74000001 49 16 0
2.5020001 -0.221 0.73299998 54 16 0
2.517 -0.221 0.72899997 37 16 0
2.5250001 -0.22 0.72299999 29 16 0
2.54 -0.22 0.71799999 30 16 0
2.5539999 -0.219 0.71399999 35 16 0
2.562 -0.21799999 0.708 36 16 0
2.575 -0.21699999 0.70300001 45 16 0
2.586 -0.21699999 0.69800001 37 16 0
2.5940001 -0.215 0.69099998 49 16 0
2.6110001 -0.215 0.68699998 52 16 0
2.618 -0.214 0.68000001 45 16 0
2.6370001 -0.213 0.676 45 16 0
2.6440001 -0.212 0.67000002 45 16 0
2.6589999 -0.211 0.66500002 38 16 0
2.674 -0.20999999 0.66000003 36 16 0
2.677 -0.208 0.65200001 38 16 0
2.697 -0.208 0.648 35 16 0
2.7079999 -0.207 0.64200002 35 16 0
2.72 -0.205 0.63599998 35 16 0
2.733 -0.204 0.63 33 16 0
2.7509999 -0.20299999 0.625 35 16 0
2.7650001 -0.20200001 0.61900002 29 16 0
2.7690001 -0.2 0.611 30 16 0
2.7909999 -0.2 0.60699999 30 16 0
2.8 -0.198 0.60000002 29 16 0
2.8139999 -0.197 0.59399998 29 16 0
2.8299999 -0.19499999 0.588 28 16 0
2.8429999 -0.19400001 0.58200002 29 16 0
2.8540001 -0.192 0.57499999 29 16 0
2.8759999 -0.191 0.56999999 30 16 0
2.8859999 -0.189 0.56300002 29 16 0
2.8970001 -0.18799999 0.55599999 27 16 0
2.9130001 -0.186 0.55000001 28 16 0
2.9289999 -0.185 0.54299998 29 16 0
2.9389999 -0.183 0.53600001 29 16 0
2.957 -0.18099999 0.52999997 29 16 0
2.974 -0.17900001 0.523 31 16 0
2.9849999 -0.177 0.51599997 29 16 0
3.0039999 -0.176 0.509 31 16 0
3.02 -0.17399999 0.50300002 29 16 0
3.0380001 -0.17200001 0.49599999 29 16 0
3.053 -0.17 0.48899999 30 16 0
3.0669999 -0.168 0.48100001 28 16 0
3.085 -0.16599999 0.47400001 29 16 0
3.1029999 -0.164 0.46700001 29 16 0
3.119 -0.162 0.46000001 30 16 0
3.1389999 -0.16 0.45300001 30 16 0
3.1589999 -0.15800001 0.44600001 29 16 0
3.174 -0.156 0.43799999 31 16 0
3.191 -0.154 0.43000001 32 16 0
3.211 -0.15099999 0.42300001 33 16 0
3.2279999 -0.149 0.41499999 33 16 0
3.2420001 -0.146 0.40700001 39 16 0
3.2590001 -0.14399999 0.39899999 37 16 0
3.266 -0.141 0.38999999 31 16 0
3.27 -0.138 0.38 26 16 0
3.273 -0.13500001 0.37 25 16 0
3.277 -0.131 0.361 26 16 0
3.2780001 -0.12800001 0.34999999 26 16 0
3.2809999 -0.125 0.34099999 26 16 0
3.293 -0.122 0.33199999 26 16 0
3.2909999 -0.118 0.32100001 26 16 0
3.296 -0.115 0.31200001 26 16 0
3.299 -0.112 0.30199999 26 16 0
3.3010001 -0.108 0.292 26 16 0
3.3110001 -0.105 0.28200001 24 16 0
3.3139999 -0.102 0.27200001 23 16 0
3.3150001 -0.097999997 0.26199999 23 16 0
3.3169999 -0.094999999 0.252 24 16 0
3.3199999 -0.090999998 0.242 24 16 0
3.322 -0.088 0.23199999 24 16 0
3.325 -0.083999999 0.222 23 16 0
3.332 -0.081 0.213 24 16 0
3.335 -0.077 0.20299999 24 16 0
3.3380001 -0.072999999 0.193 26 16 0
3.348 -0.07 0.183 37 16 0
3.3410001 -0.066 0.17200001 53 16 0
3.336 -0.061999999 0.162 96 16 0
3.332 -0.057999998 0.152 117 16 0
3.3199999 -0.054000001 0.141 71 16 0
3.3169999 -0.050999999 0.131 76 16 0
3.312 -0.046999998 0.121 78 16 0
3.3039999 -0.043000001 0.11 67 16 0
3.2980001 -0.039000001 0.1 70 16 0
3.2909999 -0.035 0.090000004 75 16 0
3.2820001 -0.030999999 0.079999998 84 16 0
3.276 -0.027000001 0.07 85 16 0
3.273 -0.023 0.059999999 68 16 0
3.2679999 -0.018999999 0.050000001 41 16 0
3.263 -0.016000001 0.039999999 25 16 0
3.2639999 -0.012 0.029999999 19 16 0
3.27 -0.0080000004 0.02 15 16 0
3.277 -0.0040000002 0.0099999998 15 16 0
3.2820001 0 0.001 16 16 0
3.2820001 0.003 -0.0080000004 15 16 0
3.2820001 0.0070000002 -0.017999999 15 16 0
3.296 0.011 -0.028000001 16 16 0
3.2969999 0.015 -0.037999999 17 16 0
3.3080001 0.018999999 -0.048 22 16 0
3.3050001 0.023 -0.057999998 32 16 0
3.296 0.027000001 -0.068000004 39 16 0
3.289 0.030999999 -0.077 47 16 0
3.2820001 0.035 -0.086999997 47 16 0
3.277 0.039000001 -0.096000001 49 16 0
3.266 0.043000001 -0.106 43 16 0
3.2679999 0.048 -0.116 39 16 0
3.2620001 0.052000001 -0.125 33 16 0
3.2550001 0.056000002 -0.13500001 34 16 0
3.2490001 0.059999999 -0.14399999 42 16 0
3.2390001 0.064000003 -0.153 48 16 0
3.2360001 0.068000004 -0.163 48 16 0
3.2309999 0.071999997 -0.17200001 52 16 0
3.227 0.075999998 -0.18099999 57 16 0
3.2149999 0.079999998 -0.19 60 16 0
3.2130001 0.083999999 -0.2 58 16 0
3.201 0.088 -0.20900001 56 16 0
3.2 0.092 -0.21799999 52 16 0
3.1900001 0.096000001 -0.227 65 16 0
3.1830001 0.1 -0.236 63 16 0
3.1789999 0.105 -0.245 62 16 0
3.1719999 0.109 -0.25400001 64 16 0
3.161 0.112 -0.26199999 59 16 0
3.1600001 0.117 -0.271 62 16 0
3.1559999 0.121 -0.28 66 16 0
3.1429999 0.125 -0.28799999 48 16 0
3.1389999 0.12899999 -0.29699999 50 16 0
3.132 0.133 -0.30599999 59 16 0
3.1270001 0.13699999 -0.315 60 16 0
3.122 0.141 -0.32300001 62 16 0
3.112 0.145 -0.33199999 67 16 0
3.1099999 0.149 -0.34 64 16 0
3.1059999 0.154 -0.34900001 75 16 0
3.102 0.15800001 -0.35800001 61 16 0
3.0910001 0.162 -0.366 64 16 0
3.0869999 0.16599999 -0.37400001 66 16 0
3.0769999 0.17 -0.382 69 16 0
3.073 0.17399999 -0.391 85 16 0
3.0650001 0.178 -0.39899999 82 16 0
3.059 0.182 -0.40700001 89 16 0
3.0539999 0.186 -0.41499999 80 16 0
3.049 0.191 -0.42300001 97 16 0
3.0439999 0.19499999 -0.43200001 91 16 0
3.0350001 0.199 -0.43900001 73 16 0
3.0320001 0.20299999 -0.44800001 90 16 0
3.0250001 0.207 -0.456 85 16 0
3.013 0.211 -0.46200001 72 16 0
3.0109999 0.215 -0.47099999 76 16 0
3.01 0.22 -0.47999999 90 16 0
3.0020001 0.22400001 -0.48699999 76 16 0
2.997 0.228 -0.495 82 16 0
2.993 0.23199999 -0.50300002 82 16 0
2.9849999 0.236 -0.51099998 82 16 0
2.9820001 0.241 -0.51899999 97 16 0
2.977 0.245 -0.52700001 92 16 0
2.967 0.249 -0.53299999 89 16 0
2.9649999 0.25299999 -0.542 81 16 0
2.9560001 0.257 -0.54900002 86 16 0
2.948 0.26100001 -0.55599999 89 16 0
2.9430001 0.26499999 -0.56300002 108 16 0
2.9419999 0.27000001 -0.57200003 116 16 0
2.934 0.27399999 -0.579 123 16 0
2.9289999 0.278 -0.58600003 114 16 0
2.9289999 0.28299999 -0.59500003 122 16 0
2.921 0.287 -0.602 125 16 0
2.915 0.29100001 -0.60900003 129 16 0
2.901 0.29499999 -0.61400002 143 16 0
2.8940001 0.29899999 -0.62099999 119 16 0
2.8889999 0.303 -0.62800002 129 16 0
2.8840001 0.30700001 -0.63599998 128 16 0
2.882 0.31200001 -0.64399999 122 16 0
2.8759999 0.31600001 -0.65100002 121 16 0
2.872 0.31999999 -0.65799999 127 16 0
2.865 0.32499999 -0.66500002 125 16 0
2.8629999 0.329 -0.67199999 124 16 0
2.859 0.33399999 -0.67900002 136 16 0
2.8529999 0.338 -0.68599999 126 16 0
2.845 0.34200001 -0.69300002 117 16 0
2.8380001 0.34599999 -0.699 133 16 0
2.8380001 0.35100001 -0.70700002 132 16 0
2.826 0.35499999 -0.71200001 139 16 0
2.8210001 0.359 -0.71899998 139 16 0
2.813 0.36300001 -0.72500002 148 16 0
2.8099999 0.368 -0.73199999 121 16 0
2.8080001 0.37200001 -0.74000001 145 16 0
2.7980001 0.37599999 -0.745 145 16 0
2.7950001 0.38100001 -0.75199997 145 16 0
2.7920001 0.38600001 -0.75999999 146 16 0
2.7850001 0.38999999 -0.76499999 150 16 0
2.783 0.39399999 -0.773 141 16 0
2.7780001 0.39899999 -0.77899998 143 16 0
2.7690001 0.403 -0.78500003 150 16 0
2.7679999 0.40799999 -0.792 143 16 0
2.766 0.41299999 -0.79900002 135 16 0
2.7509999 0.41600001 -0.80299997 139 16 0
2.7460001 0.41999999 -0.80900002 150 16 0
2.743 0.42500001 -0.81599998 150 16 0
2.7390001 0.43000001 -0.82300001 146 16 0
2.73 0.433 -0.82700002 150 16 0
2.727 0.43799999 -0.83399999 150 16 0
2.724 0.44299999 -0.84100002 145 16 0
2.72 0.447 -0.847 150 16 0
2.7119999 0.45199999 -0.852 150 16 0
2.7090001 0.456 -0.85900003 150 16 0
2.7049999 0.461 -0.86500001 150 16 0
2.701 0.46599999 -0.87099999 150 16 0
2.6889999 0.46900001 -0.875 150 16 0
2.6860001 0.47400001 -0.88099998 150 16 0
2.6830001 0.479 -0.88800001 150 16 0
2.678 0.48300001 -0.89300001 150 16 0
2.671 0.48699999 -0.898 150 16 0
2.6689999 0.49200001 -0.90499997 150 16 0
2.664 0.49700001 -0.91100001 150 16 0
2.661 0.50199997 -0.917 150 16 0
2.6559999 0.50599998 -0.92199999 150 16 0
2.652 0.51099998 -0.92799997 139 16 0
2.6489999 0.51599997 -0.93400002 19 16 0
2.652 0.52200001 -0.94199997 3 16 0
0 0 0 0 16 0
2.7119999 0.54500002 -0.97799999 0 18 0
2.71 0.551 -0.98500001 0 16 0
2.687 0.55199999 -0.98400003 0 16 0
0 0 0 0 16 0
0 0 0 0 16 0
0 0 0 0 16 0
0 0 0 0 16 0
0 0 0 0 16 0
0 0 0 0 16 0
0 0 0 0 16 0
0 0 0 0 16 0
2.5880001 0.58200002 -1.008 1 16 0
2.582 0.58600003 -1.012 17 16 0
2.5739999 0.58999997 -1.016 91 16 0
2.562 0.59299999 -1.018 150 16 0
2.559 0.59799999 -1.023 150 16 0
2.5539999 0.60299999 -1.028 150 16 0
2.549 0.60699999 -1.0319999 150 16 0
2.546 0.61199999 -1.0369999 150 16 0
2.543 0.61699998 -1.0420001 150 16 0
2.536 0.62099999 -1.045 150 16 0
2.5320001 0.62599999 -1.05 150 16 0
2.53 0.63200003 -1.056 150 16 0
2.526 0.63599998 -1.0599999 150 16 0
2.523 0.64099997 -1.0650001 150 16 0
2.516 0.64499998 -1.068 150 16 0
2.5090001 0.64899999 -1.071 150 16 0
2.513 0.65600002 -1.079 150 16 0
2.5020001 0.66000003 -1.08 150 16 0
2.4990001 0.66500002 -1.084 150 16 0
2.4949999 0.66900003 -1.0880001 150 16 0
2.493 0.67500001 -1.0930001 150 16 0
2.4790001 0.676 -1.0930001 150 16 0
2.4760001 0.68099999 -1.097 150 16 0
2.4719999 0.68599999 -1.101 150 16 0
2.4690001 0.69099998 -1.105 150 16 0
2.4649999 0.69599998 -1.109 150 16 0
2.46 0.70099998 -1.112 150 16 0
2.4590001 0.70599997 -1.117 150 16 0
2.45 0.70999998 -1.118 150 16 0
2.451 0.71499997 -1.124 150 16 0
2.444 0.71899998 -1.126 150 16 0
2.441 0.72399998 -1.13 150 16 0
2.438 0.72899997 -1.133 150 16 0
2.434 0.73400003 -1.136 150 16 0
2.4289999 0.73799998 -1.1390001 150 16 0
2.425 0.74299997 -1.142 150 16 0
2.4219999 0.74800003 -1.145 150 16 0
2.421 0.75400001 -1.15 150 16 0
2.418 0.75800002 -1.153 150 16 0
2.411 0.76200002 -1.155 150 16 0
2.408 0.76700002 -1.158 150 16 0
2.4059999 0.77200001 -1.161 150 16 0
2.4000001 0.77600002 -1.163 150 16 0
2.3970001 0.78100002 -1.166 150 16 0
2.395 0.78600001 -1.169 150 16 0
2.3900001 0.79000002 -1.171 150 16 0
2.3900001 0.796 -1.175 150 16 0
2.385 0.80000001 -1.177 150 16 0
2.381 0.80400002 -1.179 150 16 0
2.3789999 0.81 -1.182 150 16 0
2.3770001 0.815 -1.1849999 150 16 0
2.3729999 0.81900001 -1.187 150 16 0
2.3710001 0.824 -1.189 150 16 0
2.368 0.82800001 -1.192 150 16 0
2.359 0.83099997 -1.191 150 16 0
2.3599999 0.83700001 -1.1950001 150 16 0
2.355 0.84100002 -1.196 150 16 0
2.3510001 0.84500003 -1.197 150 16 0
2.3499999 0.85000002 -1.2 150 16 0
2.3469999 0.85500002 -1.202 150 16 0
2.3429999 0.85900003 -1.2029999 150 16 0
2.339 0.86299998 -1.2029999 150 16 0
2.3380001 0.86799997 -1.206 150 16 0
2.3329999 0.87099999 -1.206 150 16 0
2.3329999 0.87699997 -1.209 150 16 0
2.3280001 0.88 -1.209 150 16 0
2.3280001 0.88599998 -1.212 150 16 0
2.326 0.88999999 -1.2130001 150 16 0
2.3210001 0.89300001 -1.2130001 150 16 0
2.319 0.898 -1.214 150 16 0
2.3169999 0.90200001 -1.215 150 16 0
2.3139999 0.90600002 -1.216 150 16 0
2.3110001 0.91000003 -1.216 150 16 0
2.3110001 0.91500002 -1.2180001 150 16 0
2.306 0.91900003 -1.2180001 150 16 0
2.3010001 0.921 -1.217 150 16 0
2.299 0.92500001 -1.2180001 150 16 0
2.2969999 0.93000001 -1.2180001 150 16 0
2.2980001 0.935 -1.22 150 16 0
2.293 0.93800002 -1.219 150 16 0
2.2950001 0.94300002 -1.221 150 16 0
2.299 0.94999999 -1.224 150 16 0
2.309 0.958 -1.2309999 150 16 0
2.3099999 0.96399999 -1.233 151 16 0
2.2980001 0.963 -1.227 151 19 0
2.289 0.96399999 -1.223 150 16 0
2.28 0.96499997 -1.22 150 16 0
2.279 0.96899998 -1.219 150 16 0
2.2780001 0.97299999 -1.22 150 16 0
2.276 0.97600001 -1.219 150 16 0
2.2739999 0.97899997 -1.2180001 150 16 0
2.2720001 0.98299998 -1.2180001 150 16 0
2.2679999 0.98500001 -1.215 150 16 0
2.27 0.99000001 -1.217 150 16 0
2.27 0.99400002 -1.217 150 16 0
2.267 0.99699998 -1.215 150 16 0
2.2609999 0.99800003 -1.211 150 16 0
2.26 1.001 -1.21 150 16 0
2.2609999 1.005 -1.21 150 16 0
2.2579999 1.008 -1.209 150 16 0
2.257 1.011 -1.207 150 16 0
2.257 1.0140001 -1.207 150 16 0
2.256 1.017 -1.205 150 16 0
2.2550001 1.02 -1.204 150 16 0
2.2539999 1.023 -1.2029999 150 16 0
2.2539999 1.026 -1.201 150 16 0
2.253 1.029 -1.2 150 16 0
2.2539999 1.033 -1.199 150 16 0
2.2520001 1.035 -1.196 150 16 0
2.2509999 1.0369999 -1.194 150 16 0
2.2520001 1.04 -1.193 150 16 0
2.2520001 1.043 -1.192 150 16 0
2.2520001 1.046 -1.1900001 150 16 0
2.25 1.0470001 -1.187 150 16 0
2.2490001 1.049 -1.184 150 16 0
2.25 1.052 -1.183 150 16 0
2.2460001 1.053 -1.178 150 16 0
2.2490001 1.057 -1.178 150 16 0
2.2490001 1.059 -1.176 150 16 0
2.25 1.061 -1.173 150 16 0
2.2460001 1.061 -1.169 150 16 0
2.25 1.0650001 -1.168 150 16 0
2.2479999 1.066 -1.165 150 16 0
2.247 1.067 -1.161 150 16 0
2.2479999 1.069 -1.159 150 16 0
2.2490001 1.071 -1.156 150 16 0
2.2479999 1.073 -1.153 150 16 0
2.2509999 1.075 -1.151 150 16 0
2.2509999 1.076 -1.148 150 16 0
2.2509999 1.0779999 -1.145 150 16 0
2.2509999 1.079 -1.141 150 16 0
2.2520001 1.08 -1.1390001 150 16 0
2.2550001 1.0829999 -1.136 150 16 0
2.253 1.0829999 -1.132 150 16 0
2.2539999 1.084 -1.1289999 150 16 0
2.256 1.086 -1.126 150 16 0
2.257 1.087 -1.123 150 16 0
2.2579999 1.0880001 -1.119 150 16 0
2.2579999 1.0880001 -1.115 150 16 0
2.2609999 1.09 -1.112 150 16 0
2.257 1.0880001 -1.1059999 150 16 0
2.26 1.09 -1.104 150 16 0
2.2609999 1.09 -1.1 150 16 0
2.2620001 1.091 -1.096 150 16 0
2.2639999 1.091 -1.092 150 16 0
2.2650001 1.092 -1.089 150 16 0
2.2690001 1.0930001 -1.086 150 16 0
2.2690001 1.0930001 -1.081 150 16 0
2.27 1.0930001 -1.077 150 16 0
2.2739999 1.094 -1.074 151 16 0
2.276 1.095 -1.0700001 151 16 0
2.2780001 1.095 -1.066 151 16 0
2.28 1.095 -1.062 151 16 0
2.2820001 1.095 -1.058 150 16 0
2.2839999 1.095 -1.054 151 16 0
2.286 1.094 -1.05 151 16 0
2.2850001 1.0930001 -1.045 151 16 0
2.29 1.094 -1.041 150 16 0
2.29 1.092 -1.036 150 16 0
2.2939999 1.0930001 -1.033 150 16 0
2.296 1.092 -1.028 151 16 0
2.299 1.092 -1.024 151 16 0
2.3 1.091 -1.0190001 150 16 0
2.3080001 1.0930001 -1.017 151 16 0
2.303 1.089 -1.01 151 16 0
2.3080001 1.089 -1.006 151 16 0
2.3099999 1.0880001 -1.002 151 16 0
2.313 1.087 -0.99699998 151 16 0
2.3150001 1.086 -0.99199998 150 16 0
2.3150001 1.084 -0.98699999 151 16 0
2.322 1.085 -0.98400003 151 16 0
2.323 1.0829999 -0.97899997 151 16 0
2.329 1.0829999 -0.97500002 151 16 0
2.3280001 1.08 -0.96899998 151 16 0
2.3340001 1.08 -0.96600002 151 16 0
2.3399999 1.08 -0.96200001 151 16 0
2.336 1.076 -0.95499998 151 16 0
2.3440001 1.076 -0.95200002 150 16 0
2.3440001 1.074 -0.94599998 150 16 0
2.348 1.072 -0.94099998 150 16 0
2.352 1.071 -0.93699998 151 16 0
2.358 1.071 -0.93300003 150 16 0
2.3610001 1.069 -0.92799997 74 16 0
2.3640001 1.067 -0.92299998 8 16 0
2.3759999 1.069 -0.92199999 1 16 0
2.382 1.068 -0.91799998 1 16 0
2.3900001 1.068 -0.91500002 1 16 0
2.398 1.068 -0.912 3 16 0
2.401 1.066 -0.90700001 3 16 0
2.3959999 1.0599999 -0.89899999 4 16 0
2.4059999 1.061 -0.89600003 4 16 0
2.404 1.056 -0.889 11 16 0
2.3989999 1.049 -0.88 21 16 0
2.398 1.045 -0.87400001 56 16 0
2.4030001 1.043 -0.86900002 150 16 0
2.404 1.04 -0.86400002 150 16 0
2.408 1.0369999 -0.85900003 150 16 0
2.411 1.034 -0.85299999 150 16 0
2.415 1.0319999 -0.84799999 150 16 0
2.4189999 1.029 -0.84299999 150 16 0
2.4230001 1.027 -0.838 151 16 0
2.4260001 1.023 -0.833 150 16 0
2.4300001 1.02 -0.82800001 150 16 0
2.434 1.017 -0.82300001 150 16 0
2.4360001 1.0140001 -0.81699997 150 16 0
2.441 1.011 -0.81199998 150 16 0
2.4430001 1.007 -0.80699998 150 16 0
2.4530001 1.006 -0.80400002 150 16 0
2.4560001 1.003 -0.79799998 150 16 0
2.4549999 0.99699998 -0.79100001 150 16 0
2.4630001 0.99599999 -0.78799999 150 16 0
2.4660001 0.99199998 -0.78200001 150 16 0
2.471 0.98900002 -0.77700001 150 16 0
2.4719999 0.98400003 -0.77100003 150 16 0
2.4809999 0.98299998 -0.76800001 150 16 0
2.4849999 0.97899997 -0.76200002 150 16 0
2.4860001 0.97399998 -0.75599998 150 16 0
2.5 0.97500002 -0.75400001 151 16 0
2.5139999 0.97500002 -0.75199997 151 16 0
2.5190001 0.97100002 -0.74699998 151 16 0
2.5209999 0.96600002 -0.741 150 16 0
2.507 0.95599997 -0.73000002 150 16 0
2.5120001 0.95200002 -0.72500002 150 16 0
2.5179999 0.949 -0.72100002 150 16 0
2.5239999 0.94499999 -0.71600002 150 16 0
2.527 0.94099998 -0.71100003 150 16 0
2.529 0.93599999 -0.70499998 150 16 0
2.533 0.93199998 -0.69999999 150 16 0
2.5350001 0.92699999 -0.69400001 150 16 0
2.543 0.92400002 -0.69 150 16 0
2.546 0.91900003 -0.68400002 150 16 0
2.549 0.91500002 -0.67900002 150 16 0
2.553 0.91000003 -0.67299998 150 16 0
2.559 0.90600002 -0.66900003 150 16 0
2.563 0.90100002 -0.66299999 150 16 0
2.5680001 0.89700001 -0.65799999 150 16 0
2.5699999 0.89200002 -0.65200001 150 16 0
2.5739999 0.88700002 -0.64700001 150 16 0
2.5769999 0.88200003 -0.64099997 150 16 0
2.579 0.87699997 -0.63599998 150 16 0
2.5829999 0.87199998 -0.63 150 16 0
2.596 0.87 -0.62699997 150 16 0
2.6029999 0.866 -0.62300003 150 16 0
2.6040001 0.86000001 -0.61699998 150 16 0
2.612 0.85600001 -0.61199999 150 16 0
2.6199999 0.852 -0.60799998 150 16 0
2.6199999 0.84600002 -0.602 150 16 0
2.625 0.84100002 -0.597 150 16 0
2.632 0.83700001 -0.59200001 150 16 0
2.635 0.83099997 -0.58600003 150 16 0
2.6400001 0.82599998 -0.58099997 150 16 0
2.6429999 0.82099998 -0.57599998 150 16 0
2.6489999 0.81599998 -0.57099998 150 16 0
2.6530001 0.81099999 -0.56599998 150 16 0
2.658 0.80500001 -0.56099999 150 16 0
2.6670001 0.80199999 -0.55699998 150 16 0
2.6730001 0.79699999 -0.55199999 150 16 0
2.6760001 0.79100001 -0.546 150 16 0
2.6789999 0.78500003 -0.54100001 150 16 0
2.6849999 0.77999997 -0.53600001 150 16 0
2.688 0.77399999 -0.52999997 150 16 0
2.6930001 0.76800001 -0.52499998 150 16 0
2.7 0.76300001 -0.52100003 150 16 0
2.7060001 0.75800002 -0.51599997 150 16 0
2.7090001 0.75199997 -0.50999999 150 16 0
2.7119999 0.74599999 -0.505 150 16 0
2.721 0.741 -0.5 150 16 0
2.727 0.736 -0.49599999 150 16 0
2.7279999 0.72899997 -0.49000001 150 16 0
2.7360001 0.72399998 -0.48500001 150 16 0
2.7379999 0.71799999 -0.47999999 150 16 0
2.7509999 0.71399999 -0.47600001 150 16 0
2.7479999 0.70599997 -0.46900001 150 16 0
2.7579999 0.70099998 -0.465 150 16 0
2.763 0.69499999 -0.46000001 150 16 0
2.7739999 0.69099998 -0.456 150 16 0
2.777 0.68400002 -0.45100001 150 16 0
2.779 0.67799997 -0.44499999 150 16 0
2.786 0.67199999 -0.44 150 16 0
2.789 0.66500002 -0.435 150 16 0
2.7969999 0.66000003 -0.43000001 150 16 0
2.799 0.653 -0.42500001 150 16 0
2.8010001 0.64600003 -0.419 150 16 0
2.812 0.64099997 -0.41499999 150 16 0
2.8180001 0.63499999 -0.41 150 16 0
2.825 0.62900001 -0.40599999 150 16 0
2.8299999 0.62300003 -0.40000001 150 16 0
2.832 0.616 -0.39500001 150 16 0
2.8380001 0.60900003 -0.38999999 150 16 0
2.848 0.60399997 -0.38600001 150 16 0
2.8499999 0.597 -0.38 150 16 0
2.855 0.58999997 -0.375 150 16 0
2.8610001 0.58399999 -0.37 150 16 0
2.869 0.57800001 -0.366 150 16 0
2.875 0.57099998 -0.361 150 16 0
2.8789999 0.56400001 -0.35600001 150 16 0
2.881 0.55699998 -0.34999999 150 16 0
2.8900001 0.551 -0.345 150 16 0
2.8929999 0.54400003 -0.34 150 16 0
2.901 0.537 -0.336 150 16 0
2.9070001 0.52999997 -0.331 150 16 0
2.915 0.52399999 -0.32600001 150 16 0
2.9189999 0.51700002 -0.32100001 150 16 0
2.921 0.509 -0.315 150 16 0
2.931 0.50300002 -0.31099999 150 16 0
2.9419999 0.49700001 -0.30599999 150 16 0
2.944 0.48899999 -0.301 150 16 0
2.951 0.48199999 -0.296 150 16 0
2.9549999 0.47499999 -0.29100001 150 16 0
2.9619999 0.46799999 -0.28600001 150 16 0
2.9690001 0.461 -0.28099999 150 16 0
2.974 0.454 -0.27599999 150 16 0
2.9760001 0.44600001 -0.271 150 16 0
2.9849999 0.43900001 -0.266 150 16 0
2.99 0.43200001 -0.26100001 150 16 0
3 0.42500001 -0.25600001 150 16 0
3.0009999 0.417 -0.25099999 150 16 0
3.006 0.40900001 -0.24600001 150 16 0
3.013 0.40200001 -0.241 150 16 0
3.0209999 0.39500001 -0.236 150 16 0
3.03 0.38800001 -0.23100001 150 16 0
3.03 0.38 -0.226 150 16 0
3.0420001 0.373 -0.221 150 16 0
3.046 0.36500001 -0.21600001 150 16 0
3.0510001 0.35699999 -0.211 150 16 0
3.062 0.34999999 -0.207 150 16 0
3.0650001 0.34200001 -0.20100001 150 16 0
3.0680001 0.33399999 -0.19599999 150 16 0
3.079 0.32600001 -0.192 150 16 0
3.086 0.31900001 -0.18700001 150 16 0
3.092 0.31099999 -0.18099999 150 16 0
3.0999999 0.303 -0.177 150 16 0
3.1070001 0.29499999 -0.17200001 150 16 0
3.1159999 0.287 -0.167 150 16 0
3.119 0.27900001 -0.162 141 16 0
3.1240001 0.271 -0.15700001 137 16 0
3.1289999 0.26300001 -0.15099999 129 16 0
3.141 0.255 -0.147 131 16 0
3.145 0.24600001 -0.141 133 16 0
3.1530001 0.23800001 -0.13600001 150 16 0
3.161 0.23 -0.132 132 16 0
3.168 0.222 -0.127 131 16 0
3.1719999 0.213 -0.121 126 16 0
3.1849999 0.205 -0.117 118 16 0
3.187 0.19599999 -0.111 122 16 0
3.1949999 0.18799999 -0.106 113 16 0
3.2 0.17900001 -0.101 99 16 0
3.2090001 0.171 -0.096000001 113 16 0
3.221 0.162 -0.090999998 108 16 0
3.224 0.153 -0.086000003 110 16 0
3.233 0.145 -0.081 118 16 0
3.2409999 0.13600001 -0.075999998 116 16 0
3.2460001 0.127 -0.071000002 106 16 0
3.2539999 0.118 -0.066 107 16 0
3.2550001 0.109 -0.061000001 110 16 0
3.266 0.1 -0.056000002 103 16 0
3.276 0.090999998 -0.050000001 95 16 0
3.2780001 0.082000002 -0.045000002 94 16 0
3.286 0.072999999 -0.039999999 88 16 0
3.2939999 0.064000003 -0.035 53 16 0
3.3039999 0.055 -0.029999999 50 16 0
3.2969999 0.045000002 -0.025 102 16 0
3.316 0.035999998 -0.02 97 16 0
3.322 0.027000001 -0.015 41 16 0
3.3110001 0.017000001 -0.0089999996 21 16 0
3.2980001 0.0080000004 -0.0040000002 20 16 0
3.27 0 0 18 16 0
3.2479999 -0.0099999998 0.0049999999 23 16 0
3.2520001 -0.018999999 0.0099999998 89 16 0
3.256 -0.028000001 0.015 150 16 0
3.266 -0.037999999 0.02 150 16 0
3.277 -0.046999998 0.025 150 16 0
3.277 -0.056000002 0.029999999 150 16 0
3.283 -0.066 0.035 117 16 0
3.2739999 -0.075000003 0.039999999 32 16 0
3.253 -0.083999999 0.045000002 31 16 0
