# .PCD v0.7 - Point Cloud Data file format
VERSION 0.7
FIELDS x y z intensity tag line
SIZE 4 4 4 4 1 1
TYPE F F F F U U
COUNT 1 1 1 1 1 1
WIDTH 1371
HEIGHT 1
VIEWPOINT 0 0 0 1 0 0 0
POINTS 1371
DATA ascii
2.552 1.265 -0.24600001 150 16 0
2.549 1.272 -0.245 150 16 0
2.5480001 1.279 -0.245 150 16 0
2.546 1.2869999 -0.244 150 16 0
2.5409999 1.293 -0.243 150 16 0
2.536 1.299 -0.242 150 16 0
2.5339999 1.306 -0.242 150 16 0
2.533 1.314 -0.241 150 16 0
2.5280001 1.319 -0.23999999 150 16 0
2.527 1.327 -0.23899999 150 16 0
2.5190001 1.331 -0.23800001 150 16 0
2.516 1.3380001 -0.237 150 16 0
2.5190001 1.347 -0.236 150 16 0
2.5120001 1.351 -0.235 150 16 0
2.5120001 1.359 -0.234 150 16 0
2.5090001 1.3660001 -0.233 150 16 0
2.5050001 1.372 -0.23100001 150 16 0
2.4990001 1.376 -0.23 150 16 0
2.4990001 1.3839999 -0.229 150 16 0
2.4960001 1.39 -0.227 150 16 0
2.497 1.398 -0.226 150 16 0
2.4909999 1.402 -0.22499999 150 16 0
2.4909999 1.41 -0.223 150 16 0
2.487 1.416 -0.222 150 16 0
2.487 1.423 -0.221 150 16 0
2.483 1.428 -0.219 150 16 0
2.4809999 1.4349999 -0.21699999 150 16 0
2.4809999 1.442 -0.21600001 150 16 0
2.4749999 1.446 -0.214 150 16 0
2.4719999 1.451 -0.212 150 16 0
2.4719999 1.4579999 -0.211 150 16 0
2.4660001 1.462 -0.20900001 150 16 0
2.4660001 1.469 -0.207 150 16 0
2.467 1.476 -0.205 150 16 0
2.4630001 1.4809999 -0.20299999 150 16 0
2.46 1.4859999 -0.20200001 150 16 0
2.4590001 1.492 -0.2 150 16 0
2.4560001 1.497 -0.198 150 16 0
2.4549999 1.503 -0.19599999 150 16 0
2.4519999 1.508 -0.19400001 150 16 0
2.4489999 1.513 -0.191 150 16 0
2.451 1.52 -0.189 150 16 0
2.45 1.526 -0.18700001 150 16 0
2.444 1.529 -0.185 150 16 0
2.4430001 1.534 -0.183 150 16 0
2.4400001 1.539 -0.18000001 150 16 0
2.437 1.543 -0.178 150 16 0
2.4360001 1.548 -0.176 150 16 0
2.4349999 1.553 -0.17299999 150 16 0
2.4360001 1.5599999 -0.171 150 16 0
2.4360001 1.5650001 -0.169 150 16 0
2.434 1.5700001 -0.167 150 16 0
2.431 1.573 -0.164 150 16 0
2.4289999 1.577 -0.161 150 16 0
2.427 1.582 -0.15899999 150 16 0
2.428 1.5880001 -0.156 150 16 0
2.4300001 1.594 -0.154 150 16 0
2.4300001 1.599 -0.15099999 150 16 0
2.4289999 1.603 -0.149 150 16 0
2.4260001 1.6059999 -0.146 150 16 0
2.425 1.61 -0.14300001 150 16 0
2.4219999 1.613 -0.14 150 16 0
2.421 1.617 -0.13699999 150 16 0
2.4230001 1.623 -0.13500001 150 16 0
2.421 1.626 -0.132 150 16 0
2.421 1.63 -0.12899999 150 16 0
2.421 1.6339999 -0.126 150 16 0
2.4159999 1.635 -0.123 150 16 0
2.4189999 1.641 -0.12 150 16 0
2.415 1.642 -0.117 150 16 0
2.4159999 1.646 -0.114 150 16 0
2.4159999 1.65 -0.111 150 16 0
2.4159999 1.653 -0.108 150 16 0
2.4159999 1.6569999 -0.105 150 16 0
2.4119999 1.6569999 -0.102 150 16 0
2.4130001 1.661 -0.098999999 150 16 0
2.415 1.666 -0.096000001 150 16 0
2.4130001 1.6670001 -0.093000002 150 16 0
2.414 1.671 -0.089000002 150 16 0
2.4130001 1.6720001 -0.086000003 150 16 0
2.4170001 1.678 -0.082999997 150 16 0
2.4159999 1.679 -0.079999998 150 16 0
2.4130001 1.6799999 -0.075999998 150 16 0
2.411 1.6799999 -0.072999999 150 16 0
2.4159999 1.686 -0.07 150 16 0
2.4130001 1.686 -0.067000002 150 16 0
2.4170001 1.6900001 -0.064000003 150 16 0
2.4170001 1.691 -0.059999999 150 16 0
2.4159999 1.692 -0.057 150 16 0
2.4189999 1.696 -0.052999999 150 16 0
2.421 1.698 -0.050000001 150 16 0
2.4200001 1.699 -0.046999998 150 16 0
2.421 1.701 -0.043000001 150 16 0
2.4230001 1.7029999 -0.039999999 143 16 0
2.4219999 1.7029999 -0.037 108 16 0
2.425 1.706 -0.033 91 16 0
2.424 1.705 -0.029999999 72 16 0
2.425 1.706 -0.026000001 50 16 0
2.427 1.707 -0.023 44 16 0
2.427 1.707 -0.02 43 16 0
2.4300001 1.71 -0.016000001 41 16 0
2.4300001 1.71 -0.013 40 16 0
2.4300001 1.709 -0.0089999996 39 16 0
2.4319999 1.71 -0.0060000001 38 16 0
2.4330001 1.71 -0.0020000001 39 16 0
2.437 1.712 0 40 16 0
2.438 1.712 0.003 40 16 0
2.434 1.7079999 0.0070000002 39 16 0
2.4389999 1.71 0.0099999998 39 16 0
2.4419999 1.711 0.014 40 16 0
2.4430001 1.71 0.017000001 39 16 0
2.444 1.709 0.02 41 16 0
2.4449999 1.7079999 0.024 41 16 0
2.45 1.71 0.027000001 44 16 0
2.4519999 1.709 0.030999999 45 16 0
2.454 1.709 0.034000002 53 16 0
2.4549999 1.707 0.037999999 77 16 0
2.4560001 1.705 0.041000001 99 16 0
2.4590001 1.705 0.044 126 16 0
2.4579999 1.702 0.048 149 16 0
2.4630001 1.702 0.050999999 150 16 0
2.464 1.7 0.055 150 16 0
2.473 1.7029999 0.057999998 150 16 0
2.471 1.699 0.061000001 144 16 0
2.4760001 1.699 0.064999998 145 16 0
2.477 1.696 0.068000004 149 16 0
2.48 1.694 0.071000002 150 16 0
2.4809999 1.692 0.074000001 150 16 0
2.483 1.689 0.077 150 16 0
2.4849999 1.687 0.079999998 150 16 0
2.487 1.684 0.083999999 150 16 0
2.4909999 1.683 0.086999997 150 16 0
2.497 1.682 0.090000004 150 16 0
2.4949999 1.677 0.093000002 149 16 0
2.494 1.6720001 0.096000001 150 16 0
2.503 1.673 0.098999999 150 16 0
2.5050001 1.67 0.102 150 16 0
2.507 1.666 0.105 150 16 0
2.5079999 1.6619999 0.108 150 16 0
2.5120001 1.659 0.111 148 16 0
2.52 1.659 0.115 147 16 0
2.52 1.654 0.117 146 16 0
2.523 1.651 0.12 150 16 0
2.5250001 1.647 0.123 149 16 0
2.53 1.645 0.126 150 16 0
2.53 1.6390001 0.12899999 149 16 0
2.5339999 1.636 0.132 146 16 0
2.5369999 1.632 0.134 150 16 0
2.54 1.628 0.13699999 150 16 0
2.5450001 1.625 0.14 150 16 0
2.5469999 1.62 0.142 150 16 0
2.5510001 1.6160001 0.145 150 16 0
2.559 1.615 0.148 150 16 0
2.556 1.607 0.15000001 150 16 0
2.559 1.602 0.153 150 16 0
2.562 1.598 0.155 141 16 0
2.5669999 1.594 0.15700001 150 16 0
2.5699999 1.589 0.16 150 16 0
2.576 1.586 0.163 150 16 0
2.579 1.581 0.16500001 150 16 0
2.582 1.576 0.167 150 16 0
2.585 1.5700001 0.169 150 16 0
2.5880001 1.5650001 0.17200001 150 16 0
2.592 1.5599999 0.17399999 150 16 0
2.598 1.557 0.176 150 16 0
2.598 1.549 0.178 150 16 0
2.605 1.546 0.18099999 150 16 0
2.6040001 1.538 0.182 150 16 0
2.6110001 1.535 0.184 150 16 0
2.6140001 1.529 0.18700001 150 16 0
2.622 1.526 0.189 150 16 0
2.6270001 1.521 0.191 150 16 0
2.628 1.513 0.192 146 16 0
2.6340001 1.5089999 0.19400001 150 16 0
2.635 1.502 0.19599999 150 16 0
2.6359999 1.494 0.198 150 16 0
2.6389999 1.488 0.199 150 16 0
2.6470001 1.484 0.20100001 150 16 0
2.6489999 1.477 0.20299999 150 16 0
2.655 1.472 0.205 150 16 0
2.661 1.467 0.206 150 16 0
2.664 1.461 0.208 150 16 0
2.668 1.454 0.20999999 150 16 0
2.6719999 1.448 0.211 150 16 0
2.674 1.441 0.212 150 16 0
2.6789999 1.4349999 0.214 150 16 0
2.6819999 1.428 0.215 150 16 0
2.6860001 1.421 0.21600001 150 16 0
2.6889999 1.414 0.21799999 150 16 0
2.6949999 1.409 0.219 150 16 0
2.6960001 1.4 0.22 150 16 0
2.7 1.3940001 0.221 150 16 0
2.7060001 1.388 0.223 150 16 0
2.71 1.381 0.22400001 150 16 0
2.7130001 1.374 0.22499999 150 16 0
2.717 1.3660001 0.226 150 16 0
2.7190001 1.359 0.227 150 16 0
2.7260001 1.353 0.228 150 16 0
2.7309999 1.346 0.229 150 16 0
2.7309999 1.337 0.229 150 16 0
2.7390001 1.332 0.23 150 16 0
2.744 1.326 0.23100001 150 16 0
2.7449999 1.317 0.23199999 150 16 0
2.7479999 1.309 0.23199999 149 16 0
2.7520001 1.302 0.233 148 16 0
2.756 1.294 0.234 141 16 0
2.7620001 1.288 0.234 146 16 0
2.7650001 1.28 0.235 150 16 0
2.7679999 1.272 0.235 125 16 0
2.7750001 1.266 0.236 150 16 0
2.78 1.2589999 0.237 141 16 0
2.779 1.249 0.237 149 16 0
2.786 1.242 0.237 150 16 0
2.786 1.233 0.237 147 16 0
2.793 1.227 0.23800001 135 16 0
2.8010001 1.221 0.23800001 115 16 0
2.8050001 1.2130001 0.23800001 132 16 0
2.8050001 1.2029999 0.23800001 130 16 0
2.8069999 1.1950001 0.23800001 141 16 0
2.8199999 1.191 0.23899999 139 16 0
2.819 1.181 0.23899999 140 16 0
2.822 1.1720001 0.23899999 141 16 0
2.826 1.165 0.23899999 144 16 0
2.8299999 1.156 0.23899999 126 16 0
2.8329999 1.148 0.23899999 126 16 0
2.8469999 1.1440001 0.23899999 135 16 0
2.8399999 1.131 0.23800001 134 16 0
2.852 1.126 0.23899999 138 16 0
2.855 1.118 0.23800001 117 16 0
2.8599999 1.11 0.23800001 101 16 0
2.8599999 1.1 0.23800001 97 16 0
2.8699999 1.095 0.23800001 93 16 0
2.869 1.084 0.237 83 16 0
2.872 1.076 0.237 81 16 0
2.8789999 1.069 0.236 79 16 0
2.8789999 1.059 0.236 74 16 0
2.8859999 1.051 0.235 82 16 0
2.8940001 1.044 0.235 84 16 0
2.892 1.034 0.234 72 16 0
2.895 1.025 0.234 81 16 0
2.901 1.018 0.233 91 16 0
2.901 1.007 0.23199999 88 16 0
2.9070001 1 0.23199999 111 16 0
2.9130001 0.99199998 0.23100001 117 16 0
2.915 0.98299998 0.23 123 16 0
2.9189999 0.97399998 0.229 135 16 0
2.921 0.96499997 0.228 150 16 0
2.924 0.95700002 0.227 150 16 0
2.927 0.94800001 0.227 150 16 0
2.934 0.94 0.226 150 16 0
2.937 0.93099999 0.22499999 150 16 0
2.9419999 0.92299998 0.22400001 150 16 0
2.948 0.91399997 0.223 150 16 0
2.9489999 0.90499997 0.222 150 16 0
2.9579999 0.898 0.221 150 16 0
2.961 0.889 0.22 142 16 0
2.9630001 0.87900001 0.219 150 16 0
2.967 0.87099999 0.21799999 141 16 0
2.9690001 0.861 0.21600001 147 16 0
2.9760001 0.85299999 0.215 139 16 0
2.9820001 0.84500003 0.214 127 16 0
2.987 0.83700001 0.213 128 16 0
2.99 0.82700002 0.212 126 16 0
2.9920001 0.81800002 0.20999999 132 16 0
3.0039999 0.81099999 0.20900001 120 16 0
3 0.801 0.208 117 16 0
3.0090001 0.79299998 0.206 117 16 0
3.0139999 0.78399998 0.205 127 16 0
3.0139999 0.77399999 0.20299999 116 16 0
3.0190001 0.76599997 0.20200001 116 16 0
3.023 0.75599998 0.2 122 16 0
3.0309999 0.74800003 0.199 122 16 0
3.036 0.74000001 0.198 131 16 0
3.0380001 0.73000002 0.19599999 138 16 0
3.04 0.72100002 0.19400001 135 16 0
3.043 0.71200001 0.193 110 16 0
3.0510001 0.70300001 0.191 109 16 0
3.0550001 0.69400001 0.189 104 16 0
3.0569999 0.685 0.18700001 103 16 0
3.062 0.676 0.186 112 16 0
3.0639999 0.66600001 0.184 95 16 0
3.069 0.65799999 0.182 96 16 0
3.073 0.648 0.18000001 97 16 0
3.0769999 0.639 0.178 93 16 0
3.082 0.63 0.177 105 16 0
3.0840001 0.62099999 0.175 105 16 0
3.092 0.61199999 0.17299999 106 16 0
3.0910001 0.602 0.171 103 16 0
3.102 0.59399998 0.169 116 16 0
3.1010001 0.58399999 0.167 102 16 0
3.1059999 0.57499999 0.16500001 121 16 0
3.1110001 0.56599998 0.163 117 16 0
3.1129999 0.55599999 0.16 106 16 0
3.1199999 0.54699999 0.15800001 104 16 0
3.125 0.53799999 0.156 99 16 0
3.1259999 0.528 0.154 99 16 0
3.131 0.51899999 0.152 90 16 0
3.1340001 0.509 0.15000001 105 16 0
3.1340001 0.49900001 0.147 88 16 0
3.1429999 0.491 0.145 87 16 0
3.1500001 0.48199999 0.14300001 88 16 0
3.152 0.472 0.141 83 16 0
3.1589999 0.463 0.138 76 16 0
3.1630001 0.454 0.13600001 72 16 0
3.1630001 0.44299999 0.133 65 16 0
3.1730001 0.435 0.131 77 16 0
3.175 0.42500001 0.12899999 51 16 0
3.1760001 0.41499999 0.126 52 16 0
3.1860001 0.40599999 0.124 51 16 0
3.194 0.39700001 0.121 48 16 0
3.194 0.38699999 0.119 47 16 0
3.1949999 0.377 0.116 46 16 0
3.184 0.366 0.113 21 16 0
3.142 0.35100001 0.109 31 18 0
3.1370001 0.34099999 0.106 106 16 0
3.142 0.331 0.103 121 16 0
3.145 0.322 0.1 118 16 0
3.1489999 0.31200001 0.097999997 102 16 0
3.1500001 0.30199999 0.094999999 105 16 0
3.1589999 0.29300001 0.092 110 16 0
3.164 0.28400001 0.090000004 117 16 0
3.165 0.27399999 0.086999997 103 16 0
3.1659999 0.264 0.083999999 81 16 0
3.1719999 0.255 0.081 91 16 0
3.171 0.245 0.078000002 74 16 0
3.175 0.235 0.075999998 94 16 0
3.1849999 0.226 0.072999999 93 16 0
3.1860001 0.21600001 0.07 88 16 0
3.1949999 0.207 0.067000002 85 16 0
3.191 0.197 0.064000003 90 16 0
3.2 0.18799999 0.061000001 86 16 0
3.2 0.178 0.057999998 77 16 0
3.2049999 0.168 0.055 78 16 0
3.211 0.15800001 0.052000001 71 16 0
3.214 0.149 0.048999999 55 16 0
3.22 0.139 0.046 49 16 0
3.2550001 0.13 0.043000001 70 19 0
3.2909999 0.122 0.039999999 61 16 0
3.2969999 0.112 0.037 77 16 0
3.299 0.102 0.034000002 74 16 0
3.3050001 0.092 0.030999999 64 16 0
3.3110001 0.082000002 0.027000001 62 16 0
3.313 0.071999997 0.024 55 16 0
3.3210001 0.061000001 0.021 45 16 0
3.323 0.050999999 0.017000001 46 16 0
3.319 0.041000001 0.014 55 16 0
3.325 0.030999999 0.0099999998 55 16 0
3.323 0.021 0.0070000002 25 16 0
3.3 0.0099999998 0.003 19 16 0
3.2780001 0 0 18 16 0
3.257 -0.0089999996 -0.003 19 16 0
3.243 -0.017999999 -0.0060000001 48 16 0
3.247 -0.028000001 -0.0099999998 135 16 0
3.2509999 -0.037999999 -0.013 140 16 0
3.2550001 -0.048 -0.017000001 146 16 0
3.2550001 -0.057999998 -0.02 150 16 0
3.257 -0.068000004 -0.024 105 16 0
3.2420001 -0.078000002 -0.027000001 30 16 0
3.2149999 -0.086999997 -0.030999999 27 16 0
3.197 -0.096000001 -0.034000002 28 16 0
3.171 -0.105 -0.037 27 16 0
3.1500001 -0.114 -0.039999999 27 16 0
3.131 -0.123 -0.044 27 16 0
3.1070001 -0.131 -0.046999998 27 16 0
3.0940001 -0.14 -0.050000001 26 16 0
3.063 -0.148 -0.052999999 26 16 0
3.049 -0.15700001 -0.056000002 28 16 0
3.0209999 -0.164 -0.059 26 16 0
3.007 -0.17299999 -0.063000001 26 16 0
2.9809999 -0.18000001 -0.064999998 26 16 0
2.961 -0.18799999 -0.068000004 27 16 0
2.948 -0.19599999 -0.071999997 26 16 0
2.9219999 -0.20299999 -0.074000001 26 16 0
2.9059999 -0.211 -0.077 27 16 0
2.8929999 -0.219 -0.081 27 16 0
2.875 -0.226 -0.083999999 27 16 0
2.8559999 -0.233 -0.086000003 26 16 0
2.8429999 -0.241 -0.089000002 27 16 0
2.822 -0.248 -0.092 28 16 0
2.8050001 -0.255 -0.094999999 28 16 0
2.786 -0.26100001 -0.097999997 27 16 0
2.767 -0.26800001 -0.101 29 16 0
2.757 -0.27500001 -0.104 29 16 0
2.7360001 -0.28099999 -0.106 27 16 0
2.7249999 -0.28799999 -0.109 29 16 0
2.7149999 -0.29499999 -0.112 28 16 0
2.6989999 -0.30199999 -0.115 32 16 0
2.6849999 -0.308 -0.118 29 16 0
2.6630001 -0.31400001 -0.12 31 16 0
2.6489999 -0.31999999 -0.123 31 16 0
2.632 -0.32600001 -0.126 30 16 0
2.625 -0.333 -0.12899999 31 16 0
2.6040001 -0.338 -0.131 31 16 0
2.5940001 -0.345 -0.134 30 16 0
2.5799999 -0.34999999 -0.13600001 30 16 0
2.569 -0.35699999 -0.139 30 16 0
2.5469999 -0.361 -0.141 31 16 0
2.5369999 -0.368 -0.14399999 32 16 0
2.5250001 -0.373 -0.147 34 16 0
2.51 -0.37900001 -0.149 34 16 0
2.497 -0.384 -0.152 32 16 0
2.4820001 -0.389 -0.155 44 16 0
2.4679999 -0.39399999 -0.15700001 35 16 0
2.46 -0.40099999 -0.16 36 16 0
2.4489999 -0.40599999 -0.163 36 16 0
2.4360001 -0.41100001 -0.16500001 36 16 0
2.421 -0.41600001 -0.167 36 16 0
2.408 -0.421 -0.17 37 16 0
2.395 -0.426 -0.17200001 33 16 0
2.382 -0.43099999 -0.175 36 16 0
2.372 -0.43599999 -0.177 30 16 0
2.359 -0.44100001 -0.18000001 37 16 0
2.3499999 -0.44600001 -0.183 42 16 0
2.332 -0.44999999 -0.185 37 16 0
2.3269999 -0.45500001 -0.18799999 40 16 0
2.3139999 -0.46000001 -0.19 40 16 0
2.299 -0.46399999 -0.192 37 16 0
2.2880001 -0.46799999 -0.19400001 44 16 0
2.277 -0.47299999 -0.197 59 16 0
2.266 -0.477 -0.199 63 16 0
2.2539999 -0.48100001 -0.20200001 62 16 0
2.2409999 -0.48500001 -0.204 64 16 0
2.234 -0.49000001 -0.207 53 16 0
2.2260001 -0.495 -0.20900001 63 16 0
2.2130001 -0.49900001 -0.211 65 16 0
2.2030001 -0.50300002 -0.214 72 16 0
2.191 -0.50700003 -0.21600001 68 16 0
2.181 -0.51099998 -0.21799999 75 16 0
2.1730001 -0.51599997 -0.221 75 16 0
2.1570001 -0.51800001 -0.223 76 16 0
2.1500001 -0.523 -0.22499999 74 16 0
2.138 -0.52600002 -0.228 78 16 0
2.128 -0.52999997 -0.23 72 16 0
2.1210001 -0.53500003 -0.233 74 16 0
2.1129999 -0.53899997 -0.235 86 16 0
2.102 -0.542 -0.237 83 16 0
2.0899999 -0.54500002 -0.23899999 76 16 0
2.0810001 -0.54900002 -0.242 77 16 0
2.076 -0.55400002 -0.244 83 16 0
2.063 -0.55699998 -0.24600001 80 16 0
2.05 -0.55900002 -0.248 84 16 0
2.0450001 -0.56400001 -0.25099999 90 16 0
2.033 -0.56599998 -0.25299999 88 16 0
2.026 -0.56999999 -0.25600001 93 16 0
2.0179999 -0.574 -0.25799999 92 16 0
2.0090001 -0.57700002 -0.25999999 98 16 0
2.0020001 -0.58099997 -0.26300001 90 16 0
1.993 -0.58399999 -0.26499999 92 16 0
1.985 -0.588 -0.26699999 91 16 0
1.973 -0.58999997 -0.26899999 95 16 0
1.967 -0.59399998 -0.27200001 88 16 0
1.959 -0.597 -0.27399999 95 16 0
1.954 -0.60100001 -0.27700001 98 16 0
1.9450001 -0.60399997 -0.27900001 87 16 0
1.927 -0.60399997 -0.28 85 16 0
1.923 -0.60799998 -0.28299999 92 16 0
1.916 -0.61199999 -0.285 91 16 0
1.9119999 -0.616 -0.28799999 107 16 0
1.904 -0.61900002 -0.29100001 102 16 0
1.898 -0.62199998 -0.29300001 100 16 0
1.89 -0.625 -0.29499999 100 16 0
1.8789999 -0.62699997 -0.29699999 109 16 0
1.867 -0.62800002 -0.29899999 104 16 0
1.865 -0.63300002 -0.30199999 104 16 0
1.854 -0.634 -0.30399999 113 16 0
1.85 -0.63800001 -0.30599999 121 16 0
1.844 -0.64099997 -0.30899999 125 16 0
1.8380001 -0.64399999 -0.31099999 114 16 0
1.826 -0.64499998 -0.31299999 107 16 0
1.827 -0.65100002 -0.317 115 16 0
1.814 -0.65100002 -0.31799999 108 16 0
1.803 -0.65200001 -0.31900001 108 16 0
1.804 -0.65799999 -0.32300001 114 16 0
1.796 -0.66000003 -0.32499999 111 16 0
1.789 -0.662 -0.32699999 117 16 0
1.7869999 -0.66600001 -0.33000001 114 16 0
1.7819999 -0.66900003 -0.333 120 16 0
1.771 -0.67000002 -0.33500001 123 16 0
1.7589999 -0.671 -0.336 112 16 0
1.757 -0.67500001 -0.33899999 112 16 0
1.752 -0.67699999 -0.34200001 122 16 0
1.744 -0.67900002 -0.34400001 140 16 0
1.74 -0.68199998 -0.347 124 16 0
1.7309999 -0.68300003 -0.34799999 131 16 0
1.728 -0.68699998 -0.35100001 122 16 0
1.722 -0.68900001 -0.354 105 16 0
1.716 -0.69099998 -0.35600001 127 16 0
1.71 -0.69400001 -0.35800001 125 16 0
1.7029999 -0.69499999 -0.36000001 150 16 0
1.697 -0.69700003 -0.36300001 150 16 0
1.689 -0.69800001 -0.36399999 150 16 0
1.684 -0.70099998 -0.36700001 150 16 0
1.682 -0.704 -0.37 150 16 0
1.674 -0.70499998 -0.37200001 150 16 0
1.669 -0.708 -0.375 150 16 0
1.664 -0.70999998 -0.377 1 0 0
1.66 -0.71200001 -0.38 1 0 0
1.654 -0.71399999 -0.382 150 16 0
1.647 -0.71499997 -0.384 150 16 0
1.641 -0.71600002 -0.38600001 150 16 0
1.637 -0.71899998 -0.389 1 0 0
1.63 -0.72000003 -0.391 150 16 0
1.6289999 -0.72299999 -0.39399999 150 16 0
1.6210001 -0.72399998 -0.396 1 0 0
1.617 -0.72600001 -0.398 1 0 0
1.612 -0.72799999 -0.40099999 1 0 0
1.6059999 -0.72899997 -0.403 3 0 0
1.601 -0.73100001 -0.405 150 16 0
1.598 -0.73299998 -0.40799999 150 16 0
1.594 -0.73500001 -0.41100001 150 16 0
1.589 -0.736 -0.41299999 70 0 0
1.5779999 -0.73500001 -0.414 1 0 0
1.574 -0.73699999 -0.41600001 2 0 0
1.5700001 -0.73799998 -0.419 150 16 0
1.568 -0.741 -0.42199999 1 0 0
1.5650001 -0.74299997 -0.42399999 68 0 0
1.561 -0.74400002 -0.42699999 2 0 0
1.556 -0.74599999 -0.42899999 150 16 0
1.556 -0.74900001 -0.433 76 0 0
1.549 -0.74900001 -0.43399999 75 0 0
1.5470001 -0.75099999 -0.43700001 90 0 0
1.543 -0.75300002 -0.44 88 0 0
1.538 -0.75300002 -0.442 80 0 0
1.534 -0.75400001 -0.44400001 66 0 0
1.5319999 -0.75700003 -0.447 80 0 0
1.529 -0.75800002 -0.44999999 2 0 0
1.5190001 -0.75700003 -0.45100001 3 0 0
1.518 -0.759 -0.454 3 0 0
1.515 -0.75999999 -0.45699999 78 0 0
1.51 -0.76099998 -0.45899999 78 0 0
1.511 -0.764 -0.46200001 85 0 0
1.507 -0.76499999 -0.465 74 0 0
1.502 -0.76499999 -0.46700001 90 0 0
1.5 -0.76700002 -0.47 85 0 0
1.498 -0.76800001 -0.472 73 0 0
1.494 -0.76899999 -0.47499999 106 0 0
1.492 -0.76999998 -0.477 99 0 0
1.49 -0.77200001 -0.47999999 135 0 0
1.485 -0.77200001 -0.48199999 102 0 0
1.4859999 -0.77499998 -0.486 121 0 0
1.475 -0.77200001 -0.486 106 3 0
1.473 -0.773 -0.48800001 94 0 0
1.4680001 -0.77200001 -0.49000001 96 0 0
1.474 -0.778 -0.49599999 106 3 0
1.473 -0.77899998 -0.498 102 0 0
1.464 -0.77700001 -0.49900001 110 0 0
1.459 -0.77600002 -0.50099999 128 0 0
1.454 -0.77600002 -0.50199997 130 0 0
1.456 -0.77899998 -0.50599998 114 0 0
1.454 -0.77899998 -0.50800002 97 0 0
1.45 -0.77899998 -0.50999999 131 0 0
1.451 -0.78100002 -0.514 111 0 0
1.449 -0.78200001 -0.51700002 129 0 0
1.443 -0.77999997 -0.51800001 137 0 0
1.439 -0.77999997 -0.51899999 138 0 0
1.438 -0.78100002 -0.52200001 128 0 0
1.4349999 -0.78100002 -0.52399999 119 0 0
1.436 -0.78299999 -0.528 146 0 0
1.426 -0.77899998 -0.52700001 150 3 0
1.427 -0.78100002 -0.53100002 150 0 0
1.423 -0.77999997 -0.53200001 113 0 0
1.425 -0.78200001 -0.53600001 133 0 0
1.421 -0.78100002 -0.537 141 0 0
1.419 -0.78100002 -0.53899997 107 0 0
1.424 -0.78500003 -0.54500002 146 3 0
1.42 -0.78399998 -0.546 150 0 0
1.421 -0.78500003 -0.54900002 150 0 0
1.415 -0.78200001 -0.54900002 150 0 0
1.4170001 -0.78399998 -0.55299997 127 0 0
1.411 -0.78200001 -0.55400002 143 0 0
1.413 -0.78399998 -0.55699998 150 0 0
1.415 -0.78500003 -0.56099999 150 0 0
1.413 -0.78500003 -0.56300002 150 0 0
1.413 -0.78500003 -0.565 150 0 0
1.408 -0.78299999 -0.56599998 150 0 0
1.409 -0.78299999 -0.56900001 146 0 0
1.409 -0.78399998 -0.57200003 127 0 0
1.409 -0.78399998 -0.574 146 0 0
1.409 -0.78399998 -0.57599998 147 0 0
1.41 -0.78500003 -0.579 136 0 0
1.403 -0.78100002 -0.579 150 3 0
1.408 -0.78399998 -0.58399999 150 0 0
1.406 -0.78299999 -0.58499998 141 0 0
1.4069999 -0.78299999 -0.588 150 0 0
1.402 -0.77999997 -0.588 150 0 0
1.406 -0.78200001 -0.59200001 150 0 0
1.405 -0.78100002 -0.59399998 150 0 0
1.405 -0.78100002 -0.59600002 150 0 0
1.405 -0.77999997 -0.59799999 148 0 0
1.4069999 -0.78100002 -0.60100001 150 0 0
1.404 -0.77899998 -0.602 150 0 0
1.403 -0.778 -0.60299999 150 0 0
1.406 -0.778 -0.60600001 128 0 0
1.409 -0.77899998 -0.60900003 150 0 0
1.406 -0.77700001 -0.61000001 150 0 0
1.4069999 -0.77700001 -0.61299998 150 0 0
1.4069999 -0.77600002 -0.61400002 150 0 0
1.41 -0.77600002 -0.61699998 150 0 0
1.41 -0.77499998 -0.61900002 150 0 0
1.41 -0.77399999 -0.62099999 150 0 0
1.41 -0.773 -0.62199998 150 0 0
1.415 -0.77399999 -0.62599999 150 3 0
1.418 -0.77499998 -0.62900001 150 0 0
1.419 -0.773 -0.63 150 0 0
1.42 -0.773 -0.63300002 150 0 0
1.419 -0.76999998 -0.63300002 150 0 0
1.421 -0.76999998 -0.63499999 150 0 0
1.421 -0.76800001 -0.63700002 150 0 0
1.424 -0.76800001 -0.639 150 0 0
1.426 -0.76800001 -0.64099997 150 0 0
1.427 -0.76599997 -0.64300001 150 0 0
1.425 -0.76300001 -0.64300001 150 0 0
1.426 -0.76200002 -0.64399999 150 0 0
1.428 -0.76099998 -0.64600003 150 0 0
1.428 -0.759 -0.64700001 150 16 0
1.431 -0.759 -0.64899999 150 0 0
1.438 -0.75999999 -0.653 150 0 0
1.439 -0.75800002 -0.65399998 150 0 0
1.4400001 -0.75599998 -0.65499997 150 0 0
1.442 -0.755 -0.65700001 150 0 0
1.4450001 -0.75400001 -0.65899998 150 0 0
1.447 -0.75300002 -0.66000003 150 0 0
1.45 -0.75199997 -0.662 150 0 0
1.452 -0.75 -0.66399997 150 0 0
1.454 -0.74900001 -0.66500002 123 0 0
1.455 -0.74699998 -0.66500002 150 0 0
1.464 -0.74800003 -0.67000002 150 2 0
1.465 -0.74599999 -0.67000002 137 0 0
1.467 -0.745 -0.67199999 126 0 0
1.4680001 -0.74199998 -0.67199999 150 0 0
1.469 -0.74000001 -0.67199999 150 0 0
1.476 -0.74000001 -0.676 150 0 0
1.477 -0.73799998 -0.676 130 0 0
1.478 -0.73500001 -0.676 150 0 0
1.483 -0.73400003 -0.67799997 143 0 0
1.484 -0.73199999 -0.67799997 150 0 0
1.488 -0.73000002 -0.68000001 150 0 0
1.489 -0.72799999 -0.68000001 150 0 0
1.492 -0.72600001 -0.68099999 131 0 0
1.493 -0.72299999 -0.68099999 144 0 0
1.497 -0.722 -0.68199998 150 0 0
1.499 -0.71899998 -0.68199998 150 0 0
1.51 -0.72100002 -0.68599999 150 3 0
1.512 -0.71799999 -0.68699998 136 0 0
1.517 -0.71700001 -0.68800002 150 0 0
1.522 -0.71600002 -0.69 150 0 0
1.524 -0.71399999 -0.69 134 0 0
1.528 -0.71200001 -0.69 143 0 0
1.527 -0.708 -0.68900001 150 0 0
1.5369999 -0.708 -0.69199997 132 0 0
1.5420001 -0.70700002 -0.69300002 150 0 0
1.545 -0.70499998 -0.69400001 119 0 0
1.5470001 -0.70200002 -0.69400001 139 0 0
1.551 -0.69999999 -0.69400001 150 0 0
1.557 -0.699 -0.69599998 150 0 0
1.562 -0.69700003 -0.69599998 4 0 0
1.566 -0.69499999 -0.69700003 150 0 0
1.569 -0.69199997 -0.69700003 106 0 0
1.574 -0.69 -0.69700003 4 0 0
1.581 -0.68900001 -0.69800001 148 0 0
1.586 -0.68699998 -0.699 150 16 0
1.59 -0.685 -0.699 150 16 0
1.5880001 -0.68000001 -0.69599998 2 0 0
1.597 -0.67900002 -0.699 150 16 0
1.609 -0.68000001 -0.70200002 150 16 0
1.612 -0.67699999 -0.70200002 150 16 0
1.614 -0.67400002 -0.69999999 150 16 0
1.619 -0.671 -0.69999999 150 16 0
1.6289999 -0.67199999 -0.70300001 150 16 0
1.631 -0.66799998 -0.70200002 150 16 0
1.635 -0.66500002 -0.70099998 150 16 0
1.636 -0.66100001 -0.699 150 16 0
1.646 -0.66100001 -0.70099998 150 16 0
1.651 -0.65799999 -0.70099998 150 16 0
1.659 -0.65700001 -0.70200002 150 16 0
1.663 -0.65399998 -0.70099998 77 0 0
1.666 -0.65100002 -0.69999999 150 16 0
1.673 -0.64899999 -0.70099998 150 16 0
1.677 -0.64600003 -0.69999999 150 16 0
1.681 -0.64300001 -0.699 101 0 0
1.687 -0.64099997 -0.699 98 0 0
1.697 -0.63999999 -0.69999999 1 0 0
1.7 -0.63700002 -0.699 88 0 0
1.705 -0.634 -0.69800001 2 0 0
1.707 -0.63 -0.69599998 2 0 0
1.721 -0.63 -0.699 2 0 0
1.725 -0.62699997 -0.69700003 2 0 0
1.727 -0.62300003 -0.69499999 2 0 0
1.735 -0.62099999 -0.69599998 2 0 0
1.74 -0.61799997 -0.69400001 2 0 0
1.75 -0.61699998 -0.69499999 2 0 0
1.7539999 -0.61400002 -0.69300002 2 0 0
1.76 -0.611 -0.69300002 2 0 0
1.767 -0.60900003 -0.69199997 2 0 0
1.772 -0.60600001 -0.69099998 150 16 0
1.7819999 -0.60399997 -0.69199997 2 0 0
1.7869999 -0.60100001 -0.69 150 16 0
1.7920001 -0.59799999 -0.68900001 150 16 0
1.801 -0.59600002 -0.68800002 150 16 0
1.8099999 -0.59399998 -0.68800002 150 16 0
1.813 -0.58999997 -0.68599999 150 16 0
1.818 -0.58700001 -0.68400002 150 16 0
1.827 -0.58499998 -0.68400002 150 16 0
1.832 -0.58200002 -0.68199998 150 16 0
1.837 -0.57800001 -0.68000001 150 16 0
1.841 -0.57499999 -0.67799997 150 16 0
1.847 -0.57200003 -0.676 150 16 0
1.864 -0.57200003 -0.67900002 150 16 0
1.8660001 -0.56800002 -0.676 150 16 0
1.875 -0.565 -0.67500001 150 16 0
1.88 -0.56199998 -0.67299998 150 16 0
1.883 -0.55800003 -0.67000002 150 16 0
1.896 -0.55699998 -0.67000002 150 16 0
1.902 -0.55400002 -0.66799998 150 16 0
1.909 -0.551 -0.667 150 16 0
1.915 -0.54799998 -0.66500002 150 16 0
1.926 -0.546 -0.66500002 150 16 0
1.932 -0.542 -0.662 143 16 0
1.939 -0.53899997 -0.66000003 137 16 0
1.949 -0.537 -0.65899998 131 16 0
1.954 -0.53299999 -0.65700001 150 16 0
1.956 -0.52899998 -0.653 126 16 0
1.969 -0.52700001 -0.653 139 16 0
1.98 -0.52499998 -0.65200001 115 16 0
1.984 -0.52100003 -0.64899999 126 16 0
1.994 -0.51899999 -0.648 129 16 0
2.003 -0.51599997 -0.64600003 130 16 0
2.0090001 -0.51300001 -0.64399999 129 16 0
2.02 -0.50999999 -0.64200002 135 16 0
2.0239999 -0.50599998 -0.639 130 16 0
2.029 -0.50300002 -0.63599998 108 16 0
2.0380001 -0.5 -0.634 116 16 0
2.0469999 -0.49700001 -0.63200003 129 16 0
2.0569999 -0.49399999 -0.63 113 16 0
2.0650001 -0.491 -0.62800002 113 16 0
2.0699999 -0.48699999 -0.62400001 113 16 0
2.0769999 -0.484 -0.62199998 111 16 0
2.0940001 -0.48199999 -0.62199998 112 16 0
2.1010001 -0.479 -0.61900002 108 16 0
2.112 -0.47600001 -0.61699998 104 16 0
2.1210001 -0.47299999 -0.61500001 109 16 0
2.1289999 -0.47 -0.61199999 105 16 0
2.135 -0.46599999 -0.60799998 90 16 0
2.1400001 -0.46200001 -0.60500002 96 16 0
2.1559999 -0.46000001 -0.60399997 96 16 0
2.1630001 -0.456 -0.60000002 92 16 0
2.1730001 -0.454 -0.59799999 89 16 0
2.181 -0.44999999 -0.59500003 98 16 0
2.1849999 -0.44600001 -0.59100002 92 16 0
2.1960001 -0.44299999 -0.588 91 16 0
2.204 -0.43900001 -0.58499998 85 16 0
2.2130001 -0.43599999 -0.58200002 91 16 0
2.2219999 -0.43200001 -0.579 85 16 0
2.23 -0.42899999 -0.57499999 88 16 0
2.24 -0.426 -0.57200003 83 16 0
2.247 -0.42199999 -0.56900001 82 16 0
2.2609999 -0.419 -0.56599998 87 16 0
2.2709999 -0.41600001 -0.56300002 80 16 0
2.279 -0.412 -0.55900002 76 16 0
2.2880001 -0.40900001 -0.55599999 76 16 0
2.293 -0.40400001 -0.551 77 16 0
2.303 -0.40099999 -0.54799998 66 16 0
2.313 -0.39700001 -0.54500002 68 16 0
2.325 -0.39399999 -0.542 44 16 0
2.3340001 -0.391 -0.53799999 50 16 0
2.3469999 -0.38800001 -0.53500003 57 16 0
2.3529999 -0.38299999 -0.52999997 53 16 0
2.3670001 -0.38 -0.52700001 48 16 0
2.3759999 -0.377 -0.523 46 16 0
2.3840001 -0.373 -0.51899999 53 16 0
2.3940001 -0.36899999 -0.51499999 52 16 0
2.408 -0.366 -0.51200002 52 16 0
2.415 -0.36199999 -0.50700003 48 16 0
2.4260001 -0.35800001 -0.50300002 46 16 0
2.4300001 -0.354 -0.498 47 16 0
2.448 -0.35100001 -0.495 42 16 0
2.454 -0.347 -0.49000001 41 16 0
2.4649999 -0.34299999 -0.486 38 16 0
2.4749999 -0.33899999 -0.48199999 41 16 0
2.484 -0.33500001 -0.477 41 16 0
2.497 -0.33199999 -0.47299999 35 16 0
2.503 -0.32699999 -0.46799999 37 16 0
2.5139999 -0.32300001 -0.463 33 16 0
2.5220001 -0.31900001 -0.458 33 16 0
2.5420001 -0.31600001 -0.45500001 33 16 0
2.549 -0.31200001 -0.44999999 32 16 0
2.562 -0.308 -0.44499999 33 16 0
2.569 -0.30399999 -0.44 32 16 0
2.576 -0.29899999 -0.435 34 16 0
2.5899999 -0.296 -0.43000001 35 16 0
2.6010001 -0.292 -0.42500001 33 16 0
2.612 -0.28799999 -0.41999999 32 16 0
2.6259999 -0.28400001 -0.41499999 33 16 0
2.6370001 -0.28 -0.41 34 16 0
2.651 -0.27599999 -0.40599999 30 16 0
2.6559999 -0.271 -0.39899999 31 16 0
2.6689999 -0.26699999 -0.39399999 33 16 0
2.6849999 -0.26300001 -0.38999999 33 16 0
2.6949999 -0.259 -0.384 32 16 0
2.704 -0.255 -0.37799999 31 16 0
2.714 -0.25 -0.37200001 32 16 0
2.723 -0.24600001 -0.366 32 16 0
2.737 -0.242 -0.361 31 16 0
2.747 -0.237 -0.35499999 31 16 0
2.76 -0.233 -0.34900001 31 16 0
2.7720001 -0.229 -0.34400001 32 16 0
2.783 -0.22400001 -0.338 32 16 0
2.793 -0.22 -0.331 31 16 0
2.8069999 -0.215 -0.32600001 30 16 0
2.8199999 -0.211 -0.31999999 28 16 0
2.832 -0.206 -0.31299999 28 16 0
2.8410001 -0.20200001 -0.30700001 29 16 0
2.8570001 -0.197 -0.301 28 16 0
2.865 -0.193 -0.294 28 16 0
2.882 -0.18799999 -0.28799999 28 16 0
2.895 -0.184 -0.28200001 28 16 0
2.9059999 -0.17900001 -0.27500001 28 16 0
2.9189999 -0.17399999 -0.26800001 27 16 0
2.9360001 -0.17 -0.26199999 27 16 0
2.9519999 -0.16500001 -0.25600001 28 16 0
2.9630001 -0.161 -0.249 27 16 0
2.977 -0.156 -0.242 27 16 0
2.9860001 -0.15099999 -0.234 28 16 0
2.9979999 -0.146 -0.227 27 16 0
3.02 -0.142 -0.221 27 16 0
3.0339999 -0.13699999 -0.214 29 16 0
3.049 -0.132 -0.206 28 16 0
3.0639999 -0.127 -0.199 28 16 0
3.079 -0.122 -0.192 28 16 0
3.0940001 -0.117 -0.184 29 16 0
3.105 -0.112 -0.177 28 16 0
3.1199999 -0.107 -0.169 28 16 0
3.1370001 -0.102 -0.162 29 16 0
3.148 -0.097000003 -0.154 29 16 0
3.164 -0.090999998 -0.146 30 16 0
3.178 -0.086000003 -0.138 29 16 0
3.1960001 -0.081 -0.13 29 16 0
3.21 -0.075999998 -0.122 36 16 0
3.223 -0.071000002 -0.113 90 16 0
3.227 -0.064999998 -0.105 150 16 0
3.2279999 -0.059 -0.096000001 150 16 0
3.2309999 -0.054000001 -0.086999997 150 16 0
3.234 -0.048 -0.078000002 150 16 0
3.2309999 -0.043000001 -0.068999998 150 16 0
3.2349999 -0.037 -0.061000001 150 16 0
3.2349999 -0.032000002 -0.052000001 150 16 0
3.2349999 -0.026000001 -0.043000001 150 16 0
3.2349999 -0.021 -0.034000002 134 16 0
3.2379999 -0.015 -0.025 42 16 0
3.2460001 -0.0099999998 -0.016000001 26 16 0
3.2620001 -0.0040000002 -0.0070000002 19 16 0
3.2850001 0 0.001 19 16 0
3.296 0.0060000001 0.0099999998 20 16 0
3.3069999 0.011 0.018999999 20 16 0
3.325 0.017000001 0.028000001 22 16 0
3.3429999 0.023 0.037999999 29 16 0
3.3559999 0.028000001 0.046999998 57 16 0
3.362 0.034000002 0.057 146 16 0
3.3610001 0.039999999 0.066 40 16 0
3.355 0.045000002 0.075000003 15 16 0
3.3340001 0.050000001 0.083999999 14 16 0
3.3269999 0.056000002 0.093000002 36 16 0
3.309 0.061000001 0.102 36 16 0
3.2869999 0.066 0.111 35 16 0
3.2650001 0.07 0.119 48 16 0
3.2579999 0.075999998 0.12800001 150 16 0
3.2579999 0.081 0.13699999 150 16 0
3.263 0.086000003 0.147 150 16 0
3.263 0.092 0.156 150 16 0
3.26 0.097000003 0.16500001 150 16 0
3.2639999 0.102 0.17399999 150 16 0
3.2639999 0.107 0.184 150 16 0
3.263 0.112 0.193 150 16 0
3.266 0.118 0.20200001 150 16 0
3.27 0.123 0.212 150 16 0
3.27 0.12800001 0.221 150 16 0
3.2650001 0.133 0.23 150 16 0
3.2709999 0.138 0.23899999 150 16 0
3.273 0.14300001 0.249 150 16 0
3.2780001 0.149 0.259 150 16 0
3.277 0.154 0.26800001 150 16 0
3.273 0.15899999 0.27700001 150 16 0
3.276 0.164 0.287 150 16 0
3.283 0.169 0.29699999 150 16 0
3.2820001 0.17399999 0.30599999 150 16 0
3.283 0.17900001 0.31600001 150 16 0
3.2869999 0.185 0.32600001 150 16 0
3.2850001 0.189 0.33500001 150 16 0
3.2880001 0.19499999 0.345 150 16 0
3.2880001 0.2 0.354 150 16 0
3.2920001 0.205 0.36399999 150 16 0
3.2909999 0.20999999 0.37400001 150 16 0
3.2850001 0.214 0.38299999 55 16 0
3.2709999 0.21799999 0.38999999 40 16 0
3.2490001 0.222 0.39700001 39 16 0
3.2349999 0.22499999 0.405 41 16 0
3.22 0.229 0.41299999 38 16 0
3.2030001 0.233 0.41999999 41 16 0
3.184 0.236 0.42699999 42 16 0
3.1719999 0.23999999 0.43399999 41 16 0
3.155 0.243 0.44100001 48 16 0
3.1340001 0.24600001 0.44800001 42 16 0
3.122 0.249 0.45500001 41 16 0
3.1070001 0.25299999 0.46200001 40 16 0
3.086 0.255 0.46799999 41 16 0
3.066 0.25799999 0.47400001 40 16 0
3.0539999 0.26100001 0.48100001 43 16 0
3.0339999 0.264 0.48699999 43 16 0
3.0179999 0.26699999 0.49399999 43 16 0
3.0090001 0.27000001 0.50099999 46 16 0
2.9860001 0.273 0.50700003 43 16 0
2.9749999 0.27599999 0.51300001 42 16 0
2.9630001 0.27900001 0.51999998 44 16 0
2.9489999 0.28099999 0.52700001 43 16 0
2.9289999 0.28400001 0.53200001 43 16 0
2.9230001 0.287 0.54000002 45 16 0
2.9070001 0.289 0.54500002 43 16 0
2.895 0.292 0.55199999 42 16 0
2.875 0.294 0.55699998 62 16 0
2.8659999 0.29699999 0.56400001 65 16 0
2.858 0.30000001 0.57099998 62 16 0
2.8369999 0.30199999 0.57499999 72 16 0
2.823 0.30399999 0.58099997 81 16 0
2.812 0.30599999 0.588 78 16 0
2.7980001 0.30899999 0.59299999 73 16 0
2.786 0.31099999 0.59899998 73 16 0
2.7709999 0.31299999 0.60399997 89 16 0
2.757 0.315 0.61000001 88 16 0
2.7490001 0.31799999 0.61699998 86 16 0
2.7320001 0.31900001 0.62099999 99 16 0
2.72 0.32100001 0.62699997 123 16 0
2.71 0.32300001 0.63300002 116 16 0
2.701 0.32600001 0.639 100 16 0
2.6789999 0.32699999 0.64200002 93 16 0
2.6700001 0.329 0.64899999 92 16 0
2.6630001 0.331 0.65499997 105 16 0
2.651 0.333 0.66000003 81 16 0
2.6370001 0.33500001 0.66500002 36 16 0
2.6289999 0.33700001 0.671 82 16 0
2.6159999 0.338 0.676 117 16 0
2.6040001 0.34 0.68099999 105 16 0
2.5929999 0.34200001 0.68699998 108 16 0
2.579 0.34299999 0.69099998 102 16 0
2.566 0.34400001 0.69599998 115 16 0
2.5580001 0.34599999 0.70200002 101 16 0
2.5469999 0.34799999 0.70700002 113 16 0
2.5380001 0.34999999 0.71200001 150 16 0
2.5250001 0.35100001 0.71700001 150 16 0
2.513 0.352 0.72100002 149 16 0
2.5020001 0.35299999 0.72600001 143 16 0
2.487 0.354 0.73000002 150 16 0
2.484 0.35600001 0.73699999 150 16 0
2.4660001 0.35699999 0.73900002 150 16 0
2.461 0.35800001 0.74599999 150 16 0
2.447 0.359 0.74900001 150 16 0
2.4400001 0.361 0.755 150 16 0
2.427 0.36199999 0.759 150 16 0
2.414 0.36199999 0.76300001 150 16 0
2.405 0.36300001 0.76700002 150 16 0
2.3970001 0.36500001 0.77200001 150 16 0
2.385 0.36500001 0.77600002 150 16 0
2.375 0.366 0.78100002 150 16 0
2.3699999 0.368 0.787 150 16 0
2.3599999 0.36899999 0.79100001 150 16 0
2.349 0.36899999 0.79500002 150 16 0
2.3399999 0.37 0.80000001 150 16 0
2.3310001 0.37099999 0.80400002 150 16 0
2.322 0.37200001 0.80900002 150 16 0
2.3139999 0.373 0.81400001 150 16 0
2.302 0.373 0.81699997 150 16 0
2.29 0.37400001 0.81999999 150 16 0
2.277 0.37400001 0.82300001 150 16 0
2.2709999 0.375 0.82800001 150 16 0
2.26 0.375 0.83200002 150 16 0
2.2550001 0.37599999 0.83700001 150 16 0
2.2460001 0.377 0.84100002 150 16 0
2.2349999 0.377 0.84399998 150 16 0
2.227 0.377 0.84899998 150 16 0
2.2130001 0.377 0.85100001 150 16 0
2.2060001 0.37799999 0.85600001 150 16 0
2.198 0.37799999 0.86000001 150 16 0
2.1930001 0.37900001 0.86500001 150 16 0
2.1789999 0.37799999 0.86699998 150 16 0
2.1719999 0.37900001 0.87099999 150 16 0
2.164 0.37900001 0.875 150 16 0
2.151 0.37799999 0.87699997 150 16 0
2.1440001 0.37900001 0.88099998 150 16 0
2.135 0.37900001 0.884 150 16 0
2.132 0.38 0.88999999 150 16 0
2.122 0.38 0.89300001 150 16 0
2.112 0.37900001 0.89600003 150 16 0
2.1070001 0.38 0.89999998 150 16 0
2.0969999 0.37900001 0.903 150 16 0
2.0899999 0.37900001 0.90700001 150 16 0
2.0810001 0.37900001 0.91000003 150 16 0
2.073 0.37900001 0.91399997 150 16 0
2.066 0.37900001 0.917 150 16 0
2.0550001 0.37799999 0.91900003 150 16 0
2.052 0.37900001 0.92500001 150 16 0
2.046 0.37900001 0.92900002 150 16 0
2.0339999 0.37799999 0.93000001 150 16 0
2.03 0.37799999 0.935 150 16 0
2.0239999 0.37799999 0.93900001 150 16 0
2.0150001 0.37799999 0.94099998 150 16 0
2.0109999 0.37799999 0.94599998 150 16 0
2.0020001 0.377 0.94800001 150 16 0
1.9910001 0.37599999 0.949 150 16 0
1.982 0.375 0.95200002 150 16 0
1.979 0.375 0.95700002 150 16 0
1.9630001 0.373 0.95499998 150 16 0
1.96 0.373 0.95999998 150 16 0
1.957 0.373 0.96499997 150 16 0
1.948 0.37200001 0.96700001 150 16 0
1.938 0.37099999 0.96799999 150 16 0
1.933 0.37099999 0.972 150 16 0
1.924 0.37 0.97399998 150 16 0
1.918 0.36899999 0.97600001 150 16 0
1.913 0.36899999 0.98000002 150 16 0
1.906 0.368 0.98299998 150 16 0
1.897 0.366 0.98400003 150 16 0
1.891 0.36500001 0.98699999 150 16 0
1.886 0.36500001 0.99000001 150 16 0
1.877 0.36399999 0.99199998 150 16 0
1.874 0.36300001 0.99599999 150 16 0
1.867 0.36199999 0.99800003 150 16 0
1.863 0.36199999 1.002 150 16 0
1.855 0.36000001 1.003 150 16 0
1.847 0.359 1.0039999 150 16 0
1.844 0.35800001 1.0089999 150 16 0
1.8380001 0.35699999 1.011 150 16 0
1.831 0.35600001 1.012 150 16 0
1.823 0.354 1.013 150 16 0
1.822 0.354 1.018 150 16 0
1.814 0.352 1.0190001 150 16 0
1.811 0.352 1.023 150 16 0
1.8049999 0.34999999 1.025 150 16 0
1.8 0.34900001 1.027 150 16 0
1.795 0.34799999 1.03 150 16 0
1.794 0.347 1.034 150 16 0
1.785 0.345 1.034 150 16 0
1.781 0.34400001 1.0369999 150 16 0
1.773 0.34200001 1.0369999 150 16 0
1.768 0.34099999 1.039 150 16 0
1.762 0.33899999 1.041 150 16 0
1.758 0.338 1.043 150 16 0
1.756 0.33700001 1.0470001 150 16 0
1.75 0.33500001 1.048 150 16 0
1.733 0.33199999 1.0420001 150 18 0
1.7309999 0.331 1.046 150 16 0
1.728 0.329 1.048 150 16 0
1.726 0.32800001 1.051 150 16 0
1.721 0.32699999 1.053 150 16 0
1.72 0.32499999 1.057 150 16 0
1.716 0.324 1.059 150 16 0
1.714 0.32300001 1.062 150 16 0
1.711 0.32100001 1.064 150 16 0
1.7029999 0.31900001 1.063 150 16 0
1.701 0.317 1.066 150 16 0
1.697 0.31600001 1.067 150 16 0
1.694 0.31400001 1.069 150 16 0
1.692 0.31299999 1.072 150 16 0
1.688 0.31099999 1.073 150 16 0
1.684 0.30899999 1.074 150 16 0
1.682 0.30700001 1.077 150 16 0
1.6799999 0.30599999 1.079 150 16 0
1.673 0.303 1.0779999 150 16 0
1.6720001 0.30199999 1.081 150 16 0
1.6670001 0.30000001 1.081 150 16 0
1.6619999 0.29699999 1.081 150 16 0
1.659 0.296 1.082 150 16 0
1.6569999 0.294 1.084 150 16 0
1.655 0.292 1.086 150 16 0
1.654 0.28999999 1.0880001 150 16 0
1.651 0.28799999 1.089 150 16 0
1.648 0.28600001 1.09 150 16 0
1.642 0.28299999 1.089 150 16 0
1.642 0.28200001 1.091 150 16 0
1.641 0.28 1.0930001 150 16 0
1.6390001 0.278 1.094 150 16 0
1.638 0.27599999 1.096 150 16 0
1.637 0.27399999 1.098 150 16 0
1.631 0.27200001 1.096 150 16 0
1.631 0.27000001 1.098 150 16 0
1.63 0.26800001 1.1 150 16 0
1.627 0.266 1.1 150 16 0
1.628 0.264 1.103 150 16 0
1.627 0.26199999 1.103 150 16 0
1.6160001 0.25799999 1.098 150 18 0
1.617 0.25600001 1.1 150 16 0
1.615 0.25400001 1.101 150 16 0
1.614 0.252 1.101 150 16 0
1.615 0.25 1.103 150 16 0
1.613 0.248 1.104 150 16 0
1.613 0.24600001 1.105 150 16 0
1.613 0.244 1.105 150 16 0
1.6109999 0.241 1.105 150 16 0
1.61 0.23899999 1.1059999 150 16 0
1.609 0.237 1.1059999 150 16 0
1.602 0.234 1.102 150 19 0
1.605 0.23199999 1.105 150 16 0
1.604 0.23 1.105 150 16 0
1.605 0.227 1.1059999 150 16 0
1.6059999 0.22499999 1.107 150 16 0
1.605 0.223 1.107 150 16 0
1.604 0.221 1.107 150 16 0
1.602 0.21799999 1.105 150 16 0
1.604 0.21600001 1.107 150 16 0
1.605 0.214 1.107 150 16 0
1.605 0.212 1.107 150 16 0
1.602 0.20900001 1.105 150 16 0
1.605 0.207 1.108 150 16 0
1.604 0.204 1.1059999 150 16 0
1.603 0.20200001 1.105 150 16 0
1.6059999 0.2 1.107 150 16 0
1.609 0.198 1.108 150 16 0
1.6059999 0.19499999 1.105 150 16 0
1.6059999 0.193 1.105 150 16 0
1.61 0.191 1.107 150 16 0
1.608 0.18799999 1.104 150 16 0
1.6109999 0.186 1.105 150 16 0
1.6109999 0.184 1.105 150 16 0
1.613 0.18099999 1.105 150 16 0
1.614 0.17900001 1.104 150 16 0
1.614 0.177 1.102 150 16 0
1.615 0.17399999 1.102 150 16 0
1.6160001 0.17200001 1.101 150 16 0
1.617 0.17 1.1 150 16 0
1.618 0.167 1.099 150 16 0
1.622 0.16500001 1.1 150 16 0
1.624 0.163 1.1 150 16 0
1.6210001 0.16 1.096 150 16 0
1.627 0.15800001 1.098 150 16 0
1.627 0.156 1.096 150 16 0
1.631 0.153 1.096 150 16 0
1.633 0.15099999 1.095 150 16 0
1.633 0.149 1.0930001 150 16 0
1.636 0.147 1.0930001 150 16 0
1.647 0.145 1.097 150 19 0
1.646 0.142 1.094 150 16 0
1.649 0.14 1.0930001 150 16 0
1.654 0.138 1.094 150 16 0
1.655 0.13600001 1.092 150 16 0
1.6569999 0.133 1.091 150 16 0
1.658 0.131 1.0880001 150 16 0
1.6619999 0.12899999 1.0880001 150 16 0
1.663 0.127 1.086 150 16 0
1.6670001 0.124 1.085 150 16 0
1.669 0.122 1.0829999 150 16 0
1.671 0.12 1.081 150 16 0
1.6720001 0.118 1.0779999 150 16 0
1.679 0.116 1.079 150 16 0
1.681 0.113 1.077 150 16 0
1.682 0.111 1.074 150 16 0
1.688 0.109 1.074 150 16 0
1.691 0.107 1.072 150 16 0
1.692 0.104 1.069 150 16 0
1.7 0.103 1.0700001 150 16 0
1.7029999 0.101 1.069 150 16 0
1.706 0.097999997 1.066 150 16 0
1.71 0.096000001 1.0650001 150 16 0
1.71 0.093999997 1.061 150 16 0
1.72 0.092 1.063 150 16 0
1.725 0.090000004 1.061 150 16 0
1.724 0.088 1.057 150 16 0
1.729 0.086000003 1.0549999 150 16 0
1.735 0.083999999 1.0549999 150 16 0
1.738 0.082000002 1.052 150 16 0
1.7460001 0.079999998 1.052 150 16 0
1.7460001 0.078000002 1.0470001 150 16 0
1.7539999 0.075999998 1.048 150 16 0
1.756 0.074000001 1.044 150 16 0
1.7589999 0.071999997 1.041 150 16 0
1.763 0.07 1.039 150 16 0
1.768 0.068000004 1.0369999 150 16 0
1.772 0.066 1.035 150 16 0
1.771 0.064000003 1.029 150 16 0
1.777 0.061999999 1.027 150 16 0
1.7970001 0.061000001 1.034 150 18 0
1.8 0.059 1.03 150 16 0
1.804 0.057 1.028 150 16 0
1.811 0.055 1.026 150 16 0
1.816 0.052999999 1.024 150 16 0
1.824 0.050999999 1.023 150 16 0
1.832 0.050000001 1.022 150 16 0
1.835 0.048 1.018 150 16 0
1.842 0.046 1.016 150 16 0
1.848 0.044 1.0140001 150 16 0
1.851 0.043000001 1.01 150 16 0
1.855 0.041000001 1.007 150 16 0
1.863 0.039000001 1.005 150 16 0
1.87 0.037 1.003 150 16 0
1.872 0.035999998 0.99900001 150 16 0
1.881 0.034000002 0.99699998 150 16 0
1.887 0.032000002 0.995 150 16 0
1.899 0.030999999 0.995 150 16 0
1.903 0.028999999 0.991 150 16 0
1.909 0.028000001 0.98900002 150 16 0
1.915 0.026000001 0.98500001 150 16 0
1.918 0.024 0.98100001 150 16 0
1.928 0.023 0.98000002 150 16 0
1.939 0.021 0.97899997 150 16 0
1.941 0.02 0.97399998 150 16 0
1.952 0.017999999 0.97299999 150 16 0
1.956 0.017000001 0.96899998 150 16 0
1.9630001 0.015 0.96600002 150 16 0
1.971 0.014 0.96399999 150 16 0
1.975 0.012 0.95899999 150 16 0
1.983 0.011 0.95599997 150 16 0
1.992 0.0089999996 0.954 150 16 0
1.999 0.0080000004 0.95099998 150 16 0
2.0039999 0.0070000002 0.94700003 150 16 0
2.0090001 0.0049999999 0.94199997 150 16 0
2.0239999 0.0040000002 0.94199997 150 16 0
2.033 0.0020000001 0.94 142 16 0
2.0409999 0.001 0.93699998 139 16 0
2.0450001 0 0.93199998 148 16 0
2.0569999 -0.001 0.93099999 139 16 0
2.0650001 -0.0020000001 0.92699999 147 16 0
2.072 -0.003 0.92400002 137 16 0
2.0769999 -0.0040000002 0.91900003 150 16 0
2.0880001 -0.0060000001 0.917 134 16 0
2.0929999 -0.0070000002 0.912 132 16 0
2.1040001 -0.0080000004 0.91000003 136 16 0
2.1099999 -0.0089999996 0.90499997 131 16 0
2.118 -0.011 0.90200001 131 16 0
2.1270001 -0.012 0.89899999 126 16 0
2.1340001 -0.013 0.89399999 128 16 0
2.1440001 -0.014 0.89099997 132 16 0
2.1500001 -0.015 0.88599998 128 16 0
2.1600001 -0.016000001 0.88300002 123 16 0
2.1689999 -0.017000001 0.87900001 121 16 0
2.175 -0.017999999 0.875 127 16 0
2.1860001 -0.018999999 0.87199998 133 16 0
2.198 -0.02 0.86900002 121 16 0
2.207 -0.021 0.86500001 124 16 0
2.2130001 -0.022 0.86000001 122 16 0
2.227 -0.023 0.85799998 124 16 0
2.233 -0.024 0.852 115 16 0
2.24 -0.025 0.84799999 100 16 0
2.2479999 -0.026000001 0.84299999 127 16 0
2.257 -0.027000001 0.83899999 119 16 0
2.2750001 -0.028000001 0.838 127 16 0
2.2809999 -0.028999999 0.83200002 122 16 0
2.289 -0.029999999 0.82700002 118 16 0
2.2950001 -0.030999999 0.82099998 106 16 0
2.3069999 -0.030999999 0.81800002 109 16 0
2.3180001 -0.032000002 0.81400001 110 16 0
2.329 -0.033 0.81 112 16 0
2.3399999 -0.034000002 0.80599999 110 16 0
2.3469999 -0.035 0.801 112 16 0
2.362 -0.035 0.79799998 121 16 0
2.3699999 -0.035999998 0.792 128 16 0
2.3759999 -0.037 0.78600001 119 16 0
2.388 -0.037 0.78200001 117 16 0
2.3940001 -0.037999999 0.77600002 117 16 0
2.4030001 -0.039000001 0.77100003 118 16 0
2.4189999 -0.039000001 0.76800001 138 16 0
2.428 -0.039999999 0.76200002 103 16 0
2.438 -0.041000001 0.75700003 121 16 0
2.444 -0.041000001 0.75099999 113 16 0
2.457 -0.041999999 0.74699998 135 16 0
2.4719999 -0.041999999 0.74299997 115 16 0
2.48 -0.043000001 0.73699999 109 16 0
2.493 -0.043000001 0.73199999 123 16 0
2.506 -0.044 0.72799999 106 16 0
2.5139999 -0.044 0.72100002 104 16 0
2.529 -0.045000002 0.71700001 74 16 0
2.539 -0.045000002 0.71200001 60 16 0
2.549 -0.046 0.70599997 68 16 0
2.5650001 -0.046 0.70200002 53 16 0
2.576 -0.046999998 0.69599998 58 16 0
2.5910001 -0.046999998 0.69099998 60 16 0
2.605 -0.046999998 0.68599999 61 16 0
2.619 -0.048 0.68099999 51 16 0
2.635 -0.048 0.67699999 43 16 0
2.6470001 -0.048 0.671 34 16 0
2.6559999 -0.048999999 0.66399997 34 16 0
2.6700001 -0.048999999 0.65899998 33 16 0
2.684 -0.048999999 0.653 32 16 0
2.6889999 -0.048999999 0.64499998 34 16 0
2.704 -0.048999999 0.63999999 34 16 0
2.7179999 -0.050000001 0.634 34 16 0
2.7290001 -0.050000001 0.62800002 32 16 0
2.7460001 -0.050000001 0.62300003 32 16 0
2.757 -0.050000001 0.616 32 16 0
2.77 -0.050000001 0.60900003 32 16 0
2.786 -0.050000001 0.60399997 33 16 0
2.7969999 -0.050000001 0.597 34 16 0
2.8150001 -0.050000001 0.59100002 31 16 0
2.829 -0.050000001 0.58499998 33 16 0
2.842 -0.050000001 0.57800001 29 16 0
2.8570001 -0.050000001 0.57200003 26 16 0
2.8740001 -0.050000001 0.56599998 29 16 0
2.8870001 -0.050000001 0.55900002 32 16 0
2.8970001 -0.050000001 0.551 30 16 0
2.9230001 -0.050000001 0.546 31 16 0
2.938 -0.050000001 0.53899997 30 16 0
2.947 -0.050000001 0.53100002 30 16 0
2.9649999 -0.050000001 0.52499998 30 16 0
2.9849999 -0.050000001 0.51899999 31 16 0
2.9909999 -0.048999999 0.50999999 31 16 0
3.016 -0.048999999 0.50400001 32 16 0
3.0320001 -0.048999999 0.49700001 30 16 0
3.0420001 -0.048999999 0.48899999 30 16 0
3.0680001 -0.048999999 0.48300001 32 16 0
3.0769999 -0.048 0.47400001 30 16 0
3.096 -0.048 0.46700001 30 16 0
3.1159999 -0.048 0.46000001 30 16 0
3.135 -0.046999998 0.45199999 33 16 0
3.1489999 -0.046999998 0.44400001 31 16 0
3.171 -0.046 0.43599999 32 16 0
3.191 -0.046 0.42899999 29 16 0
3.2049999 -0.045000002 0.41999999 29 16 0
3.2290001 -0.045000002 0.41299999 29 16 0
3.2460001 -0.044 0.40400001 30 16 0
3.26 -0.044 0.396 29 16 0
3.2850001 -0.043000001 0.38800001 28 16 0
3.306 -0.043000001 0.38 29 16 0
3.3210001 -0.041999999 0.37 29 16 0
3.3440001 -0.041000001 0.36199999 30 16 0
3.3629999 -0.041000001 0.35299999 29 16 0
3.3770001 -0.039999999 0.34400001 31 16 0
3.398 -0.039000001 0.33500001 58 16 0
3.4000001 -0.037999999 0.324 63 16 0
3.391 -0.037 0.31200001 62 16 0
3.3859999 -0.035999998 0.301 58 16 0
3.3789999 -0.035 0.289 72 16 0
3.372 -0.034000002 0.278 57 16 0
3.3710001 -0.033 0.26699999 58 16 0
3.3629999 -0.030999999 0.255 65 16 0
3.355 -0.029999999 0.244 60 16 0
3.3529999 -0.028999999 0.233 67 16 0
3.345 -0.028000001 0.221 72 16 0
3.3380001 -0.026000001 0.20999999 83 16 0
3.3299999 -0.025 0.199 73 16 0
3.326 -0.024 0.18799999 68 16 0
3.323 -0.023 0.177 83 16 0
3.3150001 -0.021 0.16599999 102 16 0
3.306 -0.02 0.155 103 16 0
3.303 -0.018999999 0.14399999 99 16 0
3.3 -0.017000001 0.133 109 16 0
3.2950001 -0.016000001 0.123 103 16 0
3.293 -0.015 0.112 53 16 0
3.2880001 -0.013 0.101 31 16 0
3.29 -0.012 0.090999998 23 16 0
3.2809999 -0.011 0.079999998 20 16 0
3.289 -0.0089999996 0.07 18 16 0
3.2909999 -0.0080000004 0.059 16 16 0
3.286 -0.0060000001 0.048 16 16 0
3.286 -0.0049999999 0.037999999 16 16 0
3.2850001 -0.003 0.027000001 16 16 0
3.279 -0.0020000001 0.017000001 16 16 0
3.286 0 0.0060000001 16 16 0
3.279 0 -0.003 16 16 0
3.2780001 0.0020000001 -0.014 16 16 0
3.2780001 0.003 -0.024 15 16 0
3.279 0.0049999999 -0.035 16 16 0
3.2780001 0.0060000001 -0.045000002 17 16 0
3.2750001 0.0080000004 -0.056000002 17 16 0
3.277 0.0099999998 -0.066 17 16 0
3.2720001 0.011 -0.077 17 16 0
3.2709999 0.013 -0.086999997 18 16 0
3.2750001 0.015 -0.097999997 19 16 0
3.2780001 0.016000001 -0.108 21 16 0
3.2739999 0.017999999 -0.119 24 16 0
3.2739999 0.02 -0.12899999 30 16 0
3.27 0.021 -0.139 36 16 0
3.2620001 0.023 -0.15000001 43 16 0
3.2620001 0.025 -0.16 48 16 0
3.2509999 0.027000001 -0.17 51 16 0
3.25 0.028999999 -0.18000001 53 16 0
