# .PCD v0.7 - Point Cloud Data file format
VERSION 0.7
FIELDS x y z intensity tag line
SIZE 4 4 4 4 1 1
TYPE F F F F U U
COUNT 1 1 1 1 1 1
WIDTH 1360
HEIGHT 1
VIEWPOINT 0 0 0 1 0 0 0
POINTS 1360
DATA ascii
2.845 0.189 -0.86900002 128 16 0
2.8369999 0.191 -0.87599999 132 16 0
2.8340001 0.19400001 -0.884 126 16 0
2.8299999 0.197 -0.89200002 150 16 0
2.823 0.2 -0.89899999 145 16 0
2.8199999 0.20299999 -0.90700001 149 16 0
2.8169999 0.205 -0.91500002 150 16 0
2.809 0.208 -0.921 150 16 0
2.806 0.211 -0.93000001 131 16 0
2.799 0.214 -0.93599999 150 16 0
2.796 0.21699999 -0.94400001 150 16 0
2.7920001 0.22 -0.95200002 150 16 0
2.789 0.223 -0.95899999 144 16 0
2.783 0.22499999 -0.96600002 138 16 0
2.78 0.229 -0.97399998 134 16 0
2.7820001 0.23199999 -0.98400003 27 16 0
2.7920001 0.236 -0.99599999 14 16 0
3.0469999 0.26199999 -1.097 0 17 0
3.029 0.264 -1.1 0 16 0
3.0120001 0.266 -1.103 0 16 0
3.0510001 0.273 -1.127 0 18 0
3.039 0.27599999 -1.133 0 16 0
3.0699999 0.28299999 -1.154 0 18 0
3.119 0.29100001 -1.182 0 16 0
3.0369999 0.28799999 -1.161 0 16 0
3.0220001 0.28999999 -1.164 0 16 0
0 0 0 0 16 0
2.7320001 0.26899999 -1.0700001 72 17 0
2.717 0.27200001 -1.072 105 16 0
2.7090001 0.27399999 -1.0779999 144 16 0
2.701 0.27700001 -1.0829999 144 16 0
2.697 0.28099999 -1.09 149 16 0
2.694 0.28400001 -1.097 150 16 0
2.691 0.287 -1.104 150 16 0
2.6849999 0.29100001 -1.11 150 16 0
2.678 0.294 -1.1160001 150 16 0
2.675 0.29699999 -1.122 145 16 0
2.6719999 0.30000001 -1.1289999 137 16 0
2.6670001 0.30399999 -1.135 150 16 0
2.6630001 0.30700001 -1.142 150 16 0
2.6589999 0.31099999 -1.148 150 16 0
2.6559999 0.31400001 -1.155 150 16 0
2.651 0.31799999 -1.161 150 16 0
2.642 0.31999999 -1.165 150 16 0
2.6389999 0.324 -1.1720001 150 16 0
2.632 0.32699999 -1.177 150 16 0
2.6389999 0.33199999 -1.188 150 16 0
2.625 0.33399999 -1.189 150 16 0
2.615 0.33700001 -1.193 150 16 0
2.618 0.34200001 -1.202 150 16 0
2.6140001 0.345 -1.2079999 150 16 0
2.6040001 0.34799999 -1.211 150 16 0
2.598 0.35100001 -1.216 150 16 0
2.595 0.35499999 -1.222 150 16 0
2.5929999 0.359 -1.228 150 16 0
2.5880001 0.36300001 -1.234 150 16 0
2.589 0.36700001 -1.242 150 16 0
2.5799999 0.37 -1.245 150 16 0
2.5769999 0.37400001 -1.251 150 16 0
2.572 0.377 -1.256 150 16 0
2.5699999 0.38100001 -1.262 150 16 0
2.563 0.38499999 -1.266 150 16 0
2.5580001 0.38800001 -1.271 150 16 0
2.556 0.39199999 -1.277 150 16 0
2.553 0.396 -1.2819999 150 16 0
2.5469999 0.40000001 -1.286 150 16 0
2.5439999 0.403 -1.2920001 150 16 0
2.54 0.40700001 -1.2970001 150 16 0
2.5369999 0.41100001 -1.302 150 16 0
2.529 0.41499999 -1.3049999 150 16 0
2.526 0.41800001 -1.3099999 150 16 0
2.5209999 0.42199999 -1.314 150 16 0
2.523 0.42699999 -1.322 150 16 0
2.516 0.43000001 -1.325 150 16 0
2.5109999 0.43399999 -1.329 150 16 0
2.5079999 0.43799999 -1.334 150 16 0
2.507 0.442 -1.339 150 16 0
2.497 0.44499999 -1.341 150 16 0
2.494 0.449 -1.345 150 16 0
2.4879999 0.45300001 -1.348 150 16 0
2.484 0.45699999 -1.352 150 16 0
2.4849999 0.461 -1.359 150 16 0
2.4779999 0.465 -1.3609999 150 16 0
2.4749999 0.46900001 -1.365 150 16 0
2.4719999 0.47299999 -1.37 150 16 0
2.4690001 0.477 -1.374 150 16 0
2.4649999 0.48100001 -1.377 147 16 0
2.4630001 0.48500001 -1.382 150 16 0
2.4590001 0.48899999 -1.385 147 16 0
2.4460001 0.491 -1.3839999 150 16 0
2.451 0.49700001 -1.392 150 16 0
2.447 0.50099999 -1.395 147 16 0
2.4419999 0.50400001 -1.397 150 16 0
2.4349999 0.50700003 -1.398 137 16 0
2.4319999 0.51099998 -1.402 150 16 0
2.4289999 0.51499999 -1.405 146 16 0
2.4260001 0.51999998 -1.409 149 16 0
2.424 0.52399999 -1.4119999 150 16 0
2.421 0.528 -1.415 138 16 0
2.418 0.53200001 -1.418 145 16 0
2.4089999 0.53399998 -1.418 148 16 0
2.4089999 0.53899997 -1.4220001 150 16 0
2.4100001 0.54400003 -1.427 139 16 0
2.402 0.54699999 -1.426 142 16 0
2.401 0.551 -1.4299999 141 16 0
2.4000001 0.55599999 -1.434 146 16 0
2.392 0.55900002 -1.433 143 16 0
2.3870001 0.56199998 -1.434 140 16 0
2.3889999 0.56699997 -1.439 143 16 0
2.3800001 0.56900001 -1.438 150 16 0
2.3829999 0.57499999 -1.443 150 16 0
2.3789999 0.57800001 -1.444 150 16 0
2.3729999 0.58099997 -1.444 150 16 0
2.3729999 0.58600003 -1.448 150 16 0
2.369 0.58899999 -1.448 148 16 0
2.3670001 0.59299999 -1.45 147 16 0
2.365 0.597 -1.452 145 16 0
2.3629999 0.60100001 -1.4529999 146 16 0
2.3610001 0.60500002 -1.455 144 16 0
2.3570001 0.60900003 -1.456 150 16 0
2.3570001 0.61299998 -1.4579999 150 16 0
2.352 0.616 -1.4579999 147 16 0
2.3499999 0.62 -1.459 146 16 0
2.349 0.62400001 -1.46 149 16 0
2.3469999 0.62800002 -1.462 150 16 0
2.345 0.63200003 -1.4630001 146 16 0
2.3440001 0.63599998 -1.464 150 16 0
2.3369999 0.63800001 -1.461 137 16 0
2.335 0.64200002 -1.462 143 16 0
2.336 0.64600003 -1.464 148 16 0
2.3329999 0.64899999 -1.464 142 16 0
2.3340001 0.65399998 -1.466 147 16 0
2.3280001 0.65600002 -1.464 150 16 0
2.3310001 0.66100001 -1.467 150 16 0
2.3269999 0.66399997 -1.465 141 16 0
2.326 0.66799998 -1.466 145 16 0
2.325 0.671 -1.466 149 16 0
2.3210001 0.67400002 -1.464 136 16 0
2.3210001 0.67799997 -1.465 140 16 0
2.316 0.68000001 -1.462 145 16 0
2.319 0.685 -1.465 150 16 0
2.3180001 0.68800002 -1.464 150 16 0
2.3139999 0.69 -1.461 150 16 0
2.309 0.69300002 -1.4579999 150 16 0
2.312 0.69700003 -1.461 150 16 0
2.3069999 0.699 -1.457 150 16 0
2.3080001 0.70300001 -1.4579999 150 16 0
2.302 0.70499998 -1.4529999 150 16 0
2.302 0.708 -1.4529999 150 16 0
2.3069999 0.713 -1.455 150 16 0
2.3069999 0.71600002 -1.454 150 16 0
2.306 0.71899998 -1.4529999 150 16 0
2.2969999 0.71899998 -1.446 150 19 0
2.303 0.72399998 -1.449 150 16 0
2.2969999 0.72500002 -1.444 150 16 0
2.3010001 0.72899997 -1.4450001 150 16 0
2.296 0.73100001 -1.441 150 16 0
2.2969999 0.73400003 -1.4400001 150 16 0
2.296 0.736 -1.438 150 16 0
2.296 0.73900002 -1.436 150 16 0
2.296 0.74199998 -1.434 150 16 0
2.2969999 0.745 -1.432 150 16 0
2.2920001 0.74599999 -1.427 150 16 0
2.293 0.74900001 -1.426 150 16 0
2.296 0.75199997 -1.425 150 16 0
2.2969999 0.755 -1.423 150 16 0
2.293 0.75599998 -1.418 150 16 0
2.2950001 0.75800002 -1.4170001 150 16 0
2.296 0.76099998 -1.415 150 16 0
2.2950001 0.76300001 -1.411 150 16 0
2.2969999 0.76499999 -1.409 150 16 0
2.3 0.76800001 -1.408 150 16 0
2.296 0.76899999 -1.403 150 16 0
2.2969999 0.77100003 -1.4 150 16 0
2.299 0.77399999 -1.398 150 16 0
2.2980001 0.77499998 -1.3940001 150 16 0
2.299 0.77700001 -1.391 150 16 0
2.3 0.77899998 -1.388 150 16 0
2.3010001 0.78100002 -1.385 150 16 0
2.303 0.78299999 -1.382 150 16 0
2.3039999 0.78500003 -1.378 150 16 0
2.3050001 0.78600001 -1.375 150 16 0
2.3069999 0.78799999 -1.372 150 16 0
2.3080001 0.79000002 -1.369 150 16 0
2.3039999 0.78899997 -1.362 150 16 0
2.3110001 0.79299998 -1.362 150 16 0
2.309 0.79299998 -1.3559999 150 16 0
2.3080001 0.79299998 -1.351 150 16 0
2.3099999 0.79500002 -1.347 150 16 0
2.3139999 0.79699999 -1.345 150 16 0
2.3069999 0.79500002 -1.336 150 16 0
2.309 0.79699999 -1.332 150 16 0
2.3110001 0.79799998 -1.3279999 150 16 0
2.312 0.79799998 -1.324 150 16 0
2.3150001 0.80000001 -1.3200001 150 16 0
2.316 0.801 -1.316 150 16 0
2.3180001 0.801 -1.311 150 16 0
2.3199999 0.80199999 -1.307 150 16 0
2.3239999 0.80400002 -1.304 150 16 0
2.323 0.80299997 -1.298 150 16 0
2.3269999 0.80500001 -1.294 150 16 0
2.329 0.80500001 -1.29 150 16 0
2.329 0.80500001 -1.285 150 16 0
2.332 0.80599999 -1.28 150 16 0
2.3340001 0.80599999 -1.275 150 16 0
2.336 0.80599999 -1.271 150 16 0
2.3369999 0.80599999 -1.265 150 16 0
2.3429999 0.80800003 -1.262 150 16 0
2.3440001 0.80699998 -1.257 150 16 0
2.345 0.80699998 -1.252 150 16 0
2.348 0.80699998 -1.247 150 16 0
2.348 0.80599999 -1.24 150 16 0
2.355 0.80800003 -1.238 150 16 0
2.3559999 0.80699998 -1.232 150 16 0
2.359 0.80699998 -1.227 150 16 0
2.362 0.80699998 -1.222 150 16 0
2.3640001 0.80699998 -1.217 150 16 0
2.3640001 0.80599999 -1.21 150 16 0
2.3699999 0.80599999 -1.207 150 16 0
2.3740001 0.80599999 -1.202 150 16 0
2.375 0.80500001 -1.196 150 16 0
2.378 0.80500001 -1.191 150 16 0
2.381 0.80400002 -1.1849999 150 16 0
2.3829999 0.80400002 -1.1799999 150 16 0
2.3870001 0.80299997 -1.175 150 16 0
2.391 0.80299997 -1.17 150 16 0
2.3929999 0.80199999 -1.164 150 16 0
2.3970001 0.801 -1.159 150 16 0
2.3970001 0.79900002 -1.152 150 16 0
2.401 0.79900002 -1.147 150 16 0
2.4059999 0.79799998 -1.142 150 16 0
2.4089999 0.79699999 -1.136 150 16 0
2.4119999 0.796 -1.131 150 16 0
2.4159999 0.79500002 -1.125 150 16 0
2.4159999 0.79299998 -1.118 150 16 0
2.4200001 0.792 -1.113 150 16 0
2.424 0.79100001 -1.108 150 16 0
2.427 0.78899997 -1.102 150 16 0
2.4289999 0.787 -1.095 150 16 0
2.434 0.78600001 -1.09 150 16 0
2.438 0.78500003 -1.085 150 16 0
2.438 0.78299999 -1.077 150 16 0
2.4430001 0.78100002 -1.072 150 16 0
2.4449999 0.77899998 -1.066 150 16 0
2.45 0.778 -1.0599999 150 16 0
2.454 0.77600002 -1.0549999 150 16 0
2.4579999 0.77499998 -1.049 150 16 0
2.4590001 0.77200001 -1.0420001 150 16 0
2.4660001 0.77100003 -1.0369999 150 16 0
2.467 0.76899999 -1.031 150 16 0
2.471 0.76599997 -1.024 150 16 0
2.4760001 0.76499999 -1.0190001 150 16 0
2.4820001 0.76300001 -1.0140001 150 16 0
2.4820001 0.75999999 -1.007 150 16 0
2.483 0.75700003 -0.99900001 150 16 0
2.4920001 0.75700003 -0.99599999 150 16 0
2.493 0.75400001 -0.98799998 150 16 0
2.5050001 0.75400001 -0.98500001 32 16 0
2.5009999 0.74900001 -0.97600001 2 16 0
2.596 0.77399999 -1.005 0 17 0
2.586 0.76700002 -0.99400002 0 16 0
2.612 0.77100003 -0.99599999 0 16 0
2.6040001 0.76499999 -0.98500001 0 16 0
2.6070001 0.76200002 -0.97799999 0 16 0
2.6059999 0.75800002 -0.97000003 0 16 0
2.609 0.755 -0.963 0 16 0
2.6210001 0.75400001 -0.95999998 0 16 0
2.6389999 0.755 -0.958 0 16 0
2.6359999 0.75099999 -0.949 0 16 0
2.619 0.74199998 -0.935 0 16 0
2.5669999 0.72299999 -0.90899998 3 16 0
2.563 0.71799999 -0.89999998 30 16 0
2.5650001 0.71399999 -0.89300001 150 16 0
2.559 0.708 -0.88300002 150 16 0
2.572 0.708 -0.88 150 16 0
2.5739999 0.704 -0.87300003 150 16 0
2.5840001 0.70300001 -0.86900002 150 16 0
2.5810001 0.69800001 -0.86000001 150 16 0
2.5840001 0.69400001 -0.85299999 150 16 0
2.592 0.69199997 -0.84799999 150 16 0
2.5969999 0.68900001 -0.84200001 150 16 0
2.602 0.68599999 -0.83600003 150 16 0
2.6059999 0.68199998 -0.82999998 150 16 0
2.609 0.67900002 -0.82300001 150 16 0
2.6170001 0.676 -0.81800002 150 16 0
2.6199999 0.67199999 -0.81099999 150 16 0
2.6229999 0.66900003 -0.80400002 150 16 0
2.6259999 0.66500002 -0.79799998 150 16 0
2.631 0.66100001 -0.792 150 16 0
2.632 0.65700001 -0.78399998 150 16 0
2.6389999 0.65399998 -0.77899998 150 16 0
2.6470001 0.65100002 -0.773 150 16 0
2.6500001 0.64700001 -0.76599997 150 16 0
2.6570001 0.64399999 -0.76099998 150 16 0
2.665 0.64099997 -0.755 150 16 0
2.665 0.63599998 -0.74800003 150 16 0
2.668 0.63200003 -0.741 150 16 0
2.678 0.62900001 -0.736 150 16 0
2.6819999 0.625 -0.73000002 150 16 0
2.6830001 0.62 -0.722 150 16 0
2.691 0.61699998 -0.71700001 150 16 0
2.6949999 0.61299998 -0.70999998 150 16 0
2.698 0.60900003 -0.70300001 150 16 0
2.704 0.60500002 -0.69700003 150 16 0
2.7079999 0.60000002 -0.69099998 150 16 0
2.7130001 0.59600002 -0.685 150 16 0
2.7190001 0.59200001 -0.67799997 150 16 0
2.721 0.588 -0.671 150 16 0
2.7290001 0.58399999 -0.66600001 150 16 0
2.73 0.579 -0.65799999 150 16 0
2.7390001 0.57599998 -0.653 150 16 0
2.7420001 0.57099998 -0.64600003 150 16 0
2.7460001 0.56599998 -0.639 150 16 0
2.757 0.56300002 -0.634 150 16 0
2.7609999 0.55800003 -0.62800002 150 16 0
2.766 0.55400002 -0.62099999 150 16 0
2.777 0.551 -0.616 150 16 0
2.78 0.546 -0.60900003 150 16 0
2.7820001 0.54000002 -0.602 150 16 0
2.786 0.53600001 -0.59600002 150 16 0
2.793 0.53100002 -0.58899999 150 16 0
2.7950001 0.52600002 -0.58200002 150 16 0
2.8 0.52100003 -0.57599998 150 16 0
2.8110001 0.51800001 -0.56999999 150 16 0
2.8110001 0.51200002 -0.56300002 150 16 0
2.822 0.50800002 -0.55800003 150 16 0
2.825 0.50300002 -0.551 150 16 0
2.8299999 0.498 -0.54400003 150 16 0
2.8329999 0.493 -0.537 150 16 0
2.839 0.48800001 -0.53100002 150 16 0
2.8510001 0.484 -0.52600002 150 16 0
2.855 0.479 -0.51899999 150 16 0
2.858 0.47400001 -0.51200002 150 16 0
2.8610001 0.46799999 -0.505 150 16 0
2.869 0.463 -0.49900001 150 16 0
2.8729999 0.458 -0.49200001 150 16 0
2.878 0.45300001 -0.486 150 16 0
2.882 0.447 -0.479 150 16 0
2.8840001 0.442 -0.472 150 16 0
2.8940001 0.43700001 -0.46599999 150 16 0
2.904 0.433 -0.46000001 150 16 0
2.9100001 0.42699999 -0.454 150 16 0
2.9130001 0.42199999 -0.447 150 16 0
2.9219999 0.417 -0.44100001 150 16 0
2.9300001 0.41100001 -0.43399999 150 16 0
2.9400001 0.40700001 -0.428 150 16 0
2.9430001 0.40099999 -0.421 150 16 0
2.9460001 0.39500001 -0.414 150 16 0
2.9519999 0.389 -0.40799999 150 16 0
2.9590001 0.384 -0.40099999 150 16 0
2.9619999 0.37799999 -0.39399999 150 16 0
2.971 0.373 -0.38800001 150 16 0
2.9749999 0.36700001 -0.38100001 150 16 0
2.9860001 0.36199999 -0.375 150 16 0
2.99 0.35600001 -0.368 150 16 0
2.9909999 0.34900001 -0.361 150 16 0
3 0.34400001 -0.354 150 16 0
3.0039999 0.338 -0.347 150 16 0
3.007 0.331 -0.34099999 150 16 0
3.017 0.32600001 -0.33399999 150 16 0
3.0209999 0.31999999 -0.32699999 150 16 0
3.0280001 0.31400001 -0.32100001 150 16 0
3.0339999 0.308 -0.31400001 150 16 0
3.0350001 0.301 -0.30700001 150 16 0
3.046 0.296 -0.30000001 150 16 0
3.056 0.28999999 -0.294 150 16 0
3.0580001 0.28299999 -0.287 150 16 0
3.063 0.27700001 -0.28 150 16 0
3.069 0.271 -0.273 150 16 0
3.075 0.264 -0.266 150 16 0
3.0810001 0.25799999 -0.259 150 16 0
3.092 0.252 -0.25299999 150 16 0
3.098 0.24600001 -0.24600001 150 16 0
3.1029999 0.23899999 -0.23899999 150 16 0
3.108 0.233 -0.23199999 150 16 0
3.1229999 0.227 -0.226 150 16 0
3.1259999 0.22 -0.219 144 16 0
3.1270001 0.213 -0.211 138 16 0
3.1370001 0.207 -0.205 150 16 0
3.1459999 0.2 -0.198 150 16 0
3.151 0.193 -0.191 150 16 0
3.1600001 0.18700001 -0.184 150 16 0
3.1659999 0.18000001 -0.177 150 16 0
3.174 0.17299999 -0.17 150 16 0
3.1800001 0.16599999 -0.163 150 16 0
3.1860001 0.15899999 -0.156 147 16 0
3.191 0.152 -0.149 131 16 0
3.204 0.146 -0.142 139 16 0
3.21 0.138 -0.13500001 135 16 0
3.22 0.132 -0.12800001 139 16 0
3.2249999 0.124 -0.121 133 16 0
3.23 0.117 -0.113 140 16 0
3.2420001 0.11 -0.106 137 16 0
3.2479999 0.103 -0.098999999 150 16 0
3.2509999 0.094999999 -0.092 129 16 0
3.2579999 0.088 -0.085000001 98 16 0
3.2620001 0.081 -0.077 105 16 0
3.2709999 0.072999999 -0.07 87 16 0
3.2820001 0.066 -0.063000001 70 16 0
3.2880001 0.057999998 -0.056000002 49 16 0
3.29 0.050999999 -0.048 62 16 0
3.2980001 0.043000001 -0.041000001 96 16 0
3.3039999 0.035999998 -0.034000002 93 16 0
3.3150001 0.028000001 -0.026000001 42 16 0
3.3080001 0.02 -0.018999999 22 16 0
3.296 0.012 -0.012 19 16 0
3.279 0.0040000002 -0.0040000002 19 16 0
3.2650001 -0.0020000001 0.0020000001 18 16 0
3.2509999 -0.0099999998 0.0089999996 26 16 0
3.253 -0.017999999 0.016000001 85 16 0
3.266 -0.025 0.024 150 16 0
3.2690001 -0.033 0.030999999 150 16 0
3.2750001 -0.041000001 0.037999999 150 16 0
3.2869999 -0.048999999 0.046 150 16 0
3.293 -0.057 0.052999999 150 16 0
3.2939999 -0.064999998 0.059999999 148 16 0
3.289 -0.072999999 0.067000002 36 16 0
3.2739999 -0.079999998 0.074000001 33 16 0
3.2609999 -0.088 0.081 33 16 0
3.2449999 -0.094999999 0.088 34 16 0
3.233 -0.102 0.093999997 34 16 0
3.2190001 -0.11 0.101 34 16 0
3.2060001 -0.117 0.107 31 16 0
3.1949999 -0.124 0.114 33 16 0
3.175 -0.131 0.12 32 16 0
3.1630001 -0.138 0.126 32 16 0
3.1459999 -0.145 0.133 32 16 0
3.1359999 -0.153 0.139 31 16 0
3.1199999 -0.15899999 0.145 30 16 0
3.109 -0.16599999 0.15099999 31 16 0
3.0929999 -0.17299999 0.15700001 30 16 0
3.0829999 -0.18000001 0.163 31 16 0
3.069 -0.18700001 0.168 32 16 0
3.0569999 -0.19400001 0.17399999 32 16 0
3.0469999 -0.2 0.18000001 31 16 0
3.0320001 -0.207 0.186 33 16 0
3.0120001 -0.213 0.191 32 16 0
2.9979999 -0.22 0.19599999 31 16 0
2.987 -0.226 0.20200001 31 16 0
2.977 -0.233 0.207 31 16 0
2.96 -0.23899999 0.212 31 16 0
2.9549999 -0.24600001 0.21799999 31 16 0
2.9360001 -0.252 0.223 31 16 0
2.9289999 -0.25799999 0.228 32 16 0
2.921 -0.26499999 0.234 32 16 0
2.8970001 -0.27000001 0.23800001 32 16 0
2.8929999 -0.27700001 0.244 34 16 0
2.8870001 -0.28400001 0.249 34 16 0
2.8670001 -0.289 0.25299999 33 16 0
2.859 -0.296 0.259 33 16 0
2.842 -0.301 0.26300001 36 16 0
2.835 -0.308 0.26800001 34 16 0
2.8199999 -0.31299999 0.27200001 34 16 0
2.8139999 -0.31999999 0.278 35 16 0
2.7969999 -0.32499999 0.28200001 34 16 0
2.7880001 -0.331 0.28600001 34 16 0
2.777 -0.33700001 0.29100001 34 16 0
2.767 -0.34299999 0.29499999 35 16 0
2.7550001 -0.34900001 0.30000001 35 16 0
2.7460001 -0.354 0.30399999 36 16 0
2.734 -0.36000001 0.30899999 37 16 0
2.723 -0.366 0.31299999 36 16 0
2.7130001 -0.37200001 0.317 38 16 0
2.7049999 -0.37799999 0.322 37 16 0
2.697 -0.38299999 0.32600001 48 16 0
2.6819999 -0.38800001 0.33000001 37 16 0
2.675 -0.39399999 0.33399999 39 16 0
2.6630001 -0.40000001 0.338 42 16 0
2.6530001 -0.405 0.34200001 56 16 0
2.6440001 -0.41100001 0.34599999 59 16 0
2.6289999 -0.41600001 0.34900001 45 16 0
2.6199999 -0.421 0.35299999 49 16 0
2.6070001 -0.426 0.35699999 49 16 0
2.6010001 -0.43200001 0.361 59 16 0
2.5929999 -0.43799999 0.36500001 63 16 0
2.5829999 -0.44299999 0.368 65 16 0
2.569 -0.44800001 0.37200001 57 16 0
2.5599999 -0.45300001 0.375 54 16 0
2.5469999 -0.45699999 0.37799999 57 16 0
2.5420001 -0.463 0.382 63 16 0
2.5339999 -0.46900001 0.38600001 64 16 0
2.5190001 -0.47299999 0.389 56 16 0
2.5079999 -0.47799999 0.39199999 61 16 0
2.5009999 -0.48300001 0.39500001 67 16 0
2.49 -0.48800001 0.398 63 16 0
2.4809999 -0.493 0.40200001 64 16 0
2.4690001 -0.49700001 0.40400001 64 16 0
2.4579999 -0.50199997 0.40700001 69 16 0
2.4560001 -0.50800002 0.412 71 16 0
2.4430001 -0.51200002 0.414 76 16 0
2.431 -0.51700002 0.417 74 16 0
2.418 -0.52100003 0.419 72 16 0
2.415 -0.52700001 0.42300001 74 16 0
2.408 -0.53200001 0.426 76 16 0
2.3989999 -0.537 0.42899999 82 16 0
2.3900001 -0.542 0.43200001 80 16 0
2.385 -0.54699999 0.435 80 16 0
2.368 -0.55000001 0.43700001 73 16 0
2.3599999 -0.55500001 0.43900001 75 16 0
2.352 -0.56 0.442 73 16 0
2.3410001 -0.56400001 0.44400001 85 16 0
2.335 -0.56900001 0.447 78 16 0
2.3239999 -0.57300001 0.449 89 16 0
2.312 -0.57700002 0.45100001 85 16 0
2.3039999 -0.58099997 0.454 87 16 0
2.2969999 -0.58600003 0.456 83 16 0
2.2839999 -0.58899999 0.458 86 16 0
2.2750001 -0.59299999 0.46000001 83 16 0
2.2679999 -0.59799999 0.463 86 16 0
2.2579999 -0.602 0.465 108 16 0
2.2520001 -0.60699999 0.46700001 100 16 0
2.243 -0.611 0.46900001 112 16 0
2.234 -0.61500001 0.47099999 112 16 0
2.221 -0.61799997 0.472 103 16 0
2.2179999 -0.62400001 0.47499999 112 16 0
2.204 -0.62699997 0.47600001 109 16 0
2.198 -0.63099998 0.479 119 16 0
2.187 -0.63499999 0.47999999 108 16 0
2.1800001 -0.639 0.48199999 110 16 0
2.1700001 -0.64300001 0.484 111 16 0
2.165 -0.648 0.486 126 16 0
2.1570001 -0.65100002 0.48800001 118 16 0
2.1489999 -0.65499997 0.48899999 123 16 0
2.1400001 -0.65899998 0.491 118 16 0
2.1340001 -0.66399997 0.493 115 16 0
2.1259999 -0.66799998 0.495 119 16 0
2.118 -0.671 0.49599999 125 16 0
2.108 -0.67500001 0.49700001 120 16 0
2.1029999 -0.68000001 0.49900001 132 16 0
2.0929999 -0.68300003 0.5 127 16 0
2.0840001 -0.68599999 0.50099999 133 16 0
2.0780001 -0.69 0.50300002 131 16 0
2.0699999 -0.69400001 0.50400001 134 16 0
2.0599999 -0.69700003 0.505 136 16 0
2.0569999 -0.70200002 0.50800002 144 16 0
2.0369999 -0.70200002 0.50599998 131 19 0
2.0350001 -0.70700002 0.50800002 135 16 0
2.023 -0.70899999 0.50800002 150 16 0
2.0190001 -0.71399999 0.50999999 150 16 0
2.0109999 -0.71700001 0.51099998 150 16 0
1.997 -0.71799999 0.51099998 150 16 0
1.995 -0.72399998 0.51300001 150 16 0
1.9910001 -0.72799999 0.514 150 16 0
1.979 -0.73000002 0.514 150 16 0
1.973 -0.73400003 0.51499999 150 16 0
1.965 -0.73699999 0.51599997 150 16 0
1.955 -0.74000001 0.51599997 150 16 0
1.9529999 -0.745 0.51800001 150 16 0
1.948 -0.74900001 0.51899999 150 16 0
1.936 -0.75 0.51899999 150 16 0
1.927 -0.75300002 0.51899999 150 16 0
1.925 -0.75800002 0.52100003 150 16 0
1.9119999 -0.759 0.51999998 150 16 0
1.905 -0.76200002 0.51999998 150 16 0
1.901 -0.76599997 0.52200001 150 16 0
1.89 -0.76800001 0.52100003 150 16 0
1.887 -0.77200001 0.523 150 16 0
1.881 -0.77600002 0.523 150 16 0
1.876 -0.77999997 0.52399999 150 16 0
1.8660001 -0.78100002 0.523 150 16 0
1.863 -0.78500003 0.52399999 150 16 0
1.854 -0.787 0.52399999 150 16 0
1.845 -0.78899997 0.52399999 150 16 0
1.841 -0.79299998 0.52499998 150 16 0
1.832 -0.79500002 0.52399999 150 16 0
1.816 -0.79400003 0.52100003 150 16 0
1.813 -0.79799998 0.52200001 150 16 0
1.808 -0.80199999 0.523 150 16 0
1.803 -0.80500001 0.523 150 16 0
1.799 -0.80900002 0.52399999 150 16 0
1.793 -0.81199998 0.52399999 150 16 0
1.784 -0.81300002 0.523 150 16 0
1.779 -0.81599998 0.523 150 16 0
1.776 -0.81999999 0.52399999 150 16 0
1.7690001 -0.82300001 0.52399999 150 16 0
1.768 -0.82700002 0.52499998 150 16 0
1.755 -0.82700002 0.52200001 150 16 0
1.7460001 -0.82800001 0.52100003 150 16 0
1.742 -0.83099997 0.52100003 150 16 0
1.735 -0.833 0.52100003 150 16 0
1.7309999 -0.83600003 0.52100003 150 16 0
1.727 -0.83999997 0.52100003 150 16 0
1.723 -0.84299999 0.52100003 2 0 0
1.7180001 -0.84600002 0.52100003 150 16 0
1.7130001 -0.84799999 0.51999998 3 0 0
1.702 -0.84799999 0.51800001 2 0 0
1.697 -0.85000002 0.51800001 3 0 0
1.6950001 -0.85399997 0.51800001 2 0 0
1.684 -0.85399997 0.51599997 3 0 0
1.6799999 -0.85699999 0.51599997 6 0 0
1.677 -0.86000001 0.51599997 4 0 0
1.669 -0.861 0.514 6 0 0
1.6670001 -0.86500001 0.514 70 0 0
1.664 -0.86699998 0.514 81 0 0
1.658 -0.86900002 0.51300001 6 0 0
1.652 -0.87099999 0.51200002 72 0 0
1.65 -0.87400001 0.51200002 94 0 0
1.64 -0.87400001 0.509 87 0 0
1.637 -0.87699997 0.509 108 0 0
1.633 -0.87900001 0.50800002 86 0 0
1.626 -0.87900001 0.50599998 108 0 0
1.622 -0.88200003 0.50599998 93 0 0
1.618 -0.884 0.505 126 0 0
1.613 -0.88499999 0.50300002 134 0 0
1.608 -0.88700002 0.50199997 135 0 0
1.6059999 -0.88999999 0.50199997 75 0 0
1.602 -0.89300001 0.50099999 77 0 0
1.597 -0.89399999 0.49900001 112 0 0
1.594 -0.89600003 0.498 112 0 0
1.589 -0.89700001 0.49700001 115 0 0
1.587 -0.89999998 0.49599999 126 0 0
1.585 -0.903 0.49599999 132 0 0
1.5829999 -0.90600002 0.495 106 0 0
1.572 -0.903 0.491 97 3 0
1.5650001 -0.903 0.48899999 123 0 0
1.564 -0.90600002 0.48800001 110 0 0
1.557 -0.90600002 0.486 115 0 0
1.553 -0.90700001 0.484 115 0 0
1.55 -0.90899998 0.48300001 106 0 0
1.548 -0.91100001 0.48199999 131 0 0
1.544 -0.91299999 0.48100001 138 0 0
1.541 -0.91399997 0.479 128 0 0
1.539 -0.91600001 0.47799999 89 0 0
1.535 -0.917 0.47600001 110 0 0
1.531 -0.91799998 0.47499999 136 0 0
1.527 -0.91799998 0.47299999 111 0 0
1.526 -0.921 0.472 125 0 0
1.523 -0.92199999 0.47 117 0 0
1.516 -0.921 0.46700001 107 0 0
1.513 -0.92199999 0.46599999 99 0 0
1.511 -0.92299998 0.46399999 125 0 0
1.51 -0.92500001 0.463 150 0 0
1.507 -0.92699999 0.461 124 0 0
1.5039999 -0.92699999 0.45899999 77 0 0
1.5 -0.92799997 0.45699999 90 0 0
1.501 -0.93099999 0.456 100 0 0
1.499 -0.93099999 0.454 98 0 0
1.4910001 -0.92900002 0.45100001 135 3 0
1.489 -0.93000001 0.449 121 0 0
1.487 -0.93099999 0.447 86 0 0
1.4859999 -0.93300003 0.44600001 92 0 0
1.485 -0.93400002 0.44400001 105 0 0
1.4809999 -0.93300003 0.44100001 95 0 0
1.48 -0.935 0.44 114 0 0
1.48 -0.93599999 0.43799999 94 0 0
1.478 -0.93699998 0.43599999 88 0 0
1.476 -0.93800002 0.43399999 103 0 0
1.465 -0.93199998 0.43000001 94 2 0
1.465 -0.93400002 0.428 95 0 0
1.4630001 -0.93400002 0.426 124 0 0
1.4630001 -0.935 0.42399999 98 0 0
1.459 -0.93400002 0.421 105 0 0
1.462 -0.93800002 0.421 102 0 0
1.46 -0.93699998 0.41800001 93 0 0
1.461 -0.93900001 0.417 88 0 0
1.457 -0.93699998 0.414 111 0 0
1.457 -0.93800002 0.412 96 0 0
1.457 -0.93900001 0.41 115 0 0
1.456 -0.94 0.40799999 105 0 0
1.456 -0.94 0.40599999 139 0 0
1.456 -0.94099998 0.40400001 114 0 0
1.451 -0.93900001 0.40099999 82 3 0
1.451 -0.93900001 0.39899999 90 0 0
1.452 -0.94 0.39700001 100 0 0
1.45 -0.93900001 0.39399999 91 0 0
1.45 -0.94 0.39199999 78 0 0
1.451 -0.94 0.38999999 98 0 0
1.451 -0.94 0.38800001 112 0 0
1.449 -0.93900001 0.38600001 82 0 0
1.449 -0.93900001 0.384 82 0 0
1.449 -0.93900001 0.38100001 100 0 0
1.448 -0.93800002 0.37900001 81 0 0
1.452 -0.94099998 0.37799999 92 0 0
1.449 -0.93800002 0.37400001 103 0 0
1.449 -0.93800002 0.37200001 88 0 0
1.446 -0.93599999 0.36899999 92 0 0
1.45 -0.93800002 0.368 84 0 0
1.45 -0.93800002 0.36500001 110 0 0
1.45 -0.93699998 0.36300001 93 0 0
1.444 -0.93199998 0.359 86 3 0
1.449 -0.935 0.35800001 90 0 0
1.4529999 -0.93599999 0.35600001 104 0 0
1.451 -0.93400002 0.35299999 149 0 0
1.452 -0.93300003 0.35100001 143 0 0
1.449 -0.93000001 0.34799999 139 0 0
1.449 -0.93000001 0.345 104 0 0
1.454 -0.93099999 0.34400001 81 0 0
1.46 -0.93400002 0.34299999 107 0 0
1.452 -0.92799997 0.33899999 100 0 0
1.4529999 -0.92699999 0.336 85 0 0
1.454 -0.926 0.33399999 67 0 0
1.46 -0.92799997 0.33199999 102 0 0
1.457 -0.92400002 0.329 79 0 0
1.46 -0.92500001 0.32699999 79 0 0
1.459 -0.92199999 0.324 82 0 0
1.46 -0.921 0.322 71 0 0
1.464 -0.92199999 0.31999999 62 0 0
1.4630001 -0.91900003 0.317 68 0 0
1.472 -0.92199999 0.317 76 3 0
1.469 -0.91799998 0.31299999 107 0 0
1.475 -0.92000002 0.31200001 77 0 0
1.471 -0.91500002 0.308 78 0 0
1.477 -0.917 0.30700001 75 0 0
1.479 -0.91600001 0.30500001 79 0 0
1.476 -0.91100001 0.301 71 0 0
1.485 -0.91399997 0.30000001 66 0 0
1.4859999 -0.91299999 0.29800001 75 0 0
1.485 -0.90899998 0.29499999 92 0 0
1.487 -0.90799999 0.29300001 84 0 0
1.49 -0.90700001 0.28999999 68 0 0
1.492 -0.90600002 0.28799999 76 0 0
1.4960001 -0.90499997 0.28600001 71 0 0
1.498 -0.903 0.28400001 2 0 0
1.497 -0.89999998 0.28099999 66 0 0
1.501 -0.89899999 0.27900001 76 0 0
1.503 -0.89700001 0.27700001 72 0 0
1.5039999 -0.89499998 0.27399999 63 0 0
1.508 -0.89399999 0.27200001 93 0 0
1.507 -0.88999999 0.26899999 61 0 0
1.517 -0.89300001 0.26800001 84 0 0
1.5140001 -0.88800001 0.26499999 68 0 0
1.516 -0.88599998 0.26300001 83 0 0
1.522 -0.88599998 0.26100001 4 0 0
1.52 -0.88099998 0.25799999 61 0 0
1.528 -0.88200003 0.25600001 76 0 0
1.529 -0.87900001 0.25400001 86 0 0
1.5319999 -0.87699997 0.252 81 0 0
1.534 -0.87400001 0.249 2 0 0
1.536 -0.87199998 0.24699999 63 0 0
1.541 -0.87099999 0.245 2 0 0
1.5420001 -0.86799997 0.243 73 0 0
1.544 -0.86500001 0.23999999 87 0 0
1.549 -0.86400002 0.23800001 95 0 0
1.558 -0.86500001 0.237 150 16 0
1.561 -0.86299998 0.235 2 0 0
1.563 -0.86000001 0.233 62 0 0
1.568 -0.85799998 0.23100001 71 0 0
1.574 -0.85799998 0.229 59 0 0
1.574 -0.85299999 0.226 61 0 0
1.58 -0.852 0.22400001 2 0 0
1.582 -0.84899998 0.222 63 0 0
1.5880001 -0.84799999 0.22 66 0 0
1.592 -0.84600002 0.21799999 58 0 0
1.594 -0.84200001 0.21600001 63 0 0
1.598 -0.83999997 0.214 58 0 0
1.6 -0.83700001 0.212 58 0 0
1.609 -0.83700001 0.20999999 59 0 0
1.614 -0.83499998 0.208 62 0 0
1.6210001 -0.83399999 0.207 50 0 0
1.625 -0.83099997 0.205 46 0 0
1.625 -0.82599998 0.20200001 42 0 0
1.6289999 -0.824 0.2 40 0 0
1.633 -0.82099998 0.198 44 0 0
1.64 -0.81999999 0.197 34 0 0
1.648 -0.81900001 0.19499999 41 0 0
1.651 -0.815 0.193 38 0 0
1.653 -0.81199998 0.191 38 0 0
1.66 -0.81 0.189 28 0 0
1.664 -0.80699998 0.18700001 41 0 0
1.668 -0.80400002 0.185 30 0 0
1.679 -0.80400002 0.184 32 0 0
1.684 -0.80199999 0.182 31 0 0
1.686 -0.79799998 0.18000001 28 0 0
1.693 -0.796 0.178 23 0 0
1.698 -0.79299998 0.176 29 0 0
1.704 -0.79000002 0.17399999 23 0 0
1.709 -0.787 0.17299999 22 0 0
1.716 -0.78600001 0.171 31 0 0
1.72 -0.78200001 0.169 148 16 0
1.729 -0.78100002 0.168 1 0 0
1.739 -0.77999997 0.16599999 1 0 0
1.738 -0.77399999 0.164 137 16 0
1.743 -0.77100003 0.162 144 16 0
1.752 -0.76899999 0.161 1 0 0
1.756 -0.76499999 0.15899999 134 16 0
1.758 -0.76099998 0.15700001 127 16 0
1.772 -0.76099998 0.156 130 16 0
1.777 -0.75800002 0.154 133 16 0
1.7819999 -0.75400001 0.152 136 16 0
1.785 -0.75 0.15000001 124 16 0
1.788 -0.74599999 0.148 140 16 0
1.798 -0.74400002 0.147 124 16 0
1.807 -0.74199998 0.145 128 16 0
1.812 -0.73799998 0.14399999 131 16 0
1.821 -0.736 0.142 124 16 0
1.829 -0.73299998 0.141 121 16 0
1.834 -0.72899997 0.139 124 16 0
1.839 -0.72500002 0.13699999 132 16 0
1.8430001 -0.72100002 0.13500001 128 16 0
1.85 -0.71799999 0.134 124 16 0
1.8609999 -0.71600002 0.133 1 0 0
1.8660001 -0.71200001 0.131 1 0 0
1.873 -0.70899999 0.12899999 116 16 0
1.882 -0.70599997 0.12800001 109 16 0
1.891 -0.70300001 0.127 1 0 0
1.895 -0.699 0.125 108 16 0
1.904 -0.69599998 0.123 119 16 0
1.906 -0.69 0.122 113 16 0
1.9119999 -0.68599999 0.12 110 16 0
1.9170001 -0.68199998 0.118 107 16 0
1.936 -0.68199998 0.118 113 19 0
1.941 -0.67799997 0.116 107 16 0
1.947 -0.67299998 0.114 102 16 0
1.961 -0.67199999 0.113 106 16 0
1.964 -0.667 0.112 107 16 0
1.969 -0.662 0.11 99 16 0
1.98 -0.65899998 0.109 106 16 0
1.988 -0.65499997 0.107 105 16 0
1.992 -0.64999998 0.106 96 16 0
2.0050001 -0.648 0.105 101 16 0
2.0109999 -0.64300001 0.103 108 16 0
2.0209999 -0.63999999 0.102 98 16 0
2.033 -0.63700002 0.101 98 16 0
2.0369999 -0.63099998 0.098999999 94 16 0
2.049 -0.62800002 0.097999997 94 16 0
2.053 -0.62300003 0.096000001 92 16 0
2.0639999 -0.62 0.094999999 99 16 0
2.079 -0.61699998 0.093999997 93 16 0
2.0829999 -0.61199999 0.092 86 16 0
2.0880001 -0.60600001 0.090999998 87 16 0
2.102 -0.60299999 0.090000004 80 16 0
2.108 -0.59799999 0.088 86 16 0
2.118 -0.59399998 0.086999997 85 16 0
2.1259999 -0.58999997 0.086000003 81 16 0
2.1370001 -0.58600003 0.083999999 69 16 0
2.1459999 -0.58099997 0.082999997 68 16 0
2.1570001 -0.57700002 0.082000002 74 16 0
2.1630001 -0.57099998 0.079999998 67 16 0
2.1849999 -0.56999999 0.079999998 59 19 0
2.1949999 -0.56599998 0.078000002 62 16 0
2.2049999 -0.56099999 0.077 60 16 0
2.214 -0.55599999 0.075999998 49 16 0
2.2219999 -0.551 0.075000003 51 16 0
2.23 -0.54500002 0.072999999 49 16 0
2.244 -0.54100001 0.071999997 46 16 0
2.256 -0.537 0.071000002 53 16 0
2.2650001 -0.53200001 0.07 43 16 0
2.2720001 -0.52600002 0.068000004 53 16 0
2.286 -0.52200001 0.067000002 44 16 0
2.296 -0.51599997 0.066 51 16 0
2.303 -0.50999999 0.064999998 44 16 0
2.319 -0.50599998 0.064000003 48 16 0
2.3299999 -0.50099999 0.063000001 45 16 0
2.3429999 -0.49599999 0.061999999 42 16 0
2.3540001 -0.491 0.059999999 41 16 0
2.362 -0.48500001 0.059 36 16 0
2.3699999 -0.479 0.057999998 36 16 0
2.3840001 -0.47400001 0.057 33 16 0
2.401 -0.47 0.056000002 47 16 0
2.414 -0.46399999 0.055 48 16 0
2.4189999 -0.45699999 0.052999999 43 16 0
2.4349999 -0.45199999 0.052000001 46 16 0
2.4530001 -0.44800001 0.050999999 42 16 0
2.4579999 -0.44100001 0.050000001 41 16 0
2.477 -0.43599999 0.048999999 35 16 0
2.4860001 -0.43000001 0.048 33 16 0
2.4949999 -0.42300001 0.046999998 35 16 0
2.5079999 -0.417 0.046 33 16 0
2.5209999 -0.41100001 0.045000002 33 16 0
2.5369999 -0.405 0.044 33 16 0
2.5510001 -0.39899999 0.043000001 31 16 0
2.562 -0.39300001 0.041999999 31 16 0
2.5810001 -0.38699999 0.041000001 32 16 0
2.592 -0.38100001 0.039999999 30 16 0
2.608 -0.375 0.039000001 32 16 0
2.619 -0.368 0.037999999 30 16 0
2.6359999 -0.361 0.037 31 16 0
2.6500001 -0.35499999 0.035999998 31 16 0
2.665 -0.34799999 0.035 31 16 0
2.675 -0.34099999 0.034000002 32 16 0
2.697 -0.33500001 0.033 32 16 0
2.7079999 -0.32699999 0.032000002 31 16 0
2.7219999 -0.31999999 0.030999999 28 16 0
2.734 -0.31299999 0.029999999 29 16 0
2.7520001 -0.30599999 0.028999999 28 16 0
2.7679999 -0.29899999 0.028000001 28 16 0
2.7850001 -0.29100001 0.027000001 27 16 0
2.796 -0.28400001 0.026000001 28 16 0
2.812 -0.27599999 0.025 28 16 0
2.829 -0.26899999 0.024 28 16 0
2.846 -0.26100001 0.023 28 16 0
2.8629999 -0.25299999 0.022 28 16 0
2.8829999 -0.24600001 0.021 28 16 0
2.8989999 -0.23800001 0.02 27 16 0
2.9130001 -0.23 0.018999999 26 16 0
2.9349999 -0.222 0.018999999 27 16 0
2.9519999 -0.214 0.017999999 25 16 0
2.9679999 -0.205 0.017000001 26 16 0
2.99 -0.197 0.016000001 27 16 0
3.006 -0.18799999 0.015 27 16 0
3.03 -0.18000001 0.014 26 16 0
3.0469999 -0.171 0.013 28 16 0
3.069 -0.163 0.012 27 16 0
3.0869999 -0.153 0.012 26 16 0
3.1110001 -0.145 0.011 26 16 0
3.1270001 -0.13500001 0.0099999998 26 16 0
3.1459999 -0.126 0.0089999996 26 16 0
3.174 -0.117 0.0080000004 26 16 0
3.194 -0.107 0.0080000004 26 16 0
3.2119999 -0.097999997 0.0070000002 26 16 0
3.2320001 -0.088 0.0060000001 24 16 0
3.257 -0.078000002 0.0049999999 28 16 0
3.273 -0.068000004 0.0040000002 98 16 0
3.2709999 -0.057 0.0040000002 133 16 0
3.2609999 -0.046 0.003 105 16 0
3.256 -0.035999998 0.0020000001 111 16 0
3.25 -0.025 0.001 99 16 0
3.2460001 -0.015 0.001 27 16 0
3.2690001 -0.0040000002 0 17 16 0
3.2920001 0.0049999999 0 18 16 0
3.3139999 0.016000001 -0.001 20 16 0
3.3329999 0.027000001 -0.001 40 16 0
3.3239999 0.037999999 -0.0020000001 54 16 0
3.312 0.048 -0.0020000001 48 16 0
3.3169999 0.059 -0.003 41 16 0
3.3080001 0.068999998 -0.0040000002 55 16 0
3.3010001 0.079999998 -0.0040000002 51 16 0
3.293 0.090999998 -0.0049999999 54 16 0
3.2909999 0.101 -0.0049999999 53 16 0
3.2850001 0.112 -0.0060000001 58 16 0
3.2780001 0.122 -0.0060000001 54 16 0
3.273 0.132 -0.0070000002 54 16 0
3.2650001 0.14300001 -0.0070000002 53 16 0
3.2639999 0.153 -0.0080000004 61 16 0
3.2539999 0.163 -0.0080000004 59 16 0
3.2479999 0.17299999 -0.0080000004 60 16 0
3.2460001 0.184 -0.0089999996 64 16 0
3.24 0.19400001 -0.0089999996 68 16 0
3.2360001 0.204 -0.0089999996 67 16 0
3.2290001 0.214 -0.0099999998 65 16 0
3.2260001 0.22499999 -0.0099999998 70 16 0
3.223 0.235 -0.0099999998 72 16 0
3.2149999 0.245 -0.0099999998 78 16 0
3.207 0.255 -0.011 74 16 0
3.2030001 0.26499999 -0.011 75 16 0
3.194 0.27399999 -0.011 69 16 0
3.1930001 0.28400001 -0.011 71 16 0
3.1849999 0.294 -0.011 63 16 0
3.1819999 0.30399999 -0.012 63 16 0
3.175 0.31400001 -0.012 78 16 0
3.1670001 0.32300001 -0.012 66 16 0
3.171 0.33399999 -0.012 62 16 0
3.161 0.34299999 -0.012 75 16 0
3.154 0.35299999 -0.012 70 16 0
3.151 0.36300001 -0.012 68 16 0
3.1459999 0.373 -0.012 59 16 0
3.135 0.382 -0.012 55 16 0
3.1389999 0.39199999 -0.012 56 16 0
3.1300001 0.40099999 -0.012 64 16 0
3.122 0.41100001 -0.012 79 16 0
3.1199999 0.421 -0.012 70 16 0
3.112 0.43000001 -0.011 81 16 0
3.1059999 0.43900001 -0.011 75 16 0
3.1010001 0.44800001 -0.011 75 16 0
3.0969999 0.458 -0.011 66 16 0
3.0940001 0.46799999 -0.011 72 16 0
3.0910001 0.477 -0.011 76 16 0
3.0880001 0.48699999 -0.0099999998 75 16 0
3.0769999 0.495 -0.0099999998 80 16 0
3.075 0.505 -0.0099999998 79 16 0
3.072 0.51499999 -0.0099999998 93 16 0
3.0610001 0.523 -0.0089999996 89 16 0
3.0580001 0.53299999 -0.0089999996 81 16 0
3.0569999 0.54299998 -0.0089999996 103 16 0
3.049 0.551 -0.0080000004 104 16 0
3.0420001 0.56 -0.0080000004 96 16 0
3.0350001 0.56900001 -0.0070000002 94 16 0
3.0309999 0.57800001 -0.0070000002 97 16 0
3.029 0.588 -0.0060000001 107 16 0
3.0250001 0.597 -0.0060000001 107 16 0
3.02 0.60600001 -0.0049999999 95 16 0
3.0179999 0.61500001 -0.0049999999 118 16 0
3.016 0.625 -0.0040000002 100 16 0
3.0079999 0.63300002 -0.0040000002 112 16 0
3.0039999 0.64200002 -0.003 113 16 0
3.0009999 0.65200001 -0.003 101 16 0
2.9990001 0.66100001 -0.0020000001 118 16 0
2.9890001 0.66900003 -0.001 107 16 0
2.9849999 0.67799997 -0.001 109 16 0
2.9820001 0.68699998 0 94 16 0
2.9749999 0.69499999 0 103 16 0
2.973 0.70499998 0 121 16 0
2.9690001 0.71399999 0.001 103 16 0
2.9660001 0.72299999 0.0020000001 100 16 0
2.9630001 0.73199999 0.003 124 16 0
2.9549999 0.74000001 0.003 105 16 0
2.9560001 0.75 0.0040000002 103 16 0
2.95 0.75800002 0.0049999999 122 16 0
2.947 0.76700002 0.0060000001 106 16 0
2.938 0.77499998 0.0070000002 109 16 0
2.9349999 0.78399998 0.0080000004 118 16 0
2.931 0.79299998 0.0089999996 109 16 0
2.927 0.801 0.0099999998 108 16 0
2.9260001 0.81099999 0.011 108 16 0
2.9170001 0.81800002 0.012 109 16 0
2.914 0.82700002 0.013 123 16 0
2.9089999 0.83499998 0.014 121 16 0
2.904 0.84399998 0.015 127 16 0
2.902 0.85299999 0.016000001 117 16 0
2.8970001 0.861 0.017000001 117 16 0
2.895 0.87 0.017999999 122 16 0
2.8870001 0.87699997 0.018999999 105 16 0
2.885 0.88700002 0.02 120 16 0
2.8800001 0.89399999 0.022 115 16 0
2.878 0.90399998 0.023 112 16 0
2.8759999 0.91299999 0.024 120 16 0
2.869 0.92000002 0.025 118 16 0
2.8659999 0.92900002 0.027000001 119 16 0
2.8640001 0.93800002 0.028000001 129 16 0
2.859 0.94599998 0.028999999 127 16 0
2.8559999 0.954 0.030999999 143 16 0
2.8529999 0.963 0.032000002 138 16 0
2.8499999 0.97100002 0.033 29 16 0
2.8529999 0.98199999 0.035 43 16 0
2.8440001 0.98900002 0.035999998 139 16 0
2.8380001 0.99599999 0.037999999 141 16 0
2.835 1.0039999 0.039000001 133 16 0
2.8280001 1.011 0.041000001 144 16 0
2.825 1.02 0.043000001 141 16 0
2.825 1.029 0.044 141 16 0
2.819 1.036 0.046 145 16 0
2.8150001 1.045 0.046999998 148 16 0
2.812 1.053 0.048999999 140 16 0
2.809 1.061 0.050999999 150 16 0
2.803 1.068 0.052000001 150 16 0
2.802 1.077 0.054000001 150 16 0
2.7950001 1.084 0.056000002 150 16 0
2.7920001 1.092 0.057999998 147 16 0
2.793 1.102 0.059999999 150 16 0
2.79 1.11 0.061999999 135 16 0
2.786 1.117 0.064000003 147 16 0
2.7809999 1.125 0.066 144 16 0
2.779 1.133 0.068000004 150 16 0
2.7739999 1.14 0.068999998 141 16 0
2.7709999 1.148 0.071000002 120 16 0
2.77 1.1569999 0.074000001 145 16 0
2.766 1.165 0.075999998 132 16 0
2.7590001 1.171 0.077 139 16 0
2.756 1.179 0.079999998 146 16 0
2.75 1.1849999 0.082000002 142 16 0
2.7539999 1.196 0.083999999 143 16 0
2.75 1.204 0.086000003 150 16 0
2.747 1.211 0.088 150 16 0
2.744 1.219 0.090999998 137 16 0
2.7390001 1.226 0.093000002 150 16 0
2.7320001 1.2309999 0.094999999 150 16 0
2.7349999 1.242 0.097999997 134 16 0
2.73 1.248 0.1 149 16 0
2.7260001 1.256 0.102 145 16 0
2.727 1.265 0.105 125 16 0
2.7190001 1.27 0.107 137 16 0
2.72 1.279 0.11 140 16 0
2.7160001 1.286 0.112 131 16 0
2.7090001 1.291 0.115 146 16 0
2.7090001 1.3 0.117 134 16 0
2.707 1.308 0.12 150 16 0
2.7030001 1.3150001 0.122 150 16 0
2.6949999 1.319 0.125 150 16 0
2.6960001 1.3279999 0.12800001 150 16 0
2.6930001 1.335 0.13 150 16 0
2.6889999 1.342 0.133 150 16 0
2.691 1.351 0.13600001 147 16 0
2.688 1.358 0.139 150 16 0
2.684 1.364 0.142 148 16 0
2.6789999 1.37 0.14399999 150 16 0
2.6789999 1.378 0.147 143 16 0
2.674 1.3839999 0.15000001 147 16 0
2.675 1.393 0.153 132 16 0
2.6719999 1.399 0.156 147 16 0
2.668 1.406 0.15899999 144 16 0
2.6689999 1.414 0.162 133 16 0
2.6670001 1.421 0.16500001 140 16 0
2.6659999 1.429 0.169 138 16 0
2.6589999 1.433 0.171 131 16 0
2.6600001 1.441 0.175 141 16 0
2.6559999 1.447 0.178 134 16 0
2.6530001 1.4529999 0.18099999 135 16 0
2.658 1.464 0.185 140 16 0
2.6530001 1.4680001 0.18799999 137 16 0
2.652 1.476 0.191 125 16 0
2.6500001 1.482 0.19400001 127 16 0
2.642 1.485 0.197 118 16 0
2.648 1.4960001 0.20100001 126 16 0
2.645 1.501 0.205 125 16 0
2.6389999 1.505 0.208 120 16 0
2.6400001 1.513 0.211 112 16 0
2.638 1.5190001 0.215 120 16 0
2.6340001 1.524 0.21799999 119 16 0
2.6340001 1.531 0.222 112 16 0
2.6340001 1.538 0.226 117 16 0
2.632 1.544 0.229 117 16 0
2.632 1.55 0.233 126 16 0
2.628 1.5549999 0.236 112 16 0
2.6270001 1.561 0.23999999 115 16 0
2.6270001 1.568 0.244 117 16 0
2.6240001 1.573 0.24699999 119 16 0
2.6210001 1.577 0.25099999 125 16 0
2.6199999 1.5829999 0.255 111 16 0
2.6210001 1.59 0.259 128 16 0
2.612 1.591 0.26199999 133 16 0
2.615 1.599 0.266 150 16 0
2.6170001 1.6059999 0.27000001 123 16 0
2.6129999 1.61 0.27399999 69 16 0
2.6129999 1.615 0.278 40 16 0
2.6129999 1.6210001 0.28200001 41 16 0
2.609 1.625 0.28600001 51 16 0
2.6140001 1.6339999 0.28999999 101 16 0
2.6129999 1.638 0.294 105 16 0
2.6129999 1.6440001 0.29800001 106 16 0
2.6099999 1.647 0.30199999 96 16 0
2.6099999 1.652 0.30599999 109 16 0
2.609 1.6569999 0.31 108 16 0
2.6059999 1.66 0.31400001 117 16 0
2.609 1.6670001 0.31900001 117 16 0
2.609 1.6720001 0.32300001 109 16 0
2.6059999 1.675 0.32699999 105 16 0
2.605 1.679 0.331 61 16 0
2.6059999 1.684 0.33500001 29 16 0
2.608 1.6900001 0.34 12 16 0
2.6110001 1.696 0.34400001 5 16 0
2.5969999 1.691 0.34599999 3 16 0
2.5999999 1.697 0.35100001 1 16 0
2.5780001 1.687 0.352 1 18 0
2.559 1.678 0.354 5 16 0
2.5610001 1.683 0.35800001 8 16 0
2.5639999 1.688 0.36300001 9 16 0
2.5610001 1.6900001 0.366 6 16 0
2.569 1.699 0.37200001 5 16 0
2.592 1.717 0.37900001 9 16 0
2.595 1.722 0.384 21 16 0
2.5910001 1.723 0.38800001 29 16 0
2.5840001 1.721 0.391 33 16 0
2.573 1.716 0.39300001 31 16 0
2.5680001 1.715 0.39700001 30 16 0
2.559 1.712 0.39899999 30 16 0
2.55 1.7079999 0.40200001 30 16 0
2.5469999 1.7079999 0.40599999 31 16 0
2.5380001 1.705 0.40799999 32 16 0
2.5250001 1.698 0.41 38 16 0
2.527 1.701 0.41499999 58 16 0
2.5220001 1.699 0.41800001 109 16 0
2.52 1.699 0.421 134 16 0
2.5239999 1.704 0.426 137 16 0
2.5239999 1.705 0.43000001 145 16 0
2.5250001 1.707 0.43399999 139 16 0
2.5239999 1.707 0.43799999 141 16 0
2.529 1.711 0.442 150 16 0
2.5309999 1.714 0.447 150 16 0
2.5309999 1.714 0.44999999 150 16 0
2.536 1.7180001 0.45500001 150 16 0
2.533 1.716 0.45899999 150 16 0
2.536 1.719 0.463 147 16 0
2.536 1.7180001 0.46700001 141 16 0
2.5350001 1.7180001 0.47 143 16 0
2.5369999 1.719 0.47400001 131 16 0
2.5409999 1.721 0.479 149 16 0
2.539 1.72 0.48199999 141 16 0
2.543 1.722 0.486 136 16 0
2.543 1.721 0.49000001 134 16 0
2.543 1.72 0.493 134 16 0
2.549 1.723 0.498 145 16 0
2.552 1.724 0.50199997 138 16 0
2.55 1.722 0.505 135 16 0
2.5539999 1.723 0.509 139 16 0
2.5550001 1.722 0.51200002 150 16 0
2.5550001 1.72 0.51599997 145 16 0
2.556 1.719 0.51899999 115 16 0
2.556 1.717 0.52200001 131 16 0
2.5580001 1.716 0.52600002 140 16 0
2.5650001 1.7180001 0.52999997 143 16 0
2.5650001 1.716 0.53299999 150 16 0
2.566 1.714 0.537 150 16 0
2.572 1.716 0.54100001 150 16 0
2.575 1.715 0.54400003 150 16 0
2.573 1.711 0.54699999 150 16 0
2.5769999 1.71 0.55000001 146 16 0
2.5829999 1.712 0.55400002 150 16 0
2.5810001 1.707 0.55699998 150 16 0
2.5810001 1.7029999 0.55900002 150 16 0
2.5880001 1.704 0.56300002 150 16 0
2.5829999 1.698 0.565 150 16 0
2.5940001 1.701 0.56999999 150 16 0
2.598 1.7 0.57300001 150 16 0
2.595 1.693 0.57499999 150 16 0
2.599 1.692 0.57800001 150 16 0
2.6029999 1.6900001 0.58099997 150 16 0
2.6029999 1.686 0.583 150 16 0
2.608 1.6849999 0.58700001 149 16 0
2.6110001 1.682 0.58899999 140 16 0
2.6140001 1.679 0.59200001 150 16 0
2.619 1.677 0.59500003 150 16 0
2.6210001 1.674 0.59799999 150 16 0
2.6199999 1.668 0.59899998 124 16 0
2.6259999 1.6670001 0.602 131 16 0
2.628 1.663 0.60500002 130 16 0
2.6300001 1.659 0.60699999 115 16 0
2.6340001 1.656 0.60900003 138 16 0
2.6359999 1.651 0.611 138 16 0
2.6370001 1.646 0.61299998 124 16 0
2.6389999 1.642 0.61500001 125 16 0
2.6429999 1.638 0.61699998 150 16 0
2.648 1.635 0.61900002 150 16 0
2.6500001 1.63 0.62099999 150 16 0
2.654 1.626 0.62300003 150 16 0
2.6559999 1.622 0.625 150 16 0
2.6589999 1.617 0.62599999 150 16 0
2.661 1.612 0.62800002 150 16 0
2.664 1.607 0.62900001 145 16 0
2.6659999 1.601 0.63099998 99 16 0
2.664 1.5930001 0.63099998 77 16 0
2.664 1.587 0.63200003 48 16 0
2.6659999 1.581 0.63300002 43 16 0
2.6659999 1.574 0.63300002 40 16 0
2.6630001 1.5650001 0.63300002 37 16 0
2.6659999 1.5599999 0.634 37 16 0
2.665 1.552 0.634 37 16 0
2.6630001 1.544 0.634 38 16 0
2.6630001 1.536 0.63499999 37 16 0
2.664 1.529 0.63499999 37 16 0
2.661 1.521 0.63499999 36 16 0
2.665 1.515 0.63499999 37 16 0
2.665 1.508 0.63599998 37 16 0
2.6619999 1.499 0.63499999 35 16 0
2.6630001 1.4910001 0.63499999 36 16 0
2.6659999 1.485 0.63499999 37 16 0
2.6619999 1.476 0.634 37 16 0
2.6630001 1.4680001 0.634 37 16 0
2.664 1.461 0.634 37 16 0
2.6630001 1.452 0.63300002 37 16 0
2.668 1.447 0.634 37 16 0
2.668 1.439 0.63300002 38 16 0
2.6689999 1.432 0.63300002 37 16 0
2.6730001 1.426 0.634 39 16 0
2.6700001 1.416 0.63200003 39 16 0
2.671 1.409 0.63200003 37 16 0
2.677 1.404 0.63200003 39 16 0
2.675 1.3940001 0.63099998 39 16 0
2.675 1.386 0.63 37 16 0
2.6789999 1.38 0.63 38 16 0
2.6819999 1.373 0.62900001 41 16 0
2.687 1.367 0.62900001 39 16 0
2.6849999 1.358 0.62800002 39 16 0
2.6849999 1.349 0.62699997 39 16 0
2.6830001 1.34 0.625 39 16 0
2.6919999 1.336 0.62599999 40 16 0
2.6900001 1.326 0.62400001 39 16 0
2.6930001 1.319 0.62300003 39 16 0
2.6989999 1.313 0.62300003 39 16 0
2.7019999 1.306 0.62199998 41 16 0
2.7 1.2970001 0.62 39 16 0
2.7030001 1.29 0.61900002 41 16 0
2.71 1.284 0.61900002 42 16 0
2.7079999 1.275 0.61699998 41 16 0
2.7119999 1.268 0.616 40 16 0
2.7149999 1.261 0.61500001 39 16 0
2.7190001 1.2539999 0.61400002 39 16 0
2.7219999 1.2460001 0.61299998 40 16 0
2.73 1.2410001 0.61199999 40 16 0
2.7290001 1.232 0.61000001 39 16 0
2.733 1.225 0.60900003 40 16 0
2.734 1.216 0.60699999 41 16 0
2.7390001 1.21 0.60600001 40 16 0
2.744 1.2029999 0.60500002 39 16 0
2.747 1.1950001 0.60299999 41 16 0
2.75 1.188 0.602 40 16 0
2.7520001 1.179 0.60000002 40 16 0
2.7579999 1.173 0.59899998 42 16 0
2.7590001 1.164 0.59600002 41 16 0
2.7650001 1.158 0.59500003 39 16 0
2.7679999 1.151 0.59299999 42 16 0
2.7690001 1.142 0.59100002 41 16 0
2.78 1.137 0.59100002 42 16 0
2.7839999 1.13 0.58899999 45 16 0
2.7820001 1.12 0.58600003 42 16 0
2.7909999 1.115 0.58499998 41 16 0
2.7950001 1.107 0.583 42 16 0
2.7969999 1.099 0.58099997 41 16 0
2.8069999 1.094 0.57999998 41 16 0
2.8110001 1.086 0.57800001 42 16 0
2.812 1.077 0.57499999 40 16 0
2.8180001 1.071 0.57300001 41 16 0
2.8269999 1.0650001 0.57200003 39 16 0
2.8269999 1.056 0.56900001 42 16 0
2.8310001 1.048 0.56599998 37 16 0
2.8399999 1.0420001 0.565 37 16 0
2.8440001 1.035 0.56300002 37 16 0
2.8510001 1.028 0.56099999 36 16 0
2.8559999 1.021 0.55900002 36 16 0
2.8610001 1.013 0.55599999 36 16 0
2.8659999 1.006 0.55400002 37 16 0
2.872 0.99900001 0.55199999 37 16 0
2.8789999 0.99199998 0.55000001 36 16 0
2.882 0.98400003 0.54699999 36 16 0
2.8929999 0.97799999 0.54500002 38 16 0
2.8940001 0.97000003 0.542 37 16 0
2.9030001 0.963 0.54000002 36 16 0
2.9070001 0.95599997 0.537 38 16 0
2.911 0.94700003 0.53399998 36 16 0
2.9200001 0.94099998 0.53200001 36 16 0
2.9230001 0.93300003 0.52899998 37 16 0
2.9289999 0.926 0.52600002 37 16 0
2.9349999 0.91799998 0.52399999 37 16 0
2.9460001 0.912 0.52200001 37 16 0
2.9560001 0.90600002 0.51999998 37 16 0
2.9579999 0.89700001 0.51599997 36 16 0
2.9649999 0.88999999 0.514 39 16 0
2.97 0.88300002 0.51099998 39 16 0
2.9809999 0.87599999 0.50800002 43 16 0
2.984 0.86799997 0.505 49 16 0
2.99 0.86000001 0.50199997 91 16 0
2.994 0.852 0.498 127 16 0
3.0009999 0.84500003 0.495 150 16 0
3.006 0.83700001 0.49200001 150 16 0
3.0090001 0.829 0.48800001 150 16 0
3.0090001 0.81900001 0.484 150 16 0
3.01 0.81 0.47999999 150 16 0
3.0220001 0.80400002 0.47799999 150 16 0
3.0209999 0.79500002 0.47299999 150 16 0
3.0239999 0.78600001 0.46900001 150 16 0
3.0280001 0.778 0.46599999 150 16 0
3.0309999 0.76999998 0.46200001 150 16 0
3.0309999 0.75999999 0.45699999 150 16 0
3.0369999 0.75300002 0.454 150 16 0
3.0409999 0.745 0.44999999 150 16 0
3.039 0.73500001 0.44499999 150 16 0
3.0450001 0.727 0.442 150 16 0
3.0469999 0.71799999 0.43799999 150 16 0
3.05 0.70999998 0.433 150 16 0
3.0510001 0.70099998 0.42899999 150 16 0
3.0550001 0.69199997 0.42500001 150 16 0
3.0580001 0.68400002 0.41999999 150 16 0
3.0599999 0.67500001 0.41600001 150 16 0
3.069 0.66799998 0.41299999 150 16 0
3.0650001 0.65799999 0.40700001 150 16 0
3.0669999 0.64999998 0.403 150 16 0
3.0699999 0.64099997 0.39899999 150 16 0
3.069 0.63200003 0.39399999 142 16 0
3.073 0.62300003 0.38999999 150 16 0
3.0769999 0.61500001 0.38499999 150 16 0
3.079 0.60699999 0.38100001 150 16 0
3.0810001 0.59799999 0.37599999 150 16 0
3.0840001 0.58899999 0.37200001 150 16 0
3.086 0.58099997 0.36700001 150 16 0
3.0910001 0.57300001 0.36300001 150 16 0
3.0999999 0.565 0.359 150 16 0
3.092 0.55500001 0.35299999 150 16 0
3.0940001 0.546 0.34799999 150 16 0
3.1010001 0.53799999 0.34400001 150 16 0
3.095 0.52899998 0.338 142 16 0
3.108 0.52200001 0.33500001 150 16 0
3.109 0.51300001 0.33000001 150 16 0
3.1110001 0.50400001 0.32499999 150 16 0
3.115 0.49599999 0.31999999 146 16 0
3.119 0.48800001 0.31600001 150 16 0
3.119 0.479 0.31 147 16 0
3.122 0.47 0.30599999 147 16 0
3.1240001 0.46200001 0.301 147 16 0
3.1240001 0.45300001 0.29499999 150 16 0
3.1270001 0.44400001 0.28999999 150 16 0
3.131 0.43599999 0.28600001 150 16 0
