# .PCD v0.7 - Point Cloud Data file format
VERSION 0.7
FIELDS x y z intensity tag line
SIZE 4 4 4 4 1 1
TYPE F F F F U U
COUNT 1 1 1 1 1 1
WIDTH 1356
HEIGHT 1
VIEWPOINT 0 0 0 1 0 0 0
POINTS 1356
DATA ascii
2.6900001 1.549 0.59899998 127 16 0
2.6930001 1.556 0.60500002 150 16 0
2.6919999 1.5599999 0.61000001 150 16 0
2.688 1.564 0.61500001 150 16 0
2.688 1.568 0.62 115 16 0
2.6830001 1.5700001 0.62400001 51 16 0
2.674 1.5700001 0.62699997 37 16 0
2.6659999 1.5700001 0.63 34 16 0
2.654 1.568 0.63300002 33 16 0
2.6470001 1.569 0.63599998 33 16 0
2.6400001 1.569 0.63999999 33 16 0
2.6329999 1.569 0.64300001 33 16 0
2.6259999 1.569 0.64700001 32 16 0
2.619 1.569 0.64999998 33 16 0
2.612 1.569 0.65399998 33 16 0
2.6029999 1.567 0.65600002 31 16 0
2.596 1.567 0.66000003 32 16 0
2.586 1.564 0.662 32 16 0
2.5799999 1.564 0.66600001 31 16 0
2.5780001 1.566 0.67000002 31 16 0
2.5710001 1.5650001 0.67299998 37 16 0
2.559 1.561 0.67500001 36 16 0
2.553 1.561 0.67799997 36 16 0
2.5480001 1.5599999 0.68199998 35 16 0
2.5409999 1.559 0.685 35 16 0
2.533 1.557 0.68699998 37 16 0
2.5209999 1.552 0.68900001 35 16 0
2.5190001 1.553 0.69300002 34 16 0
2.517 1.5549999 0.69700003 37 16 0
2.5009999 1.5470001 0.69700003 35 19 0
2.4960001 1.546 0.69999999 35 16 0
2.493 1.546 0.704 36 16 0
2.484 1.543 0.70599997 35 16 0
2.4790001 1.541 0.70899999 35 16 0
2.473 1.539 0.71200001 36 16 0
2.467 1.5369999 0.71399999 35 16 0
2.4619999 1.535 0.71700001 36 16 0
2.457 1.533 0.72000003 36 16 0
2.4460001 1.528 0.72100002 35 16 0
2.4449999 1.528 0.72500002 37 16 0
2.441 1.526 0.72799999 38 16 0
2.4319999 1.522 0.72899997 37 16 0
2.4300001 1.521 0.73299998 36 16 0
2.427 1.52 0.736 37 16 0
2.4159999 1.513 0.736 38 19 0
2.4100001 1.51 0.73799998 37 16 0
2.404 1.506 0.741 37 16 0
2.4030001 1.506 0.74400002 36 16 0
2.3989999 1.503 0.74599999 38 16 0
2.3940001 1.5 0.74800003 38 16 0
2.3859999 1.494 0.75 37 16 0
2.3840001 1.493 0.75300002 37 16 0
2.3800001 1.49 0.755 37 16 0
2.3729999 1.485 0.75599998 38 16 0
2.369 1.482 0.75800002 37 16 0
2.3659999 1.479 0.75999999 37 16 0
2.359 1.473 0.76099998 37 16 0
2.3570001 1.471 0.764 36 16 0
2.3529999 1.4680001 0.76599997 38 16 0
2.3469999 1.4630001 0.76700002 36 16 0
2.3440001 1.459 0.76899999 38 16 0
2.3440001 1.4579999 0.77200001 37 16 0
2.3380001 1.452 0.773 38 16 0
2.3369999 1.45 0.77499998 38 16 0
2.3340001 1.446 0.77700001 39 16 0
2.329 1.441 0.778 39 16 0
2.3280001 1.438 0.77999997 38 16 0
2.3199999 1.431 0.77999997 38 19 0
2.3180001 1.427 0.78200001 37 16 0
2.316 1.424 0.78299999 38 16 0
2.313 1.419 0.78500003 40 16 0
2.309 1.414 0.78600001 40 16 0
2.3069999 1.41 0.787 39 16 0
2.3039999 1.406 0.78799999 42 16 0
2.3 1.4 0.78899997 43 16 0
2.299 1.396 0.79000002 42 16 0
2.2950001 1.391 0.79100001 46 16 0
2.2950001 1.388 0.79299998 41 16 0
2.293 1.383 0.79400003 43 16 0
2.29 1.378 0.79400003 42 16 0
2.289 1.373 0.796 49 16 0
2.29 1.37 0.79799998 44 16 0
2.289 1.3660001 0.79900002 53 16 0
2.286 1.36 0.79900002 50 16 0
2.2839999 1.3559999 0.80000001 49 16 0
2.286 1.353 0.80199999 60 16 0
2.28 1.345 0.801 49 16 0
2.276 1.339 0.80000001 58 16 0
2.277 1.335 0.80199999 58 16 0
2.276 1.33 0.80199999 61 16 0
2.276 1.325 0.80299997 58 16 0
2.276 1.321 0.80400002 61 16 0
2.276 1.316 0.80500001 58 16 0
2.277 1.313 0.80599999 66 16 0
2.277 1.308 0.80699998 71 16 0
2.2750001 1.302 0.80599999 65 16 0
2.277 1.298 0.80699998 65 16 0
2.277 1.293 0.80800003 65 16 0
2.2780001 1.289 0.80800003 70 16 0
2.2809999 1.285 0.81 71 16 0
2.2780001 1.278 0.80900002 77 16 0
2.28 1.274 0.81 69 16 0
2.276 1.267 0.80800003 78 16 0
2.2780001 1.262 0.80900002 87 16 0
2.2750001 1.256 0.80800003 85 16 0
2.28 1.253 0.80900002 88 16 0
2.2820001 1.248 0.81 87 16 0
2.277 1.24 0.80699998 87 16 0
2.279 1.235 0.80800003 85 16 0
2.2809999 1.2309999 0.80800003 88 16 0
2.2809999 1.225 0.80800003 90 16 0
2.28 1.219 0.80699998 75 16 0
2.28 1.2130001 0.80599999 70 16 0
2.2820001 1.2079999 0.80599999 67 16 0
2.2850001 1.2029999 0.80599999 81 16 0
2.2869999 1.199 0.80599999 76 16 0
2.2880001 1.193 0.80500001 82 16 0
2.2909999 1.188 0.80500001 96 16 0
2.293 1.183 0.80500001 91 16 0
2.2950001 1.178 0.80500001 74 16 0
2.2980001 1.173 0.80400002 90 16 0
2.3010001 1.168 0.80400002 94 16 0
2.2950001 1.159 0.801 90 16 0
2.3 1.155 0.801 90 16 0
2.302 1.15 0.801 88 16 0
2.2980001 1.141 0.79799998 72 16 0
2.306 1.1390001 0.79900002 76 16 0
2.3039999 1.131 0.796 72 16 0
2.306 1.125 0.79500002 66 16 0
2.309 1.1210001 0.79500002 74 16 0
2.312 1.115 0.79400003 84 16 0
2.3139999 1.11 0.79299998 73 16 0
2.3180001 1.105 0.792 80 16 0
2.3180001 1.098 0.79000002 75 16 0
2.323 1.0930001 0.79000002 78 16 0
2.326 1.0880001 0.78899997 75 16 0
2.3269999 1.082 0.787 77 16 0
2.3299999 1.076 0.78600001 84 16 0
2.336 1.072 0.78500003 84 16 0
2.3380001 1.066 0.78399998 87 16 0
2.342 1.061 0.78299999 81 16 0
2.345 1.0549999 0.78100002 80 16 0
2.3469999 1.049 0.77899998 87 16 0
2.3499999 1.044 0.778 82 16 0
2.3540001 1.038 0.77700001 92 16 0
2.3629999 1.035 0.77700001 99 16 0
2.3599999 1.027 0.773 84 16 0
2.3659999 1.023 0.773 89 16 0
2.3699999 1.017 0.77100003 106 16 0
2.3740001 1.012 0.76899999 92 16 0
2.378 1.006 0.76800001 101 16 0
2.381 1.001 0.76599997 99 16 0
2.385 0.995 0.764 100 16 0
2.388 0.98900002 0.76200002 94 16 0
2.4000001 0.98699999 0.76300001 106 16 0
2.3940001 0.977 0.75800002 99 16 0
2.402 0.97299999 0.75700003 95 16 0
2.4130001 0.97000003 0.75700003 90 16 0
2.4159999 0.96399999 0.755 89 16 0
2.4200001 0.958 0.75300002 80 16 0
2.427 0.954 0.75099999 93 16 0
2.4260001 0.94599998 0.74800003 87 16 0
2.4330001 0.94099998 0.74599999 80 16 0
2.4360001 0.935 0.74400002 84 16 0
2.441 0.93000001 0.74199998 86 16 0
2.448 0.92500001 0.74000001 77 16 0
2.451 0.91900003 0.73699999 80 16 0
2.4560001 0.91299999 0.73500001 70 16 0
2.46 0.90799999 0.73199999 81 16 0
2.4660001 0.90200001 0.73000002 83 16 0
2.4719999 0.89700001 0.72799999 72 16 0
2.4779999 0.89200002 0.72600001 80 16 0
2.484 0.88700002 0.72399998 84 16 0
2.4890001 0.88099998 0.722 82 16 0
2.4920001 0.875 0.71799999 89 16 0
2.5009999 0.87 0.71700001 88 16 0
2.5039999 0.86400002 0.71399999 86 16 0
2.513 0.86000001 0.71200001 82 16 0
2.517 0.85299999 0.70899999 86 16 0
2.523 0.84799999 0.70700002 74 16 0
2.526 0.84200001 0.70300001 72 16 0
2.5350001 0.83700001 0.70099998 80 16 0
2.5380001 0.83099997 0.69800001 82 16 0
2.5469999 0.82599998 0.69599998 83 16 0
2.549 0.81900001 0.69199997 83 16 0
2.552 0.81300002 0.68800002 75 16 0
2.5610001 0.80800003 0.68599999 84 16 0
2.5650001 0.80199999 0.68300003 79 16 0
2.5769999 0.79799998 0.68099999 71 16 0
2.5799999 0.792 0.67799997 73 16 0
2.5910001 0.78799999 0.676 85 16 0
2.5969999 0.78200001 0.67299998 76 16 0
2.5999999 0.77499998 0.66900003 72 16 0
2.608 0.76999998 0.66600001 75 16 0
2.612 0.764 0.662 80 16 0
2.6199999 0.759 0.66000003 73 16 0
2.6300001 0.75400001 0.65700001 58 16 0
2.6359999 0.74800003 0.65399998 54 16 0
2.6500001 0.745 0.65200001 55 16 0
2.6530001 0.73799998 0.648 51 16 0
2.6619999 0.73299998 0.64499998 56 16 0
2.6659999 0.72600001 0.64099997 46 16 0
2.6730001 0.72100002 0.63800001 52 16 0
2.677 0.71399999 0.634 40 16 0
2.6949999 0.71200001 0.63300002 40 16 0
2.6960001 0.704 0.62800002 41 16 0
2.7060001 0.699 0.625 38 16 0
2.717 0.69499999 0.62199998 38 16 0
2.7219999 0.68800002 0.61799997 39 16 0
2.73 0.68300003 0.61400002 38 16 0
2.7379999 0.67699999 0.611 39 16 0
2.75 0.67199999 0.60799998 39 16 0
2.753 0.66500002 0.60299999 37 16 0
2.767 0.66100001 0.60100001 37 16 0
2.7690001 0.65399998 0.59600002 37 16 0
2.7809999 0.64899999 0.59299999 38 16 0
2.79 0.64399999 0.58899999 35 16 0
2.8010001 0.639 0.58600003 37 16 0
2.8080001 0.63300002 0.58099997 37 16 0
2.8169999 0.62699997 0.57800001 38 16 0
2.825 0.62199998 0.574 37 16 0
2.8299999 0.61500001 0.56900001 36 16 0
2.846 0.611 0.56599998 36 16 0
2.8570001 0.60600001 0.56199998 37 16 0
2.8659999 0.60000002 0.55800003 35 16 0
2.8770001 0.59399998 0.55500001 36 16 0
2.8800001 0.58700001 0.54900002 36 16 0
2.8870001 0.58099997 0.54500002 36 16 0
2.908 0.57800001 0.54299998 34 16 0
2.915 0.57099998 0.53799999 37 16 0
2.9260001 0.56599998 0.53399998 36 16 0
2.937 0.56 0.52899998 35 16 0
2.947 0.55400002 0.52499998 37 16 0
2.9579999 0.54900002 0.52100003 35 16 0
2.9679999 0.54299998 0.51599997 34 16 0
2.9779999 0.537 0.51200002 35 16 0
2.9879999 0.53100002 0.50700003 34 16 0
2.9979999 0.52499998 0.50300002 34 16 0
3.0109999 0.51999998 0.498 35 16 0
3.023 0.514 0.49399999 33 16 0
3.029 0.50700003 0.48800001 33 16 0
3.0439999 0.50199997 0.484 34 16 0
3.0539999 0.49599999 0.479 33 16 0
3.0669999 0.49000001 0.47499999 33 16 0
3.0780001 0.484 0.47 34 16 0
3.0899999 0.47799999 0.465 34 16 0
3.1010001 0.472 0.46000001 35 16 0
3.1129999 0.46599999 0.45500001 37 16 0
3.1270001 0.46000001 0.44999999 35 16 0
3.141 0.454 0.44499999 33 16 0
3.152 0.44800001 0.44 37 16 0
3.1600001 0.44100001 0.43399999 35 16 0
3.175 0.43599999 0.43000001 38 16 0
3.1889999 0.43000001 0.42399999 52 16 0
3.1960001 0.42300001 0.41800001 137 16 0
3.197 0.41499999 0.412 150 16 0
3.2019999 0.40799999 0.405 150 16 0
3.2030001 0.40000001 0.398 150 16 0
3.204 0.39199999 0.391 150 16 0
3.204 0.384 0.384 150 16 0
3.204 0.377 0.377 150 16 0
3.2060001 0.36899999 0.37 142 16 0
3.2090001 0.36199999 0.36300001 150 16 0
3.2079999 0.354 0.35600001 143 16 0
3.21 0.34599999 0.34900001 142 16 0
3.2079999 0.338 0.34200001 148 16 0
3.2079999 0.331 0.33500001 150 16 0
3.211 0.32300001 0.32800001 148 16 0
3.2119999 0.31600001 0.32100001 142 16 0
3.2119999 0.308 0.31400001 131 16 0
3.217 0.301 0.30700001 100 16 0
3.2160001 0.29300001 0.29899999 150 16 0
3.2149999 0.285 0.292 137 16 0
3.2160001 0.278 0.285 130 16 0
3.217 0.27000001 0.278 124 16 0
3.214 0.26300001 0.27000001 122 16 0
3.22 0.255 0.26300001 133 16 0
3.221 0.248 0.25600001 129 16 0
3.2219999 0.241 0.249 126 16 0
3.223 0.233 0.242 122 16 0
3.224 0.226 0.234 137 16 0
3.2249999 0.21799999 0.227 124 16 0
3.1960001 0.20900001 0.21799999 106 19 0
3.109 0.19599999 0.205 49 19 0
3.1210001 0.19 0.198 35 16 0
3.082 0.18000001 0.189 21 18 0
3.154 0.177 0.186 33 19 0
3.2179999 0.17299999 0.182 95 16 0
3.2249999 0.16599999 0.175 130 16 0
3.23 0.15899999 0.168 120 16 0
3.223 0.15099999 0.16 116 16 0
3.2279999 0.14399999 0.153 118 16 0
3.2279999 0.13699999 0.145 113 16 0
3.2320001 0.13 0.138 51 16 0
3.2379999 0.123 0.131 31 16 0
3.2609999 0.116 0.124 27 16 0
3.2720001 0.109 0.117 27 16 0
3.2939999 0.103 0.11 27 16 0
3.313 0.096000001 0.103 30 16 0
3.3280001 0.089000002 0.094999999 40 16 0
3.336 0.082000002 0.088 32 16 0
3.3399999 0.074000001 0.079999998 5 16 0
3.309 0.066 0.071999997 1 19 0
3.2920001 0.059 0.063000001 11 16 0
3.3010001 0.050999999 0.056000002 5 16 0
3.335 0.045000002 0.048 25 19 0
3.3399999 0.037 0.041000001 55 16 0
3.3410001 0.029999999 0.033 55 16 0
3.3340001 0.023 0.025 29 16 0
3.322 0.015 0.017000001 18 16 0
3.302 0.0080000004 0.0089999996 17 16 0
3.276 0.001 0.001 17 16 0
3.26 -0.0049999999 -0.0060000001 16 16 0
3.2409999 -0.013 -0.014 20 16 0
3.233 -0.02 -0.022 41 16 0
3.23 -0.026000001 -0.028999999 94 16 0
3.2349999 -0.034000002 -0.037 117 16 0
3.2349999 -0.041000001 -0.045000002 126 16 0
3.2349999 -0.048 -0.052999999 118 16 0
3.234 -0.054000001 -0.061000001 125 16 0
3.2360001 -0.061000001 -0.068000004 141 16 0
3.2290001 -0.068000004 -0.075999998 117 16 0
3.2260001 -0.075000003 -0.083999999 37 16 0
3.2079999 -0.081 -0.090999998 27 16 0
3.194 -0.088 -0.098999999 25 16 0
3.1760001 -0.093999997 -0.106 26 16 0
3.1500001 -0.1 -0.113 25 16 0
3.1359999 -0.106 -0.12 25 16 0
3.1229999 -0.112 -0.127 25 16 0
3.1010001 -0.118 -0.134 24 16 0
3.0899999 -0.124 -0.141 25 16 0
3.075 -0.13 -0.148 26 16 0
3.053 -0.13600001 -0.154 25 16 0
3.043 -0.142 -0.161 25 16 0
3.023 -0.147 -0.168 25 16 0
3.0020001 -0.152 -0.17399999 24 16 0
2.993 -0.15800001 -0.18099999 24 16 0
2.9760001 -0.163 -0.18700001 24 16 0
2.9590001 -0.169 -0.19400001 24 16 0
2.9449999 -0.17399999 -0.2 24 16 0
2.9360001 -0.17900001 -0.207 26 16 0
2.9159999 -0.184 -0.213 26 16 0
2.9030001 -0.189 -0.219 25 16 0
2.8870001 -0.19400001 -0.22499999 26 16 0
2.8759999 -0.199 -0.23199999 26 16 0
2.859 -0.204 -0.23800001 26 16 0
2.846 -0.20900001 -0.244 26 16 0
2.8369999 -0.214 -0.25 25 16 0
2.8199999 -0.219 -0.25600001 25 16 0
2.8050001 -0.223 -0.26199999 27 16 0
2.793 -0.228 -0.26800001 26 16 0
2.786 -0.233 -0.27399999 27 16 0
2.7690001 -0.237 -0.28 26 16 0
2.7550001 -0.242 -0.285 27 16 0
2.7509999 -0.24699999 -0.292 26 16 0
2.7349999 -0.25099999 -0.29699999 28 16 0
2.7219999 -0.255 -0.303 27 16 0
2.7130001 -0.25999999 -0.30899999 27 16 0
2.7030001 -0.264 -0.315 27 16 0
2.6930001 -0.26899999 -0.32100001 27 16 0
2.6819999 -0.273 -0.32600001 28 16 0
2.6689999 -0.27700001 -0.33199999 27 16 0
2.6570001 -0.28099999 -0.33700001 26 16 0
2.6400001 -0.28400001 -0.34200001 27 16 0
2.6329999 -0.289 -0.34799999 27 16 0
2.622 -0.29300001 -0.354 27 16 0
2.6129999 -0.29699999 -0.359 27 16 0
2.599 -0.30000001 -0.36399999 26 16 0
2.589 -0.30399999 -0.37 27 16 0
2.582 -0.30899999 -0.37599999 29 16 0
2.5680001 -0.31200001 -0.38 26 16 0
2.5599999 -0.31600001 -0.38600001 27 16 0
2.552 -0.31999999 -0.39199999 28 16 0
2.5320001 -0.322 -0.396 27 16 0
2.53 -0.32699999 -0.40200001 27 16 0
2.5179999 -0.33000001 -0.40700001 25 16 0
2.5109999 -0.33399999 -0.412 28 16 0
2.4960001 -0.33700001 -0.417 27 16 0
2.487 -0.34 -0.42199999 27 16 0
2.4779999 -0.34400001 -0.42699999 28 16 0
2.47 -0.347 -0.43200001 27 16 0
2.4619999 -0.35100001 -0.43799999 28 16 0
2.4489999 -0.354 -0.442 28 16 0
2.444 -0.35800001 -0.44800001 28 16 0
2.431 -0.36000001 -0.45199999 28 16 0
2.427 -0.36399999 -0.458 28 16 0
2.4170001 -0.36700001 -0.463 30 16 0
2.4059999 -0.37 -0.46700001 32 16 0
2.3970001 -0.373 -0.472 33 16 0
2.3889999 -0.377 -0.47799999 31 16 0
2.3789999 -0.37900001 -0.48199999 32 16 0
2.368 -0.382 -0.48699999 30 16 0
2.359 -0.38499999 -0.491 29 16 0
2.3529999 -0.38800001 -0.49700001 31 16 0
2.348 -0.39199999 -0.50199997 34 16 0
2.339 -0.39399999 -0.50700003 28 16 0
2.3269999 -0.39700001 -0.51099998 28 16 0
2.322 -0.40000001 -0.51599997 28 16 0
2.313 -0.403 -0.52100003 32 16 0
2.303 -0.405 -0.52499998 29 16 0
2.296 -0.40799999 -0.52999997 35 16 0
2.2839999 -0.41 -0.53399998 35 16 0
2.2750001 -0.412 -0.53799999 33 16 0
2.27 -0.41600001 -0.54400003 36 16 0
2.26 -0.41800001 -0.54799998 38 16 0
2.2590001 -0.421 -0.55400002 44 16 0
2.247 -0.42300001 -0.55800003 35 16 0
2.2349999 -0.42500001 -0.56099999 36 16 0
2.23 -0.428 -0.56599998 37 16 0
2.223 -0.43000001 -0.57099998 39 16 0
2.2179999 -0.433 -0.57599998 59 16 0
2.211 -0.43599999 -0.58099997 57 16 0
2.2019999 -0.43799999 -0.58499998 55 16 0
2.194 -0.44 -0.58899999 50 16 0
2.1900001 -0.44299999 -0.59500003 55 16 0
2.1830001 -0.44499999 -0.59899998 57 16 0
2.1760001 -0.447 -0.60399997 57 16 0
2.171 -0.44999999 -0.60900003 58 16 0
2.165 -0.45199999 -0.61299998 56 16 0
2.154 -0.454 -0.61699998 57 16 0
2.1470001 -0.456 -0.62099999 57 16 0
2.1440001 -0.458 -0.62699997 62 16 0
2.1329999 -0.46000001 -0.63 62 16 0
2.131 -0.463 -0.63599998 61 16 0
2.1240001 -0.46399999 -0.63999999 60 16 0
2.115 -0.46599999 -0.64300001 61 16 0
2.1129999 -0.46900001 -0.64899999 64 16 0
2.102 -0.47 -0.65200001 70 16 0
2.0999999 -0.472 -0.65799999 67 16 0
2.0840001 -0.472 -0.65899998 61 16 0
2.082 -0.47499999 -0.66500002 71 16 0
2.0739999 -0.47600001 -0.66900003 98 16 0
2.0699999 -0.479 -0.67400002 101 16 0
2.063 -0.47999999 -0.67799997 102 16 0
2.0610001 -0.48300001 -0.68300003 100 16 0
2.052 -0.484 -0.68699998 97 16 0
2.0480001 -0.486 -0.69099998 95 16 0
2.043 -0.48800001 -0.69599998 96 16 0
2.0339999 -0.48899999 -0.699 100 16 0
2.0309999 -0.491 -0.70499998 99 16 0
2.0250001 -0.49200001 -0.70899999 100 16 0
2.0179999 -0.49399999 -0.71200001 100 16 0
2.0120001 -0.495 -0.71700001 103 16 0
2.0039999 -0.49599999 -0.72000003 101 16 0
2.007 -0.49900001 -0.727 101 16 0
1.995 -0.49900001 -0.72899997 101 16 0
1.993 -0.50099999 -0.73400003 104 16 0
1.99 -0.50400001 -0.74000001 110 16 0
1.9809999 -0.50400001 -0.74199998 101 16 0
1.977 -0.50599998 -0.74699998 99 16 0
1.975 -0.50700003 -0.75199997 109 16 0
1.972 -0.509 -0.75700003 103 16 0
1.967 -0.51099998 -0.76200002 108 16 0
1.96 -0.51099998 -0.76499999 104 16 0
1.954 -0.51200002 -0.76899999 102 16 0
1.948 -0.51300001 -0.77200001 111 16 0
1.949 -0.51599997 -0.77899998 109 16 0
1.938 -0.51499999 -0.78100002 112 16 0
1.939 -0.51800001 -0.787 106 16 0
1.932 -0.51800001 -0.79000002 104 16 0
1.926 -0.51899999 -0.79400003 113 16 0
1.924 -0.52100003 -0.79900002 108 16 0
1.9220001 -0.52200001 -0.80400002 114 16 0
1.913 -0.52200001 -0.80599999 105 16 0
1.909 -0.523 -0.81099999 101 16 0
1.9069999 -0.52499998 -0.81599998 105 16 0
1.902 -0.52499998 -0.81999999 113 16 0
1.9 -0.52700001 -0.82499999 108 16 0
1.8940001 -0.52700001 -0.82800001 101 16 0
1.891 -0.528 -0.833 112 16 0
1.8890001 -0.52999997 -0.838 103 16 0
1.886 -0.52999997 -0.84200001 104 16 0
1.881 -0.53100002 -0.84600002 106 16 0
1.8789999 -0.53200001 -0.85100001 112 16 0
1.87 -0.53100002 -0.852 104 16 0
1.867 -0.53200001 -0.85699999 111 16 0
1.863 -0.53299999 -0.861 109 16 0
1.8609999 -0.53399998 -0.86500001 129 16 0
1.864 -0.53600001 -0.87300003 132 16 0
1.864 -0.53799999 -0.87800002 129 16 0
1.853 -0.53600001 -0.87900001 129 16 0
1.851 -0.537 -0.884 137 16 0
1.849 -0.53799999 -0.88800001 150 16 0
1.844 -0.53799999 -0.89200002 150 16 0
1.842 -0.53899997 -0.89600003 150 16 0
1.835 -0.53799999 -0.89899999 150 16 0
1.837 -0.54000002 -0.90499997 150 16 0
1.835 -0.54000002 -0.91000003 150 16 0
1.835 -0.54100001 -0.91500002 150 16 0
1.831 -0.54100001 -0.91799998 150 16 0
1.824 -0.54000002 -0.92000002 150 16 0
1.825 -0.542 -0.926 150 16 0
1.823 -0.542 -0.93000001 150 16 0
1.821 -0.54299998 -0.935 150 16 0
1.814 -0.542 -0.93699998 150 16 0
1.813 -0.542 -0.94099998 150 16 0
1.807 -0.54100001 -0.94400001 150 16 0
1.814 -0.54400003 -0.95300001 150 16 0
1.8099999 -0.54400003 -0.95599997 150 16 0
1.801 -0.54100001 -0.95599997 150 16 0
1.802 -0.542 -0.96100003 150 16 0
1.804 -0.54400003 -0.96799999 150 16 0
1.798 -0.542 -0.96899998 150 16 0
1.8 -0.54299998 -0.97600001 150 16 0
1.796 -0.54299998 -0.97899997 150 16 0
1.798 -0.54400003 -0.98400003 150 16 0
1.796 -0.54299998 -0.98799998 150 16 0
1.794 -0.54299998 -0.99199998 150 16 0
1.7920001 -0.54299998 -0.995 150 16 0
1.79 -0.542 -0.99900001 150 16 0
1.788 -0.542 -1.003 150 16 0
1.786 -0.542 -1.006 150 16 0
1.784 -0.54100001 -1.01 150 16 0
1.786 -0.542 -1.016 150 16 0
1.785 -0.54100001 -1.0190001 150 16 0
1.7869999 -0.542 -1.025 150 16 0
1.784 -0.54100001 -1.028 150 16 0
1.783 -0.54000002 -1.031 150 16 0
1.7819999 -0.54000002 -1.035 149 16 0
1.7819999 -0.54000002 -1.039 148 16 0
1.783 -0.54000002 -1.044 149 16 0
1.781 -0.53899997 -1.0470001 146 16 0
1.779 -0.53799999 -1.05 143 16 0
1.78 -0.537 -1.0549999 150 16 0
1.776 -0.53600001 -1.057 147 16 0
1.778 -0.53600001 -1.062 147 16 0
1.774 -0.53399998 -1.063 145 16 0
1.779 -0.53500003 -1.0700001 139 16 0
1.781 -0.53500003 -1.074 128 16 0
1.779 -0.53299999 -1.077 142 16 0
1.778 -0.53200001 -1.08 140 16 0
1.779 -0.53200001 -1.084 122 16 0
1.778 -0.52999997 -1.087 144 16 0
1.7819999 -0.53100002 -1.0930001 136 16 0
1.7819999 -0.52999997 -1.096 137 16 0
1.781 -0.528 -1.099 138 16 0
1.78 -0.52700001 -1.101 139 16 0
1.786 -0.52700001 -1.108 137 19 0
1.7869999 -0.52700001 -1.112 135 16 0
1.7869999 -0.52499998 -1.115 132 16 0
1.786 -0.52399999 -1.118 133 16 0
1.7869999 -0.52200001 -1.1210001 132 16 0
1.7869999 -0.52100003 -1.124 136 16 0
1.788 -0.51999998 -1.127 138 16 0
1.7920001 -0.51899999 -1.132 143 16 0
1.789 -0.51700002 -1.132 131 16 0
1.794 -0.51700002 -1.138 130 16 0
1.793 -0.51499999 -1.14 122 16 0
1.794 -0.51300001 -1.143 123 16 0
1.801 -0.514 -1.149 125 19 0
1.803 -0.51200002 -1.153 124 16 0
1.799 -0.509 -1.152 120 16 0
1.8049999 -0.509 -1.158 121 16 0
1.8049999 -0.50700003 -1.16 135 16 0
1.809 -0.50599998 -1.164 136 16 0
1.8099999 -0.50400001 -1.166 133 16 0
1.812 -0.50300002 -1.169 130 16 0
1.813 -0.50099999 -1.1720001 125 16 0
1.816 -0.5 -1.175 125 16 0
1.821 -0.49900001 -1.1799999 132 16 0
1.821 -0.49700001 -1.181 132 16 0
1.822 -0.495 -1.183 137 16 0
1.827 -0.49399999 -1.187 135 16 0
1.83 -0.49200001 -1.1900001 131 16 0
1.831 -0.49000001 -1.191 129 16 0
1.832 -0.48800001 -1.193 127 16 0
1.835 -0.486 -1.1950001 134 16 0
1.8430001 -0.48500001 -1.201 126 19 0
1.848 -0.484 -1.205 125 16 0
1.85 -0.48199999 -1.206 126 16 0
1.854 -0.47999999 -1.21 118 16 0
1.859 -0.479 -1.2130001 123 16 0
1.859 -0.47600001 -1.2130001 111 16 0
1.864 -0.47499999 -1.217 116 16 0
1.8660001 -0.472 -1.217 114 16 0
1.8710001 -0.47099999 -1.221 114 16 0
1.875 -0.46900001 -1.223 113 16 0
1.882 -0.46799999 -1.227 114 16 0
1.8839999 -0.465 -1.228 114 16 0
1.886 -0.463 -1.229 107 16 0
1.89 -0.46000001 -1.2309999 111 16 0
1.895 -0.45899999 -1.233 109 16 0
1.897 -0.456 -1.234 116 16 0
1.905 -0.45500001 -1.238 124 19 0
1.9069999 -0.45199999 -1.238 121 16 0
1.9069999 -0.449 -1.237 113 16 0
1.913 -0.447 -1.24 116 16 0
1.92 -0.44499999 -1.243 110 16 0
1.925 -0.44299999 -1.245 117 16 0
1.931 -0.44100001 -1.247 119 16 0
1.937 -0.43900001 -1.249 115 16 0
1.937 -0.43599999 -1.248 101 16 0
1.944 -0.43399999 -1.25 109 16 0
1.948 -0.43200001 -1.251 111 16 0
1.9529999 -0.42899999 -1.252 118 16 0
1.957 -0.42699999 -1.252 114 16 0
1.966 -0.42500001 -1.256 108 16 0
1.97 -0.42300001 -1.256 110 16 0
1.973 -0.41999999 -1.256 110 16 0
1.976 -0.417 -1.255 107 16 0
1.982 -0.41499999 -1.256 107 16 0
1.992 -0.41299999 -1.2589999 112 16 0
1.997 -0.41100001 -1.26 113 16 0
2.0039999 -0.40900001 -1.262 116 16 0
2.0090001 -0.40599999 -1.261 113 16 0
2.01 -0.403 -1.2589999 103 16 0
2.016 -0.40000001 -1.26 110 16 0
2.0280001 -0.39899999 -1.2640001 107 16 0
2.0280001 -0.39500001 -1.261 104 16 0
2.0339999 -0.39199999 -1.261 100 16 0
2.043 -0.391 -1.263 120 16 0
2.043 -0.38699999 -1.26 100 16 0
2.053 -0.38499999 -1.262 116 16 0
2.0569999 -0.382 -1.26 112 16 0
2.066 -0.38 -1.262 117 16 0
2.075 -0.37799999 -1.2640001 122 16 0
2.079 -0.375 -1.262 127 16 0
2.082 -0.37200001 -1.26 131 16 0
2.092 -0.37 -1.262 111 16 0
2.098 -0.36700001 -1.261 115 16 0
2.102 -0.36399999 -1.2589999 121 16 0
2.1099999 -0.36199999 -1.26 120 16 0
2.118 -0.359 -1.26 123 16 0
2.1240001 -0.35699999 -1.258 123 16 0
2.1289999 -0.354 -1.257 116 16 0
2.131 -0.34999999 -1.253 90 16 0
2.1389999 -0.34799999 -1.253 91 16 0
2.148 -0.345 -1.253 88 16 0
2.155 -0.34299999 -1.252 89 16 0
2.1600001 -0.34 -1.25 85 16 0
2.171 -0.338 -1.251 92 16 0
2.177 -0.33500001 -1.249 98 16 0
2.181 -0.33199999 -1.247 93 16 0
2.187 -0.329 -1.245 94 16 0
2.1930001 -0.32600001 -1.242 97 16 0
2.201 -0.324 -1.2410001 81 16 0
2.207 -0.32100001 -1.239 86 16 0
2.217 -0.31900001 -1.239 97 16 0
2.217 -0.315 -1.233 84 16 0
2.227 -0.31299999 -1.233 95 16 0
2.2360001 -0.31099999 -1.232 90 16 0
2.24 -0.30700001 -1.228 84 16 0
2.25 -0.30500001 -1.228 86 16 0
2.2539999 -0.30199999 -1.224 87 16 0
2.2620001 -0.29899999 -1.222 88 16 0
2.2679999 -0.29699999 -1.219 82 16 0
2.279 -0.294 -1.219 87 16 0
2.2820001 -0.29100001 -1.214 83 16 0
2.289 -0.28799999 -1.211 84 16 0
2.299 -0.28600001 -1.21 83 16 0
2.3039999 -0.28299999 -1.206 86 16 0
2.3069999 -0.28 -1.201 83 16 0
2.319 -0.278 -1.201 86 16 0
2.3269999 -0.27500001 -1.199 91 16 0
2.3310001 -0.27200001 -1.194 90 16 0
2.345 -0.27000001 -1.194 86 16 0
2.3440001 -0.26699999 -1.187 78 16 0
2.3540001 -0.264 -1.1849999 90 16 0
2.362 -0.26199999 -1.182 92 16 0
2.3659999 -0.259 -1.177 86 16 0
2.3710001 -0.25600001 -1.1720001 72 16 0
2.381 -0.25299999 -1.17 76 16 0
2.3900001 -0.25099999 -1.1670001 74 16 0
2.3970001 -0.248 -1.164 76 16 0
2.4070001 -0.24600001 -1.161 73 16 0
2.4189999 -0.244 -1.159 72 16 0
2.4219999 -0.241 -1.153 65 16 0
2.4289999 -0.23800001 -1.15 64 16 0
2.4330001 -0.235 -1.1440001 65 16 0
2.4449999 -0.233 -1.142 74 16 0
2.4530001 -0.23100001 -1.138 75 16 0
2.4630001 -0.228 -1.135 75 16 0
2.471 -0.226 -1.131 69 16 0
2.474 -0.223 -1.125 74 16 0
2.4860001 -0.221 -1.122 67 16 0
2.49 -0.21799999 -1.1160001 62 16 0
2.4949999 -0.215 -1.1109999 55 16 0
2.5050001 -0.213 -1.107 69 16 0
2.506 -0.20999999 -1.1 60 16 0
2.513 -0.208 -1.095 63 16 0
2.5190001 -0.205 -1.09 65 16 0
2.5250001 -0.20200001 -1.084 56 16 0
2.5309999 -0.2 -1.079 57 16 0
2.549 -0.198 -1.079 65 16 0
2.552 -0.19499999 -1.071 61 16 0
2.5580001 -0.193 -1.0650001 61 16 0
2.5669999 -0.191 -1.061 63 16 0
2.573 -0.18799999 -1.0549999 58 16 0
2.5799999 -0.186 -1.05 62 16 0
2.5880001 -0.183 -1.045 57 16 0
2.5940001 -0.18099999 -1.039 57 16 0
2.6040001 -0.17900001 -1.034 62 16 0
2.6140001 -0.177 -1.03 60 16 0
2.618 -0.17399999 -1.023 57 16 0
2.6240001 -0.17200001 -1.017 59 16 0
2.631 -0.169 -1.011 57 16 0
2.6389999 -0.167 -1.006 38 16 0
2.651 -0.16500001 -1.001 38 16 0
2.654 -0.163 -0.99400002 37 16 0
2.6589999 -0.16 -0.98699999 37 16 0
2.6659999 -0.15800001 -0.98100001 38 16 0
2.677 -0.156 -0.977 38 16 0
2.6830001 -0.154 -0.97000003 38 16 0
2.6919999 -0.152 -0.96399999 38 16 0
2.6960001 -0.149 -0.95700002 38 16 0
2.704 -0.147 -0.95099998 37 16 0
2.7160001 -0.145 -0.94599998 34 16 0
2.7190001 -0.14300001 -0.93900001 34 16 0
2.7279999 -0.141 -0.93300003 32 16 0
2.7349999 -0.139 -0.926 34 16 0
2.7409999 -0.13699999 -0.91900003 33 16 0
2.75 -0.13500001 -0.91299999 33 16 0
2.7520001 -0.132 -0.90499997 35 16 0
2.763 -0.13 -0.89899999 34 16 0
2.7709999 -0.12800001 -0.89300001 35 16 0
2.7820001 -0.127 -0.88800001 36 16 0
2.7850001 -0.124 -0.87900001 36 16 0
2.7920001 -0.122 -0.87199998 34 16 0
2.799 -0.12 -0.86500001 34 16 0
2.806 -0.118 -0.85799998 34 16 0
2.8169999 -0.117 -0.852 32 16 0
2.822 -0.115 -0.84500003 34 16 0
2.8299999 -0.113 -0.838 36 16 0
2.8380001 -0.111 -0.83099997 34 16 0
2.846 -0.109 -0.82300001 33 16 0
2.849 -0.107 -0.815 36 16 0
2.8570001 -0.105 -0.80800003 34 16 0
2.8659999 -0.103 -0.801 34 16 0
2.868 -0.101 -0.792 34 16 0
2.8789999 -0.1 -0.78600001 33 16 0
2.888 -0.097999997 -0.77899998 34 16 0
2.895 -0.096000001 -0.77100003 35 16 0
2.8970001 -0.093999997 -0.76200002 34 16 0
2.905 -0.092 -0.755 35 16 0
2.9100001 -0.090999998 -0.74699998 34 16 0
2.9159999 -0.089000002 -0.73799998 36 16 0
2.934 -0.086999997 -0.73299998 37 16 0
2.941 -0.086000003 -0.72500002 41 16 0
2.9460001 -0.083999999 -0.71700001 54 16 0
2.954 -0.082000002 -0.70899999 96 16 0
2.9560001 -0.079999998 -0.69999999 129 16 0
2.96 -0.079000004 -0.69099998 150 16 0
2.9630001 -0.077 -0.68199998 150 16 0
2.97 -0.075000003 -0.67400002 150 16 0
2.9749999 -0.074000001 -0.66600001 150 16 0
2.9779999 -0.071999997 -0.65600002 150 16 0
2.9779999 -0.07 -0.64700001 150 16 0
2.984 -0.068999998 -0.63800001 150 16 0
2.9879999 -0.067000002 -0.62900001 150 16 0
2.987 -0.064999998 -0.61900002 150 16 0
2.9920001 -0.064000003 -0.611 150 16 0
2.9949999 -0.061999999 -0.60100001 150 16 0
3.0009999 -0.061000001 -0.59299999 150 16 0
3.003 -0.059 -0.583 150 16 0
3.0039999 -0.057999998 -0.574 150 16 0
3.013 -0.056000002 -0.56599998 150 16 0
3.0139999 -0.055 -0.55599999 150 16 0
3.017 -0.052999999 -0.54699999 150 16 0
3.0179999 -0.052000001 -0.537 150 16 0
3.0220001 -0.050999999 -0.528 150 16 0
3.026 -0.048999999 -0.51899999 150 16 0
3.0280001 -0.048 -0.509 150 16 0
3.029 -0.046 -0.5 150 16 0
3.036 -0.045000002 -0.491 150 16 0
3.039 -0.044 -0.48199999 150 16 0
3.046 -0.043000001 -0.47299999 150 16 0
3.0480001 -0.041000001 -0.463 150 16 0
3.049 -0.039999999 -0.45300001 150 16 0
3.05 -0.039000001 -0.44400001 150 16 0
3.0580001 -0.037 -0.435 150 16 0
3.0610001 -0.035999998 -0.42500001 150 16 0
3.069 -0.035 -0.41600001 150 16 0
3.073 -0.034000002 -0.40700001 150 16 0
3.0710001 -0.033 -0.39700001 150 16 0
3.076 -0.032000002 -0.38699999 150 16 0
3.0780001 -0.029999999 -0.37799999 150 16 0
3.0810001 -0.028999999 -0.368 150 16 0
3.0829999 -0.028000001 -0.35800001 150 16 0
3.0899999 -0.027000001 -0.34900001 150 16 0
3.0969999 -0.026000001 -0.34 140 16 0
3.0999999 -0.025 -0.33000001 127 16 0
3.1040001 -0.024 -0.31999999 108 16 0
3.112 -0.023 -0.31099999 77 16 0
3.115 -0.022 -0.301 53 16 0
3.1170001 -0.021 -0.29100001 49 16 0
3.119 -0.02 -0.28099999 42 16 0
3.1270001 -0.018999999 -0.27200001 38 16 0
3.1329999 -0.017999999 -0.26199999 34 16 0
3.132 -0.017000001 -0.252 31 16 0
3.1440001 -0.016000001 -0.243 29 16 0
3.1459999 -0.015 -0.233 28 16 0
3.1530001 -0.015 -0.223 26 16 0
3.158 -0.014 -0.213 24 16 0
3.165 -0.013 -0.204 23 16 0
3.1689999 -0.012 -0.19400001 23 16 0
3.1760001 -0.011 -0.184 21 16 0
3.1830001 -0.011 -0.17399999 22 16 0
3.187 -0.0099999998 -0.164 19 16 0
3.197 -0.0089999996 -0.154 20 16 0
3.1949999 -0.0080000004 -0.14399999 19 16 0
3.2030001 -0.0070000002 -0.134 19 16 0
3.2090001 -0.0070000002 -0.124 18 16 0
3.2160001 -0.0060000001 -0.113 18 16 0
3.224 -0.0049999999 -0.103 18 16 0
3.2279999 -0.0049999999 -0.093000002 18 16 0
3.233 -0.0040000002 -0.082999997 19 16 0
3.2390001 -0.003 -0.071999997 18 16 0
3.2449999 -0.003 -0.061999999 19 16 0
3.2490001 -0.0020000001 -0.050999999 18 16 0
3.2509999 -0.0020000001 -0.041000001 18 16 0
3.257 -0.001 -0.030999999 18 16 0
3.267 -0.001 -0.02 19 16 0
3.267 0 -0.0089999996 18 16 0
3.276 0 0 19 16 0
3.2809999 0 0.011 19 16 0
3.29 0.001 0.021 19 16 0
3.2920001 0.001 0.032000002 19 16 0
3.2980001 0.001 0.043000001 20 16 0
3.299 0.0020000001 0.054000001 20 16 0
3.3099999 0.0020000001 0.064000003 20 16 0
3.313 0.003 0.075000003 19 16 0
3.3169999 0.003 0.086000003 21 16 0
3.3110001 0.003 0.097000003 35 16 0
3.293 0.0040000002 0.107 47 16 0
3.289 0.0040000002 0.117 150 16 0
3.2909999 0.0040000002 0.12800001 150 16 0
3.2909999 0.0049999999 0.139 150 16 0
3.299 0.0049999999 0.15000001 150 16 0
3.3069999 0.0049999999 0.161 150 16 0
3.3069999 0.0049999999 0.171 150 16 0
3.3110001 0.0060000001 0.182 150 16 0
3.3169999 0.0060000001 0.19400001 150 16 0
3.322 0.0060000001 0.205 150 16 0
3.3269999 0.0060000001 0.21600001 150 16 0
3.3299999 0.0060000001 0.227 150 16 0
3.339 0.0060000001 0.23800001 150 16 0
3.3399999 0.0070000002 0.249 150 16 0
3.345 0.0070000002 0.25999999 150 16 0
3.349 0.0070000002 0.27200001 150 16 0
3.3559999 0.0070000002 0.28299999 150 16 0
3.362 0.0070000002 0.294 150 16 0
3.3670001 0.0070000002 0.30599999 150 16 0
3.3670001 0.0070000002 0.317 150 16 0
3.3710001 0.0070000002 0.32800001 150 16 0
3.3740001 0.0070000002 0.33899999 150 16 0
3.365 0.0070000002 0.34900001 49 16 0
3.342 0.0060000001 0.35800001 41 16 0
3.3269999 0.0060000001 0.36700001 44 16 0
3.306 0.0060000001 0.37599999 43 16 0
3.2839999 0.0060000001 0.384 42 16 0
3.266 0.0060000001 0.39199999 43 16 0
3.2490001 0.0049999999 0.40099999 40 16 0
3.2360001 0.0049999999 0.41 45 16 0
3.2149999 0.0049999999 0.41800001 46 16 0
3.1919999 0.0049999999 0.42500001 46 16 0
3.171 0.0040000002 0.433 45 16 0
3.152 0.0040000002 0.44100001 44 16 0
3.135 0.0040000002 0.44800001 41 16 0
3.1140001 0.003 0.456 41 16 0
3.0969999 0.003 0.463 42 16 0
3.0829999 0.003 0.47099999 41 16 0
3.066 0.0020000001 0.479 43 16 0
3.049 0.0020000001 0.486 45 16 0
3.0320001 0.001 0.493 41 16 0
3.0190001 0.001 0.50099999 43 16 0
3.0020001 0.001 0.50800002 41 16 0
2.9890001 0 0.51599997 41 16 0
2.9760001 0 0.523 40 16 0
2.9560001 0 0.52999997 41 16 0
2.938 0 0.53600001 40 16 0
2.9260001 -0.001 0.54400003 43 16 0
2.905 -0.001 0.54900002 41 16 0
2.8859999 -0.0020000001 0.55500001 42 16 0
2.868 -0.003 0.56099999 43 16 0
2.858 -0.003 0.56900001 70 16 0
2.8510001 -0.0040000002 0.57700002 57 16 0
2.8329999 -0.0040000002 0.58200002 52 16 0
2.8199999 -0.0049999999 0.58899999 48 16 0
2.8069999 -0.0060000001 0.59600002 40 16 0
2.7920001 -0.0060000001 0.602 43 16 0
2.776 -0.0070000002 0.60699999 54 16 0
2.7690001 -0.0080000004 0.61500001 49 16 0
2.753 -0.0080000004 0.62099999 59 16 0
2.7360001 -0.0089999996 0.62599999 55 16 0
2.7260001 -0.0099999998 0.63300002 55 16 0
2.7160001 -0.011 0.639 47 16 0
2.6949999 -0.011 0.64300001 63 16 0
2.6860001 -0.012 0.64999998 64 16 0
2.677 -0.013 0.65700001 95 16 0
2.6600001 -0.014 0.662 94 16 0
2.651 -0.015 0.66799998 76 16 0
2.638 -0.015 0.67400002 99 16 0
2.6300001 -0.016000001 0.68000001 87 16 0
2.6099999 -0.017000001 0.68400002 94 16 0
2.598 -0.017999999 0.68900001 104 16 0
2.5910001 -0.018999999 0.69599998 109 16 0
2.573 -0.02 0.69999999 111 16 0
2.5599999 -0.021 0.70499998 104 16 0
2.5450001 -0.022 0.70899999 117 16 0
2.5339999 -0.023 0.71499997 120 16 0
2.523 -0.024 0.72000003 105 16 0
2.5109999 -0.024 0.72500002 121 16 0
2.5009999 -0.025 0.73000002 123 16 0
2.4879999 -0.026000001 0.73500001 117 16 0
2.4760001 -0.027000001 0.74000001 134 16 0
2.4690001 -0.028000001 0.74599999 124 16 0
2.4530001 -0.028999999 0.74900001 124 16 0
2.444 -0.030999999 0.755 127 16 0
2.434 -0.032000002 0.75999999 123 16 0
2.4219999 -0.033 0.764 117 16 0
2.4130001 -0.034000002 0.76899999 141 16 0
2.404 -0.035 0.77499998 150 16 0
2.3940001 -0.035999998 0.77899998 150 16 0
2.391 -0.037 0.78600001 150 16 0
2.378 -0.037999999 0.79000002 150 16 0
2.3640001 -0.039000001 0.79299998 150 16 0
2.358 -0.041000001 0.79900002 150 16 0
2.3469999 -0.041999999 0.80299997 150 16 0
2.3369999 -0.043000001 0.80800003 150 16 0
2.3299999 -0.044 0.81300002 150 16 0
2.3210001 -0.045000002 0.81800002 150 16 0
2.3099999 -0.046999998 0.82200003 150 16 0
2.299 -0.048 0.82499999 150 16 0
2.2869999 -0.048999999 0.829 150 16 0
2.283 -0.050000001 0.83499998 150 16 0
2.2720001 -0.052000001 0.838 150 16 0
2.263 -0.052999999 0.84299999 150 16 0
2.2539999 -0.054000001 0.847 150 16 0
2.243 -0.056000002 0.85000002 150 16 0
2.2320001 -0.057 0.85299999 150 16 0
2.2279999 -0.057999998 0.85900003 150 16 0
2.2179999 -0.059999999 0.86299998 150 16 0
2.2060001 -0.061000001 0.86500001 150 16 0
2.197 -0.061999999 0.86900002 150 16 0
2.1900001 -0.064000003 0.87400001 150 16 0
2.178 -0.064999998 0.87599999 150 16 0
2.171 -0.067000002 0.88099998 150 16 0
2.165 -0.068000004 0.88599998 150 16 0
2.158 -0.07 0.88999999 150 16 0
2.1470001 -0.071000002 0.89200002 150 16 0
2.1340001 -0.071999997 0.89399999 150 16 0
2.131 -0.074000001 0.89999998 150 16 0
2.1199999 -0.075000003 0.90200001 150 16 0
2.1170001 -0.077 0.90799999 150 16 0
2.1059999 -0.079000004 0.91000003 150 16 0
2.099 -0.079999998 0.91399997 150 16 0
2.0910001 -0.082000002 0.917 150 16 0
2.0799999 -0.082999997 0.91900003 150 16 0
2.0769999 -0.085000001 0.92500001 150 16 0
2.075 -0.086999997 0.93000001 150 16 0
2.062 -0.088 0.93099999 150 16 0
2.0539999 -0.090000004 0.93400002 150 16 0
2.0439999 -0.092 0.93699998 150 16 0
2.0409999 -0.093000002 0.94199997 150 16 0
2.0250001 -0.094999999 0.94099998 150 16 0
2.023 -0.097000003 0.94599998 150 16 0
2.0179999 -0.097999997 0.95099998 150 16 0
2.0079999 -0.1 0.95200002 150 16 0
1.994 -0.101 0.95200002 150 16 0
1.987 -0.103 0.95499998 150 16 0
1.984 -0.105 0.95999998 150 16 0
1.975 -0.107 0.96200001 150 16 0
1.969 -0.108 0.96499997 150 16 0
1.964 -0.11 0.96899998 150 16 0
1.959 -0.112 0.97299999 150 16 0
1.947 -0.114 0.97299999 150 16 0
1.9400001 -0.116 0.97500002 150 16 0
1.937 -0.118 0.98000002 150 16 0
1.9299999 -0.119 0.98199999 150 16 0
1.923 -0.121 0.98500001 150 16 0
1.915 -0.123 0.986 150 16 0
1.91 -0.125 0.98900002 150 16 0
1.9069999 -0.127 0.99400002 150 16 0
1.899 -0.12899999 0.99599999 150 16 0
1.893 -0.131 0.99800003 150 16 0
1.886 -0.133 1 150 16 0
1.88 -0.13500001 1.003 150 16 0
1.87 -0.13600001 1.003 150 16 0
1.868 -0.138 1.007 150 16 0
1.86 -0.14 1.008 150 16 0
1.852 -0.142 1.0089999 150 16 0
1.85 -0.14399999 1.0140001 150 16 0
1.845 -0.147 1.016 150 16 0
1.8380001 -0.148 1.018 150 16 0
1.834 -0.15099999 1.021 150 16 0
1.832 -0.153 1.024 150 16 0
1.827 -0.155 1.027 150 16 0
1.821 -0.15700001 1.029 150 16 0
1.811 -0.15899999 1.028 150 16 0
1.809 -0.161 1.031 150 16 0
1.8049999 -0.163 1.034 150 16 0
1.798 -0.16500001 1.035 150 16 0
1.794 -0.167 1.038 150 16 0
1.79 -0.17 1.04 150 16 0
1.784 -0.17200001 1.041 150 16 0
1.781 -0.17399999 1.044 150 16 0
1.765 -0.175 1.04 150 19 0
1.763 -0.177 1.043 150 16 0
1.757 -0.17900001 1.043 150 16 0
1.7539999 -0.182 1.046 150 16 0
1.749 -0.184 1.048 150 16 0
1.7460001 -0.186 1.05 150 16 0
1.743 -0.189 1.053 150 16 0
1.7410001 -0.191 1.0549999 150 16 0
1.739 -0.19400001 1.058 150 16 0
1.7359999 -0.19599999 1.0599999 150 16 0
1.73 -0.198 1.061 150 16 0
1.727 -0.2 1.062 150 16 0
1.727 -0.20299999 1.066 150 16 0
1.719 -0.205 1.0650001 150 16 0
1.719 -0.208 1.069 150 16 0
1.7180001 -0.20999999 1.072 150 16 0
1.7130001 -0.212 1.072 150 16 0
1.7079999 -0.214 1.073 150 16 0
1.706 -0.21699999 1.075 150 16 0
1.704 -0.219 1.077 150 16 0
1.702 -0.222 1.079 150 16 0
1.702 -0.22499999 1.082 150 16 0
1.698 -0.227 1.0829999 150 16 0
1.694 -0.229 1.0829999 150 16 0
1.688 -0.23100001 1.082 150 16 0
1.6799999 -0.233 1.08 150 16 0
1.676 -0.235 1.081 150 16 0
1.677 -0.23800001 1.084 150 16 0
1.6720001 -0.23999999 1.0829999 150 16 0
1.6720001 -0.243 1.086 150 16 0
1.6670001 -0.245 1.085 150 16 0
1.664 -0.24699999 1.086 150 16 0
1.66 -0.249 1.086 150 16 0
1.661 -0.252 1.089 150 16 0
1.6619999 -0.255 1.091 150 16 0
1.659 -0.257 1.092 150 16 0
1.654 -0.259 1.091 150 16 0
1.653 -0.26199999 1.092 150 16 0
1.651 -0.264 1.092 150 16 0
1.651 -0.26699999 1.094 150 16 0
1.65 -0.26899999 1.095 150 16 0
1.649 -0.27200001 1.097 150 16 0
1.648 -0.27399999 1.097 150 16 0
1.646 -0.27700001 1.097 150 16 0
1.646 -0.27900001 1.099 150 16 0
1.645 -0.28200001 1.099 150 16 0
1.6440001 -0.28400001 1.1 150 16 0
1.643 -0.287 1.101 150 16 0
1.641 -0.289 1.101 150 16 0
1.64 -0.292 1.101 150 16 0
1.637 -0.294 1.1 150 16 0
1.6390001 -0.29699999 1.102 150 16 0
1.6390001 -0.29899999 1.102 150 16 0
1.637 -0.301 1.102 150 16 0
1.638 -0.30399999 1.103 150 16 0
1.636 -0.30599999 1.102 150 16 0
1.6339999 -0.308 1.101 150 16 0
1.633 -0.31099999 1.101 150 16 0
1.636 -0.31400001 1.103 150 16 0
1.637 -0.31600001 1.104 150 16 0
1.637 -0.31900001 1.104 150 16 0
1.642 -0.322 1.107 150 16 0
1.641 -0.324 1.1059999 150 16 0
1.646 -0.32699999 1.11 150 19 0
1.6440001 -0.329 1.108 150 16 0
1.647 -0.33199999 1.11 148 16 0
1.649 -0.33500001 1.1109999 140 16 0
1.651 -0.338 1.112 125 16 0
1.651 -0.34 1.1109999 116 16 0
1.653 -0.34299999 1.1109999 114 16 0
1.652 -0.345 1.11 115 16 0
1.652 -0.347 1.109 105 16 0
1.652 -0.34900001 1.108 100 16 0
1.654 -0.35100001 1.108 97 16 0
1.655 -0.354 1.107 101 16 0
1.6569999 -0.35600001 1.107 104 16 0
1.6569999 -0.35800001 1.1059999 118 16 0
1.655 -0.36000001 1.103 113 16 0
1.658 -0.36199999 1.104 118 16 0
1.656 -0.36399999 1.101 116 16 0
1.66 -0.36700001 1.102 138 16 0
1.661 -0.36899999 1.101 147 16 0
1.663 -0.37099999 1.1 150 16 0
1.666 -0.37400001 1.1 150 16 0
1.665 -0.375 1.098 150 16 0
1.663 -0.37599999 1.094 150 16 0
1.666 -0.37900001 1.094 150 16 0
1.669 -0.38100001 1.094 150 16 0
1.67 -0.38299999 1.092 150 16 0
1.674 -0.38499999 1.092 150 16 0
1.674 -0.38699999 1.09 150 16 0
1.679 -0.389 1.09 150 16 0
1.678 -0.391 1.087 150 16 0
1.681 -0.39300001 1.086 150 16 0
1.684 -0.39500001 1.086 150 16 0
1.6849999 -0.39700001 1.0829999 150 16 0
1.687 -0.398 1.082 150 16 0
1.6849999 -0.39899999 1.077 150 16 0
1.689 -0.40099999 1.077 150 16 0
1.694 -0.40400001 1.077 150 16 0
1.693 -0.405 1.073 150 16 0
1.696 -0.40700001 1.072 150 16 0
1.701 -0.40900001 1.071 150 16 0
1.702 -0.41 1.068 150 16 0
1.704 -0.41100001 1.066 150 16 0
1.709 -0.414 1.0650001 150 16 0
1.724 -0.41800001 1.071 150 18 0
1.728 -0.41999999 1.0700001 150 16 0
1.7309999 -0.42199999 1.068 150 16 0
1.734 -0.42300001 1.0650001 150 16 0
1.738 -0.42500001 1.064 150 16 0
1.745 -0.42699999 1.064 150 16 0
1.743 -0.42699999 1.059 150 16 0
1.753 -0.43099999 1.061 150 16 0
1.757 -0.43200001 1.059 150 16 0
1.76 -0.43399999 1.057 150 16 0
1.7589999 -0.43399999 1.051 150 16 0
1.766 -0.43599999 1.051 150 16 0
1.772 -0.43799999 1.05 150 16 0
1.777 -0.43900001 1.048 150 16 0
1.781 -0.44100001 1.046 150 16 0
1.7869999 -0.44299999 1.045 150 16 0
1.796 -0.44499999 1.046 146 16 0
1.8049999 -0.447 1.046 123 16 0
1.807 -0.44800001 1.0420001 130 16 0
1.8099999 -0.449 1.039 150 16 0
1.816 -0.44999999 1.0369999 150 16 0
1.819 -0.45100001 1.034 150 16 0
1.821 -0.45199999 1.03 150 16 0
1.831 -0.454 1.031 150 16 0
1.834 -0.45500001 1.027 150 16 0
1.837 -0.45500001 1.023 150 16 0
1.846 -0.45699999 1.023 150 16 0
1.85 -0.458 1.02 150 16 0
1.853 -0.45899999 1.017 150 16 0
1.862 -0.46000001 1.016 150 16 0
1.865 -0.461 1.012 150 16 0
1.875 -0.463 1.012 150 16 0
1.878 -0.463 1.008 150 16 0
1.8839999 -0.46399999 1.005 150 16 0
1.8890001 -0.465 1.003 150 16 0
1.897 -0.46599999 1.001 150 16 0
1.901 -0.46700001 0.99800003 150 16 0
1.909 -0.46799999 0.99599999 150 16 0
1.916 -0.46900001 0.99299997 150 16 0
1.921 -0.46900001 0.99000001 150 16 0
1.925 -0.47 0.986 150 16 0
1.931 -0.47 0.98299998 150 16 0
1.942 -0.472 0.98299998 150 16 0
1.944 -0.472 0.97799999 150 16 0
1.957 -0.47400001 0.97899997 150 16 0
1.966 -0.47499999 0.977 150 16 0
1.97 -0.47499999 0.972 150 16 0
1.976 -0.47499999 0.96899998 150 16 0
1.985 -0.47600001 0.96700001 150 16 0
1.993 -0.477 0.96499997 150 16 0
1.998 -0.477 0.96100003 150 16 0
2.007 -0.47799999 0.95899999 150 16 0
2.0120001 -0.47799999 0.95499998 150 16 0
2.0209999 -0.479 0.95300001 150 16 0
2.026 -0.47799999 0.949 150 16 0
2.033 -0.479 0.94499999 150 16 0
2.043 -0.47999999 0.94400001 150 16 0
2.053 -0.47999999 0.94199997 150 16 0
2.0539999 -0.479 0.93599999 150 16 0
2.0650001 -0.47999999 0.93400002 148 16 0
2.072 -0.47999999 0.93000001 107 16 0
2.079 -0.47999999 0.92699999 110 16 0
2.0880001 -0.47999999 0.92400002 114 16 0
2.0929999 -0.47999999 0.92000002 112 16 0
2.1010001 -0.47999999 0.91600001 120 16 0
2.1099999 -0.47999999 0.91399997 115 16 0
2.1210001 -0.48100001 0.91100001 111 16 0
2.1270001 -0.47999999 0.90700001 109 16 0
2.1389999 -0.48100001 0.90499997 104 16 0
2.1470001 -0.48100001 0.90200001 117 16 0
2.151 -0.479 0.89600003 108 16 0
2.161 -0.47999999 0.89399999 112 16 0
2.1689999 -0.479 0.88999999 107 16 0
2.174 -0.47799999 0.88499999 104 16 0
2.1830001 -0.47799999 0.88200003 97 16 0
2.197 -0.479 0.88 115 16 0
2.201 -0.477 0.875 109 16 0
2.2119999 -0.477 0.87199998 107 16 0
2.2219999 -0.477 0.86900002 110 16 0
2.2279999 -0.47600001 0.86400002 109 16 0
2.2390001 -0.47600001 0.861 112 16 0
2.2509999 -0.47600001 0.85799998 108 16 0
2.253 -0.47400001 0.852 102 16 0
2.266 -0.47400001 0.84899998 101 16 0
2.2750001 -0.47299999 0.84500003 101 16 0
2.2869999 -0.47299999 0.84299999 106 16 0
2.2950001 -0.472 0.838 102 16 0
2.3069999 -0.472 0.83499998 107 16 0
2.3110001 -0.47 0.829 98 16 0
2.319 -0.46900001 0.824 106 16 0
2.332 -0.46900001 0.82200003 106 16 0
2.3429999 -0.46799999 0.81800002 106 16 0
2.346 -0.46599999 0.81199998 105 16 0
2.3629999 -0.46599999 0.81 99 16 0
2.3659999 -0.46399999 0.80400002 88 16 0
2.3759999 -0.463 0.79900002 72 16 0
2.381 -0.461 0.79400003 75 16 0
2.3970001 -0.461 0.79100001 61 16 0
2.404 -0.45899999 0.78600001 61 16 0
2.4130001 -0.458 0.78100002 71 16 0
2.4170001 -0.456 0.77499998 64 16 0
2.4330001 -0.45500001 0.773 61 16 0
2.4489999 -0.45500001 0.76999998 62 16 0
2.4530001 -0.45199999 0.764 56 16 0
2.4649999 -0.45100001 0.75999999 53 16 0
2.473 -0.44999999 0.75400001 59 16 0
2.4809999 -0.44800001 0.74900001 38 16 0
2.4979999 -0.447 0.74699998 39 16 0
2.506 -0.44499999 0.741 37 16 0
2.5179999 -0.44400001 0.73699999 39 16 0
2.5250001 -0.442 0.73100001 36 16 0
2.536 -0.44 0.72600001 34 16 0
2.5469999 -0.43799999 0.722 35 16 0
2.5639999 -0.43700001 0.71899998 35 16 0
2.573 -0.435 0.713 36 16 0
2.579 -0.433 0.70700002 33 16 0
2.5969999 -0.43200001 0.704 35 16 0
2.6040001 -0.42899999 0.69800001 37 16 0
2.6140001 -0.42699999 0.69199997 34 16 0
2.6259999 -0.42500001 0.68800002 34 16 0
2.6329999 -0.42199999 0.68199998 33 16 0
2.6429999 -0.41999999 0.676 34 16 0
2.6500001 -0.417 0.67000002 32 16 0
2.668 -0.41600001 0.66600001 34 16 0
2.677 -0.41299999 0.66100001 34 16 0
2.688 -0.41100001 0.65499997 33 16 0
2.7 -0.40900001 0.64999998 33 16 0
2.71 -0.40599999 0.64399999 33 16 0
2.7260001 -0.40400001 0.63999999 33 16 0
2.7379999 -0.40200001 0.634 36 16 0
2.7449999 -0.39899999 0.62800002 39 16 0
2.7609999 -0.39700001 0.62300003 46 16 0
2.767 -0.39300001 0.616 58 16 0
2.777 -0.38999999 0.61000001 41 16 0
2.7839999 -0.38699999 0.60399997 36 16 0
2.7920001 -0.384 0.597 30 16 0
2.8 -0.38 0.59100002 26 16 0
2.803 -0.37599999 0.583 25 16 0
2.8110001 -0.373 0.57599998 26 16 0
2.816 -0.36899999 0.56900001 26 16 0
2.8239999 -0.36500001 0.56199998 27 16 0
2.829 -0.36199999 0.55500001 27 16 0
2.8310001 -0.35699999 0.54799998 26 16 0
2.836 -0.35299999 0.54000002 26 16 0
2.848 -0.34999999 0.53399998 27 16 0
2.8499999 -0.34599999 0.52600002 26 16 0
2.8570001 -0.34200001 0.51999998 27 16 0
2.862 -0.338 0.51200002 26 16 0
2.8670001 -0.33399999 0.505 26 16 0
2.8729999 -0.33000001 0.49700001 26 16 0
2.8889999 -0.32699999 0.49200001 28 16 0
2.8940001 -0.32300001 0.48500001 26 16 0
2.8970001 -0.31799999 0.477 24 16 0
2.904 -0.31400001 0.47 24 16 0
2.9100001 -0.31 0.46200001 24 16 0
2.914 -0.30500001 0.45500001 25 16 0
2.9219999 -0.301 0.44800001 24 16 0
2.9260001 -0.296 0.44 24 16 0
2.9360001 -0.292 0.433 24 16 0
2.9460001 -0.28799999 0.426 24 16 0
2.9530001 -0.28400001 0.419 24 16 0
2.96 -0.28 0.412 24 16 0
2.967 -0.27500001 0.40400001 24 16 0
2.9690001 -0.27000001 0.396 24 16 0
2.974 -0.266 0.389 24 16 0
2.99 -0.26199999 0.382 25 16 0
2.9920001 -0.257 0.37400001 22 16 0
3.0050001 -0.25299999 0.36700001 22 16 0
3.013 -0.248 0.36000001 22 16 0
3.0150001 -0.243 0.352 21 16 0
3.0250001 -0.23800001 0.345 22 16 0
3.0320001 -0.234 0.33700001 22 16 0
3.043 -0.229 0.33000001 22 16 0
3.052 -0.22400001 0.32300001 22 16 0
3.059 -0.22 0.315 22 16 0
3.0680001 -0.215 0.30700001 22 16 0
3.0739999 -0.20999999 0.30000001 21 16 0
3.0810001 -0.205 0.292 22 16 0
3.092 -0.2 0.28400001 21 16 0
3.0999999 -0.19499999 0.27700001 22 16 0
3.1099999 -0.19 0.26899999 23 16 0
3.115 -0.184 0.26100001 22 16 0
3.125 -0.17900001 0.25400001 23 16 0
3.1329999 -0.17399999 0.24600001 22 16 0
3.1440001 -0.169 0.23800001 22 16 0
3.1570001 -0.164 0.23100001 22 16 0
3.164 -0.15899999 0.223 23 16 0
3.1689999 -0.153 0.214 23 16 0
3.1819999 -0.148 0.207 23 16 0
3.1949999 -0.14300001 0.199 23 16 0
3.198 -0.13699999 0.191 23 16 0
3.207 -0.131 0.183 23 16 0
3.221 -0.126 0.175 23 16 0
3.224 -0.12 0.16599999 22 16 0
3.2309999 -0.114 0.15800001 23 16 0
3.243 -0.109 0.15000001 23 16 0
3.2539999 -0.103 0.142 23 16 0
3.267 -0.097000003 0.134 23 16 0
3.276 -0.092 0.126 23 16 0
3.286 -0.086000003 0.117 23 16 0
3.2939999 -0.079999998 0.109 24 16 0
3.309 -0.074000001 0.101 30 16 0
3.3080001 -0.067000002 0.092 61 16 0
3.3010001 -0.061000001 0.082999997 110 16 0
3.2939999 -0.055 0.074000001 70 16 0
3.286 -0.048 0.064999998 75 16 0
3.283 -0.041999999 0.057 67 16 0
3.273 -0.035999998 0.048 75 16 0
3.27 -0.028999999 0.039999999 71 16 0
3.257 -0.023 0.030999999 52 16 0
3.2590001 -0.017000001 0.022 28 16 0
3.26 -0.0099999998 0.014 17 16 0
3.2739999 -0.0040000002 0.0060000001 15 16 0
3.28 0.001 -0.0020000001 15 16 0
3.2969999 0.0080000004 -0.011 16 16 0
3.3050001 0.014 -0.018999999 16 16 0
3.3210001 0.021 -0.028000001 25 16 0
3.3110001 0.027000001 -0.035999998 39 16 0
3.3050001 0.034000002 -0.045000002 46 16 0
3.293 0.039999999 -0.052999999 45 16 0
3.2839999 0.046 -0.061000001 40 16 0
3.2820001 0.052999999 -0.07 34 16 0
3.2820001 0.059 -0.078000002 38 16 0
3.2739999 0.066 -0.086000003 48 16 0
3.2620001 0.071999997 -0.093999997 48 16 0
3.2539999 0.078000002 -0.102 49 16 0
3.2479999 0.085000001 -0.111 48 16 0
3.2420001 0.090999998 -0.118 50 16 0
3.2390001 0.097000003 -0.127 48 16 0
3.2290001 0.104 -0.134 49 16 0
3.2260001 0.11 -0.14300001 48 16 0
3.2149999 0.116 -0.15000001 50 16 0
3.2079999 0.122 -0.15800001 48 16 0
3.2019999 0.12899999 -0.16599999 49 16 0
3.198 0.13500001 -0.17399999 48 16 0
3.187 0.141 -0.18099999 46 16 0
3.181 0.147 -0.189 47 16 0
3.1700001 0.153 -0.19599999 46 16 0
3.1689999 0.16 -0.204 50 16 0
3.1600001 0.16599999 -0.211 51 16 0
3.1559999 0.17200001 -0.219 47 16 0
3.1440001 0.178 -0.226 49 16 0
3.1440001 0.185 -0.234 51 16 0
3.1359999 0.191 -0.241 65 16 0
3.1199999 0.19599999 -0.248 74 16 0
3.115 0.20299999 -0.255 65 16 0
3.112 0.20900001 -0.26300001 71 16 0
3.108 0.215 -0.27000001 66 16 0
3.096 0.221 -0.27700001 74 16 0
3.095 0.227 -0.28400001 77 16 0
3.085 0.233 -0.29100001 77 16 0
3.082 0.23899999 -0.29800001 74 16 0
3.0739999 0.245 -0.30500001 77 16 0
3.063 0.25099999 -0.31200001 90 16 0
