# .PCD v0.7 - Point Cloud Data file format
VERSION 0.7
FIELDS x y z intensity tag line
SIZE 4 4 4 4 1 1
TYPE F F F F U U
COUNT 1 1 1 1 1 1
WIDTH 1349
HEIGHT 1
VIEWPOINT 0 0 0 1 0 0 0
POINTS 1349
DATA ascii
2.473 -0.164 -1.42 34 16 0
2.4779999 -0.163 -1.4299999 34 16 0
2.4760001 -0.161 -1.436 32 16 0
2.4790001 -0.16 -1.4450001 34 16 0
2.477 -0.15800001 -1.451 33 16 0
2.477 -0.156 -1.4579999 34 16 0
2.4749999 -0.154 -1.465 31 16 0
2.48 -0.153 -1.474 32 16 0
2.48 -0.15099999 -1.4809999 33 16 0
2.483 -0.149 -1.49 33 16 0
2.4820001 -0.147 -1.497 33 16 0
2.4790001 -0.145 -1.502 33 16 0
2.484 -0.14300001 -1.512 31 16 0
2.49 -0.141 -1.522 33 16 0
2.4879999 -0.139 -1.527 33 16 0
2.49 -0.13699999 -1.535 32 16 0
2.4949999 -0.13500001 -1.545 32 16 0
2.493 -0.133 -1.55 33 16 0
2.494 -0.131 -1.557 32 16 0
2.4960001 -0.12800001 -1.5650001 32 16 0
2.4949999 -0.126 -1.571 33 16 0
2.4990001 -0.124 -1.579 33 16 0
2.503 -0.122 -1.5880001 32 16 0
2.506 -0.119 -1.596 32 16 0
2.5079999 -0.117 -1.603 31 16 0
2.507 -0.114 -1.609 31 16 0
2.5120001 -0.112 -1.618 31 16 0
2.5090001 -0.109 -1.6210001 30 16 0
2.517 -0.107 -1.633 31 16 0
2.5220001 -0.104 -1.641 31 16 0
2.5250001 -0.102 -1.649 32 16 0
2.523 -0.098999999 -1.653 38 16 0
2.5320001 -0.096000001 -1.664 69 16 0
2.526 -0.093000002 -1.665 121 16 0
2.5320001 -0.090000004 -1.674 150 16 0
2.5280001 -0.086999997 -1.677 150 16 0
2.5190001 -0.083999999 -1.675 150 16 0
2.5209999 -0.081 -1.682 150 16 0
2.5239999 -0.078000002 -1.688 150 16 0
2.5079999 -0.075000003 -1.682 145 19 0
2.5150001 -0.071999997 -1.691 141 16 0
2.5139999 -0.068999998 -1.6950001 141 16 0
2.506 -0.064999998 -1.694 133 16 0
2.506 -0.061999999 -1.698 138 16 0
2.4990001 -0.059 -1.697 147 16 0
2.497 -0.056000002 -1.7 138 16 0
2.4949999 -0.052999999 -1.702 138 16 0
2.493 -0.048999999 -1.704 102 16 0
2.4809999 -0.046 -1.699 56 16 0
2.4890001 -0.043000001 -1.709 33 16 0
2.4879999 -0.039000001 -1.711 24 16 0
2.494 -0.035999998 -1.7180001 20 16 0
2.5020001 -0.033 -1.727 18 16 0
2.5020001 -0.028999999 -1.73 18 16 0
2.5079999 -0.026000001 -1.7359999 18 16 0
2.513 -0.023 -1.743 19 16 0
2.5179999 -0.018999999 -1.749 19 16 0
2.52 -0.016000001 -1.752 19 16 0
2.533 -0.013 -1.7640001 20 18 0
2.5380001 -0.0089999996 -1.77 22 16 0
2.5409999 -0.0060000001 -1.774 28 16 0
2.5469999 -0.0020000001 -1.78 37 16 0
2.5480001 0.001 -1.7819999 49 16 0
2.5409999 0.0040000002 -1.779 66 16 0
2.54 0.0080000004 -1.78 70 16 0
2.5380001 0.011 -1.78 69 16 0
2.533 0.015 -1.777 67 16 0
2.5309999 0.018999999 -1.777 63 16 0
2.5320001 0.022 -1.779 47 16 0
2.5320001 0.026000001 -1.78 41 16 0
2.526 0.028999999 -1.776 38 16 0
2.5280001 0.033 -1.778 42 16 0
2.529 0.035999998 -1.779 68 16 0
2.527 0.039999999 -1.778 93 16 0
2.5220001 0.043000001 -1.774 98 16 0
2.5220001 0.046999998 -1.774 94 16 0
2.5209999 0.050000001 -1.773 99 16 0
2.5209999 0.054000001 -1.773 100 16 0
2.5179999 0.057999998 -1.77 98 16 0
2.5179999 0.061000001 -1.77 102 16 0
2.5150001 0.064000003 -1.767 102 16 0
2.5139999 0.068000004 -1.765 87 16 0
2.5139999 0.071999997 -1.7640001 92 16 0
2.5109999 0.075000003 -1.761 99 16 0
2.51 0.078000002 -1.758 94 16 0
2.51 0.082000002 -1.757 100 16 0
2.5109999 0.085000001 -1.756 92 16 0
2.5090001 0.089000002 -1.753 111 16 0
2.5090001 0.092 -1.751 102 16 0
2.5079999 0.094999999 -1.749 104 16 0
2.5009999 0.098999999 -1.742 88 16 0
2.5050001 0.102 -1.742 104 16 0
2.506 0.105 -1.7410001 105 16 0
2.507 0.109 -1.739 109 16 0
2.506 0.112 -1.735 107 16 0
2.5009999 0.115 -1.729 116 16 0
2.503 0.118 -1.727 108 16 0
2.503 0.122 -1.725 114 16 0
2.5020001 0.125 -1.721 117 16 0
2.497 0.12800001 -1.714 114 16 0
2.5020001 0.131 -1.714 122 16 0
2.5020001 0.134 -1.711 124 16 0
2.503 0.13699999 -1.7079999 127 16 0
2.5020001 0.14 -1.7029999 119 16 0
2.5039999 0.14399999 -1.701 127 16 0
2.503 0.147 -1.696 120 16 0
2.5050001 0.15000001 -1.693 123 16 0
2.5020001 0.152 -1.687 124 16 0
2.5039999 0.155 -1.684 122 16 0
2.5020001 0.15800001 -1.678 119 16 0
2.503 0.161 -1.674 128 16 0
2.506 0.164 -1.6720001 132 16 0
2.503 0.16599999 -1.665 116 16 0
2.5079999 0.17 -1.663 129 16 0
2.503 0.17200001 -1.655 141 16 0
2.4990001 0.17399999 -1.647 136 16 0
2.5009999 0.177 -1.6440001 142 16 0
2.5009999 0.18000001 -1.638 145 16 0
2.5039999 0.182 -1.635 139 16 0
2.506 0.185 -1.63 150 16 0
2.5039999 0.18700001 -1.624 142 16 0
2.506 0.19 -1.62 150 16 0
2.5090001 0.192 -1.6160001 150 16 0
2.5079999 0.19499999 -1.609 150 16 0
2.513 0.198 -1.6059999 150 16 0
2.513 0.2 -1.6 150 16 0
2.516 0.20200001 -1.596 150 16 0
2.5150001 0.204 -1.589 150 16 0
2.5179999 0.207 -1.585 150 16 0
2.5209999 0.20900001 -1.58 150 16 0
2.5220001 0.211 -1.574 150 16 0
2.527 0.214 -1.571 150 16 0
2.5220001 0.215 -1.562 150 16 0
2.526 0.21799999 -1.557 150 16 0
2.523 0.219 -1.549 150 16 0
2.5320001 0.222 -1.5470001 150 16 0
2.526 0.223 -1.5369999 150 16 0
2.5320001 0.226 -1.533 150 16 0
2.53 0.227 -1.525 150 16 0
2.536 0.229 -1.522 150 16 0
2.5369999 0.23100001 -1.515 150 16 0
2.5380001 0.233 -1.508 150 16 0
2.5409999 0.235 -1.503 150 16 0
2.5420001 0.236 -1.4960001 150 16 0
2.5450001 0.23800001 -1.4910001 150 16 0
2.5480001 0.23999999 -1.485 150 16 0
2.546 0.241 -1.476 150 16 0
2.55 0.242 -1.471 150 16 0
2.55 0.244 -1.4630001 150 16 0
2.553 0.245 -1.457 150 16 0
2.5569999 0.24699999 -1.452 150 16 0
2.559 0.248 -1.4450001 150 16 0
2.562 0.25 -1.439 150 16 0
2.566 0.25099999 -1.433 150 16 0
2.5669999 0.252 -1.426 150 16 0
2.569 0.25400001 -1.419 150 16 0
2.5699999 0.255 -1.4119999 150 16 0
2.573 0.25600001 -1.405 150 16 0
2.5769999 0.257 -1.399 150 16 0
2.575 0.25799999 -1.39 150 16 0
2.5810001 0.259 -1.385 150 16 0
2.5829999 0.25999999 -1.378 150 16 0
2.586 0.26100001 -1.3710001 150 16 0
2.5910001 0.26199999 -1.365 150 16 0
2.5869999 0.26199999 -1.355 150 16 0
2.5910001 0.26300001 -1.348 150 16 0
2.5940001 0.264 -1.342 150 16 0
2.5969999 0.26499999 -1.335 150 16 0
2.6010001 0.266 -1.3279999 150 16 0
2.6010001 0.266 -1.3200001 150 16 0
2.6029999 0.26699999 -1.312 150 16 0
2.6099999 0.26800001 -1.307 150 16 0
2.612 0.26800001 -1.299 150 16 0
2.615 0.26899999 -1.2920001 150 16 0
2.6170001 0.26899999 -1.284 150 16 0
2.6199999 0.27000001 -1.277 150 16 0
2.625 0.271 -1.271 150 16 0
2.6289999 0.271 -1.2640001 150 16 0
2.6289999 0.271 -1.255 150 16 0
2.6340001 0.27200001 -1.249 150 16 0
2.6359999 0.27200001 -1.2410001 150 16 0
2.6400001 0.27200001 -1.234 150 16 0
2.6489999 0.273 -1.229 150 16 0
2.6459999 0.273 -1.219 150 16 0
2.648 0.273 -1.211 150 16 0
2.654 0.273 -1.205 150 16 0
2.6570001 0.273 -1.197 150 16 0
2.661 0.273 -1.1900001 150 16 0
2.664 0.273 -1.182 150 16 0
2.671 0.27399999 -1.176 150 16 0
2.6700001 0.273 -1.1670001 150 16 0
2.671 0.273 -1.158 150 16 0
2.681 0.27399999 -1.153 150 16 0
2.684 0.273 -1.146 150 16 0
2.688 0.273 -1.138 150 16 0
2.687 0.273 -1.1289999 150 16 0
2.6919999 0.27200001 -1.122 150 16 0
2.6930001 0.27200001 -1.113 150 16 0
2.697 0.27200001 -1.105 150 16 0
2.704 0.27200001 -1.099 150 16 0
2.71 0.271 -1.092 150 16 0
2.71 0.271 -1.0829999 150 16 0
2.7179999 0.271 -1.077 150 16 0
2.737 0.27200001 -1.075 84 16 0
2.707 0.26800001 -1.054 2 16 0
2.9920001 0.29499999 -1.155 0 18 0
3.062 0.301 -1.1720001 0 19 0
3.0940001 0.303 -1.174 0 16 0
0 0 0 0 16 0
0 0 0 0 16 0
2.984 0.289 -1.102 0 16 0
3 0.289 -1.097 0 16 0
3.0239999 0.28999999 -1.096 0 16 0
2.744 0.26199999 -0.98500001 0 17 0
2.773 0.264 -0.986 55 16 0
2.7679999 0.26199999 -0.97500002 150 16 0
2.7679999 0.26100001 -0.96499997 150 16 0
2.7709999 0.25999999 -0.95700002 150 16 0
2.776 0.259 -0.949 150 16 0
2.779 0.25799999 -0.94099998 150 16 0
2.783 0.257 -0.93300003 150 16 0
2.7920001 0.25600001 -0.92699999 150 16 0
2.7950001 0.255 -0.91799998 150 16 0
2.7980001 0.25400001 -0.91000003 150 16 0
2.8010001 0.25299999 -0.90100002 150 16 0
2.806 0.252 -0.89399999 150 16 0
2.8099999 0.25099999 -0.88599998 150 16 0
2.813 0.249 -0.87699997 150 16 0
2.8139999 0.248 -0.86799997 150 16 0
2.8239999 0.24699999 -0.861 150 16 0
2.826 0.24600001 -0.85299999 150 16 0
2.829 0.244 -0.84399998 150 16 0
2.8329999 0.243 -0.83600003 150 16 0
2.835 0.241 -0.82700002 150 16 0
2.8399999 0.23999999 -0.81900001 150 16 0
2.8540001 0.23899999 -0.81400001 150 16 0
2.8570001 0.23800001 -0.80500001 150 16 0
2.8499999 0.235 -0.79400003 150 16 0
2.865 0.235 -0.78799999 150 16 0
2.8710001 0.233 -0.78100002 150 16 0
2.8710001 0.23100001 -0.77100003 150 16 0
2.882 0.23 -0.76499999 150 16 0
2.8840001 0.228 -0.75599998 150 16 0
2.8870001 0.227 -0.74699998 150 16 0
2.8889999 0.22499999 -0.73799998 150 16 0
2.901 0.22400001 -0.73199999 150 16 0
2.904 0.222 -0.72299999 150 16 0
2.911 0.22 -0.71499997 150 16 0
2.9089999 0.21799999 -0.70499998 150 16 0
2.9119999 0.21600001 -0.69599998 150 16 0
2.924 0.215 -0.69 150 16 0
2.927 0.213 -0.68099999 150 16 0
2.9289999 0.211 -0.67199999 150 16 0
2.9389999 0.20900001 -0.66399997 150 16 0
2.9419999 0.207 -0.65499997 150 16 0
2.9449999 0.205 -0.64700001 150 16 0
2.947 0.20299999 -0.63800001 150 16 0
2.957 0.20100001 -0.63 150 16 0
2.957 0.199 -0.62099999 150 16 0
2.9630001 0.197 -0.61199999 150 16 0
2.9690001 0.19499999 -0.60399997 150 16 0
2.9760001 0.193 -0.59600002 150 16 0
2.9779999 0.191 -0.58700001 150 16 0
2.983 0.18799999 -0.57800001 150 16 0
2.9849999 0.186 -0.56900001 150 16 0
2.9909999 0.184 -0.56 150 16 0
3 0.182 -0.55299997 150 16 0
3.0079999 0.18000001 -0.54500002 150 16 0
3.0109999 0.177 -0.53500003 150 16 0
3.0150001 0.175 -0.52600002 150 16 0
3.017 0.17200001 -0.51700002 150 16 0
3.0179999 0.17 -0.50800002 150 16 0
3.03 0.168 -0.5 150 16 0
3.0309999 0.16500001 -0.491 150 16 0
3.04 0.163 -0.48300001 150 16 0
3.0469999 0.16 -0.47400001 150 16 0
3.05 0.15800001 -0.465 150 16 0
3.053 0.155 -0.456 150 16 0
3.0569999 0.153 -0.447 150 16 0
3.062 0.15000001 -0.43799999 150 16 0
3.073 0.148 -0.43000001 150 16 0
3.0799999 0.145 -0.421 150 16 0
3.085 0.142 -0.412 150 16 0
3.089 0.14 -0.403 150 16 0
3.095 0.13699999 -0.39399999 150 16 0
3.102 0.134 -0.38499999 150 16 0
3.1029999 0.131 -0.37599999 150 16 0
3.1129999 0.12899999 -0.36700001 150 16 0
3.1159999 0.126 -0.35800001 150 16 0
3.1210001 0.123 -0.34900001 150 16 0
3.1300001 0.12 -0.34 150 16 0
3.1289999 0.117 -0.33000001 150 16 0
3.1400001 0.114 -0.32100001 150 16 0
3.141 0.111 -0.31200001 150 16 0
3.1500001 0.108 -0.303 150 16 0
3.1559999 0.105 -0.294 150 16 0
3.1659999 0.102 -0.285 150 16 0
3.1659999 0.098999999 -0.27500001 144 16 0
3.1719999 0.096000001 -0.266 150 16 0
3.1789999 0.093000002 -0.25600001 138 16 0
3.188 0.090000004 -0.24699999 136 16 0
3.1889999 0.086999997 -0.23800001 120 16 0
3.2049999 0.083999999 -0.229 114 16 0
3.207 0.079999998 -0.219 109 16 0
3.2130001 0.077 -0.20999999 119 16 0
3.2219999 0.074000001 -0.20100001 103 16 0
3.224 0.07 -0.191 111 16 0
3.2349999 0.067000002 -0.18099999 126 16 0
3.24 0.064000003 -0.17200001 91 16 0
3.2449999 0.059999999 -0.162 53 16 0
3.2479999 0.057 -0.153 48 16 0
3.2520001 0.052999999 -0.14300001 52 16 0
3.2539999 0.050000001 -0.133 81 16 0
3.263 0.046 -0.123 134 16 0
3.2639999 0.043000001 -0.113 116 16 0
3.276 0.039000001 -0.104 106 16 0
3.2820001 0.035 -0.093999997 111 16 0
3.2939999 0.032000002 -0.083999999 89 16 0
3.296 0.028000001 -0.074000001 45 16 0
3.302 0.024 -0.064999998 32 16 0
3.3010001 0.021 -0.055 23 16 0
3.2939999 0.017000001 -0.044 20 16 0
3.2920001 0.013 -0.034000002 20 16 0
3.2920001 0.0089999996 -0.025 20 16 0
3.2809999 0.0049999999 -0.015 19 16 0
3.2720001 0.001 -0.0049999999 19 16 0
3.2709999 -0.001 0.0040000002 19 16 0
3.2620001 -0.0049999999 0.014 20 16 0
3.2620001 -0.0089999996 0.024 27 16 0
3.2639999 -0.013 0.034000002 42 16 0
3.263 -0.017000001 0.044 106 16 0
3.27 -0.021 0.054000001 150 16 0
3.2739999 -0.025 0.063000001 150 16 0
3.2850001 -0.028999999 0.074000001 150 16 0
3.2939999 -0.033 0.083999999 150 16 0
3.2980001 -0.037 0.093999997 150 16 0
3.302 -0.041000001 0.104 150 16 0
3.3050001 -0.045000002 0.114 150 16 0
3.3169999 -0.050000001 0.124 150 16 0
3.325 -0.054000001 0.134 150 16 0
3.332 -0.057999998 0.14399999 150 16 0
3.336 -0.061999999 0.155 150 16 0
3.3369999 -0.067000002 0.16500001 53 16 0
3.3329999 -0.071000002 0.17399999 34 16 0
3.3269999 -0.075000003 0.184 30 16 0
3.3280001 -0.079000004 0.19400001 29 16 0
3.3239999 -0.082999997 0.204 31 16 0
3.3169999 -0.086999997 0.213 30 16 0
3.309 -0.090999998 0.222 30 16 0
3.3010001 -0.094999999 0.23199999 30 16 0
3.296 -0.1 0.241 31 16 0
3.286 -0.104 0.25 30 16 0
3.2880001 -0.108 0.25999999 30 16 0
3.279 -0.112 0.26899999 30 16 0
3.2739999 -0.116 0.278 31 16 0
3.27 -0.121 0.28799999 31 16 0
3.2690001 -0.125 0.29699999 30 16 0
3.253 -0.12899999 0.30599999 30 16 0
3.25 -0.133 0.315 30 16 0
3.244 -0.13699999 0.324 30 16 0
3.2390001 -0.141 0.333 31 16 0
3.2320001 -0.145 0.34200001 31 16 0
3.2249999 -0.149 0.35100001 30 16 0
3.22 -0.154 0.36000001 30 16 0
3.2119999 -0.15800001 0.368 31 16 0
3.21 -0.162 0.37799999 31 16 0
3.1989999 -0.16599999 0.38600001 32 16 0
3.198 -0.171 0.39500001 33 16 0
3.1930001 -0.175 0.40400001 33 16 0
3.1830001 -0.17900001 0.412 31 16 0
3.174 -0.183 0.41999999 33 16 0
3.1730001 -0.18700001 0.43000001 39 16 0
3.1630001 -0.191 0.43700001 45 16 0
3.1570001 -0.19599999 0.44600001 50 16 0
3.1389999 -0.199 0.45300001 50 16 0
3.1210001 -0.20200001 0.45899999 46 16 0
3.1070001 -0.206 0.46599999 41 16 0
3.0940001 -0.20999999 0.47400001 39 16 0
3.0739999 -0.213 0.479 38 16 0
3.0599999 -0.21600001 0.486 35 16 0
3.0469999 -0.22 0.493 38 16 0
3.0250001 -0.223 0.49900001 38 16 0
3.016 -0.227 0.50599998 38 16 0
3.0009999 -0.23 0.51200002 38 16 0
2.9849999 -0.234 0.51800001 39 16 0
2.9719999 -0.237 0.52499998 38 16 0
2.9590001 -0.241 0.53100002 40 16 0
2.934 -0.243 0.53500003 39 16 0
2.9260001 -0.24699999 0.542 39 16 0
2.9189999 -0.25099999 0.54900002 39 16 0
2.902 -0.25400001 0.55500001 40 16 0
2.888 -0.257 0.56099999 40 16 0
2.878 -0.26100001 0.56699997 43 16 0
2.865 -0.264 0.57300001 43 16 0
2.8559999 -0.26800001 0.579 42 16 0
2.8410001 -0.271 0.58499998 48 16 0
2.8269999 -0.27399999 0.58999997 42 16 0
2.819 -0.278 0.59600002 45 16 0
2.803 -0.28099999 0.60100001 46 16 0
2.793 -0.285 0.60699999 49 16 0
2.783 -0.28799999 0.61299998 58 16 0
2.7709999 -0.292 0.61900002 55 16 0
2.756 -0.29499999 0.62300003 52 16 0
2.7460001 -0.29800001 0.62900001 54 16 0
2.7349999 -0.30199999 0.634 61 16 0
2.723 -0.30500001 0.639 66 16 0
2.7119999 -0.308 0.64499998 67 16 0
2.7 -0.31099999 0.64999998 71 16 0
2.691 -0.315 0.65499997 61 16 0
2.6719999 -0.317 0.65799999 75 16 0
2.6659999 -0.32100001 0.66500002 68 16 0
2.658 -0.32499999 0.67000002 68 16 0
2.648 -0.32800001 0.67500001 70 16 0
2.6400001 -0.33199999 0.68099999 76 16 0
2.6240001 -0.33399999 0.68400002 76 16 0
2.618 -0.338 0.69 71 16 0
2.6099999 -0.34200001 0.69599998 84 16 0
2.6010001 -0.345 0.70099998 86 16 0
2.5880001 -0.34799999 0.70499998 84 16 0
2.579 -0.352 0.70999998 86 16 0
2.562 -0.354 0.71200001 84 16 0
2.5550001 -0.35800001 0.71799999 88 16 0
2.5469999 -0.361 0.72299999 88 16 0
2.5380001 -0.36399999 0.727 95 16 0
2.5250001 -0.36700001 0.73100001 94 16 0
2.5139999 -0.37 0.73500001 93 16 0
2.5020001 -0.373 0.73799998 92 16 0
2.4990001 -0.377 0.74400002 86 16 0
2.4879999 -0.38 0.74800003 94 16 0
2.4760001 -0.38299999 0.75199997 95 16 0
2.471 -0.38699999 0.75700003 90 16 0
2.46 -0.38999999 0.76099998 95 16 0
2.45 -0.39300001 0.764 93 16 0
2.4430001 -0.39700001 0.76899999 95 16 0
2.431 -0.40000001 0.77200001 105 16 0
2.424 -0.403 0.77700001 102 16 0
2.411 -0.40599999 0.77899998 104 16 0
2.401 -0.40900001 0.78299999 106 16 0
2.3970001 -0.41299999 0.78799999 150 16 0
2.388 -0.41600001 0.792 150 16 0
2.382 -0.419 0.796 149 16 0
2.372 -0.42199999 0.80000001 150 16 0
2.3640001 -0.426 0.80400002 150 16 0
2.355 -0.42899999 0.80699998 150 16 0
2.3440001 -0.43200001 0.81 150 16 0
2.3399999 -0.43599999 0.81400001 150 16 0
2.3340001 -0.43900001 0.81900001 150 16 0
2.3199999 -0.442 0.81999999 150 16 0
2.3210001 -0.44600001 0.82700002 150 16 0
2.306 -0.44800001 0.82800001 150 16 0
2.3010001 -0.45199999 0.83200002 150 16 0
2.296 -0.456 0.83700001 150 16 0
2.286 -0.45899999 0.83899999 150 16 0
2.2780001 -0.46200001 0.84200001 150 16 0
2.2720001 -0.46599999 0.84600002 150 16 0
2.266 -0.46900001 0.85000002 150 16 0
2.253 -0.47099999 0.85100001 150 16 0
2.2479999 -0.47499999 0.85500002 150 16 0
2.2379999 -0.47799999 0.85699999 150 16 0
2.23 -0.48100001 0.86000001 150 16 0
2.2260001 -0.48500001 0.86400002 150 16 0
2.2190001 -0.48800001 0.86799997 150 16 0
2.2079999 -0.49000001 0.86900002 150 16 0
2.2060001 -0.495 0.87400001 150 16 0
2.198 -0.498 0.87599999 150 16 0
2.1889999 -0.50099999 0.87800002 150 16 0
2.178 -0.50300002 0.87900001 150 16 0
2.174 -0.50700003 0.88300002 150 16 0
2.168 -0.50999999 0.88599998 150 16 0
2.164 -0.514 0.88999999 150 16 0
2.1589999 -0.51800001 0.89300001 150 16 0
2.148 -0.51999998 0.89399999 150 16 0
2.1429999 -0.52399999 0.89700001 150 16 0
2.1389999 -0.528 0.90100002 150 16 0
2.1329999 -0.53100002 0.90399998 150 16 0
2.1259999 -0.53399998 0.90600002 150 16 0
2.1240001 -0.53799999 0.91000003 150 16 0
2.112 -0.54000002 0.91000003 150 16 0
2.1059999 -0.54400003 0.91299999 150 16 0
2.099 -0.54699999 0.91500002 150 16 0
2.0969999 -0.551 0.91799998 150 16 0
2.089 -0.55400002 0.92000002 150 16 0
2.086 -0.55800003 0.92299998 150 16 0
2.079 -0.56099999 0.92500001 150 16 0
2.073 -0.56400001 0.92699999 150 16 0
2.069 -0.56800002 0.93000001 150 16 0
2.0610001 -0.56999999 0.93099999 150 16 0
2.0569999 -0.574 0.93400002 150 16 0
2.05 -0.57700002 0.93599999 150 16 0
2.046 -0.58099997 0.93800002 150 16 0
2.039 -0.583 0.93900001 150 16 0
2.036 -0.588 0.94199997 150 16 0
2.033 -0.59200001 0.94599998 150 16 0
2.027 -0.59500003 0.94700003 150 16 0
2.02 -0.597 0.94800001 150 16 0
2.017 -0.60100001 0.95099998 150 16 0
2.0150001 -0.60600001 0.954 150 16 0
2.0079999 -0.60799998 0.95499998 150 16 0
2.003 -0.611 0.95599997 150 16 0
2 -0.616 0.95899999 150 16 0
1.994 -0.61799997 0.95999998 150 16 0
1.989 -0.62199998 0.96100003 150 16 0
1.985 -0.625 0.963 150 16 0
1.984 -0.63 0.96700001 150 16 0
1.98 -0.63300002 0.96799999 150 16 0
1.973 -0.63599998 0.96899998 150 16 0
1.97 -0.639 0.97100002 150 16 0
1.9680001 -0.64300001 0.97299999 150 16 0
1.965 -0.64700001 0.97500002 150 16 0
1.96 -0.64999998 0.97600001 150 16 0
1.959 -0.65399998 0.97899997 150 16 0
1.955 -0.65799999 0.98000002 150 16 0
1.951 -0.66100001 0.98100001 150 16 0
1.947 -0.66500002 0.98299998 150 16 0
1.9450001 -0.66799998 0.98500001 150 16 0
1.943 -0.67199999 0.986 150 16 0
1.939 -0.67500001 0.98699999 150 16 0
1.937 -0.67900002 0.98900002 150 16 0
1.933 -0.68300003 0.99000001 150 16 0
1.932 -0.68699998 0.99299997 150 16 0
1.9299999 -0.69099998 0.99400002 150 16 0
1.926 -0.69400001 0.995 150 16 0
1.926 -0.69800001 0.99699998 150 16 0
1.925 -0.70200002 0.99900001 138 16 0
1.924 -0.70599997 1.001 113 16 0
1.921 -0.70999998 1.002 129 16 0
1.915 -0.71200001 1.001 150 16 0
1.911 -0.71499997 1.001 150 16 0
1.909 -0.71799999 1.003 150 16 0
1.908 -0.722 1.0039999 150 16 0
1.902 -0.72399998 1.003 150 16 0
1.902 -0.72899997 1.005 150 16 0
1.904 -0.73299998 1.007 150 16 0
1.897 -0.73500001 1.006 150 16 0
1.897 -0.73900002 1.007 150 16 0
1.893 -0.74199998 1.007 150 16 0
1.895 -0.74699998 1.0089999 150 16 0
1.887 -0.74800003 1.007 150 16 0
1.893 -0.75400001 1.011 150 16 0
1.892 -0.75800002 1.012 150 16 0
1.8890001 -0.75999999 1.011 150 16 0
1.8890001 -0.764 1.013 150 16 0
1.89 -0.76899999 1.0140001 150 16 0
1.886 -0.77100003 1.013 150 16 0
1.8839999 -0.77399999 1.013 150 16 0
1.8839999 -0.778 1.0140001 150 16 0
1.88 -0.77999997 1.013 150 16 0
1.88 -0.78399998 1.0140001 150 16 0
1.881 -0.78799999 1.015 150 16 0
1.88 -0.79100001 1.015 150 16 0
1.881 -0.79500002 1.016 150 16 0
1.883 -0.79900002 1.017 150 16 0
1.883 -0.80199999 1.017 150 16 0
1.878 -0.80400002 1.015 150 16 0
1.88 -0.80800003 1.016 150 16 0
1.876 -0.81 1.0140001 150 16 0
1.878 -0.81400001 1.015 150 16 0
1.878 -0.81699997 1.015 150 16 0
1.877 -0.81999999 1.0140001 150 16 0
1.876 -0.82200003 1.013 150 16 0
1.878 -0.82700002 1.0140001 150 16 0
1.882 -0.83099997 1.016 150 16 0
1.882 -0.83399999 1.015 150 16 0
1.8789999 -0.83600003 1.013 150 16 0
1.8839999 -0.84100002 1.015 150 16 0
1.888 -0.84500003 1.016 150 16 0
1.887 -0.84799999 1.015 150 16 0
1.885 -0.84899998 1.013 150 16 0
1.89 -0.85399997 1.015 150 16 0
1.89 -0.85699999 1.013 150 16 0
1.885 -0.85699999 1.01 150 16 0
1.887 -0.86000001 1.0089999 135 16 0
1.882 -0.86000001 1.005 124 16 0
1.878 -0.861 1.002 116 16 0
1.876 -0.86199999 0.99900001 125 16 0
1.87 -0.861 0.99400002 125 16 0
1.8660001 -0.86199999 0.99000001 123 16 0
1.8660001 -0.86400002 0.98900002 132 16 0
1.865 -0.86500001 0.986 134 16 0
1.858 -0.86299998 0.98100001 143 19 0
1.858 -0.86500001 0.97899997 138 16 0
1.8559999 -0.866 0.97600001 126 16 0
1.848 -0.86400002 0.97000003 139 19 0
1.849 -0.866 0.96799999 138 16 0
1.845 -0.866 0.963 149 16 0
1.842 -0.866 0.95999998 144 16 0
1.846 -0.86900002 0.95899999 147 16 0
1.84 -0.86799997 0.954 142 16 0
1.841 -0.86900002 0.95200002 149 16 0
1.837 -0.86799997 0.94700003 149 16 0
1.83 -0.866 0.94099998 150 16 0
1.829 -0.866 0.93699998 145 16 0
1.829 -0.86799997 0.935 150 16 0
1.825 -0.86699998 0.93000001 141 16 0
1.825 -0.86699998 0.92699999 138 16 0
1.823 -0.86699998 0.92299998 144 16 0
1.822 -0.86699998 0.91900003 144 16 0
1.819 -0.866 0.91500002 144 16 0
1.8200001 -0.86699998 0.912 138 16 0
1.818 -0.866 0.90799999 135 16 0
1.816 -0.866 0.90399998 141 16 0
1.817 -0.866 0.90100002 145 16 0
1.818 -0.86699998 0.898 145 16 0
1.817 -0.86699998 0.89399999 139 16 0
1.8150001 -0.866 0.88999999 137 16 0
1.813 -0.86500001 0.88499999 141 16 0
1.813 -0.86500001 0.88099998 150 16 0
1.814 -0.86500001 0.87800002 148 16 0
1.813 -0.86400002 0.87400001 146 16 0
1.812 -0.86299998 0.87 150 16 0
1.8099999 -0.86199999 0.86500001 145 16 0
1.809 -0.861 0.861 150 16 0
1.808 -0.86000001 0.85699999 147 16 0
1.8099999 -0.86000001 0.85399997 150 16 0
1.8099999 -0.86000001 0.85000002 143 16 0
1.8099999 -0.85900003 0.84600002 150 16 0
1.814 -0.86000001 0.84299999 150 16 0
1.812 -0.85799998 0.83899999 147 16 0
1.814 -0.85799998 0.83499998 150 16 0
1.8150001 -0.85799998 0.83200002 150 16 0
1.811 -0.85500002 0.82599998 150 16 0
1.817 -0.85600001 0.824 150 16 0
1.814 -0.85399997 0.81800002 139 16 0
1.8150001 -0.85299999 0.815 139 16 0
1.817 -0.85299999 0.81099999 150 16 0
1.817 -0.85100001 0.80699998 150 16 0
1.819 -0.85100001 0.80400002 148 16 0
1.818 -0.84899998 0.79900002 150 16 0
1.823 -0.84899998 0.796 150 16 0
1.816 -0.84399998 0.78899997 141 16 0
1.818 -0.84399998 0.78500003 150 16 0
1.824 -0.84500003 0.78299999 150 16 0
1.821 -0.84100002 0.77700001 150 16 0
1.826 -0.84200001 0.77499998 150 16 0
1.826 -0.83999997 0.76999998 150 16 0
1.8279999 -0.83899999 0.76700002 150 16 0
1.83 -0.838 0.76300001 150 16 0
1.832 -0.83600003 0.759 150 16 0
1.834 -0.83499998 0.755 150 16 0
1.8329999 -0.83200002 0.75 150 16 0
1.837 -0.83200002 0.74699998 150 16 0
1.84 -0.83099997 0.74299997 150 16 0
1.839 -0.82800001 0.73799998 150 16 0
1.8430001 -0.82700002 0.73500001 150 16 0
1.846 -0.82700002 0.73100001 150 16 0
1.839 -0.82099998 0.72399998 150 16 0
1.849 -0.82300001 0.72299999 150 16 0
1.853 -0.82200003 0.72000003 144 16 0
1.852 -0.81800002 0.71399999 139 16 0
1.854 -0.81699997 0.70999998 139 16 0
1.857 -0.815 0.70599997 139 16 0
1.859 -0.81300002 0.70200002 142 16 0
1.8609999 -0.81099999 0.69800001 114 16 0
1.864 -0.80900002 0.69400001 118 16 0
1.8660001 -0.80699998 0.69 124 16 0
1.872 -0.80699998 0.68699998 124 16 0
1.869 -0.80199999 0.68099999 123 16 0
1.875 -0.80199999 0.67900002 126 16 0
1.877 -0.80000001 0.67400002 124 16 0
1.882 -0.79799998 0.671 122 16 0
1.885 -0.796 0.667 117 16 0
1.895 -0.79699999 0.66600001 130 16 0
1.8940001 -0.79299998 0.66000003 123 16 0
1.892 -0.78899997 0.65499997 124 16 0
1.897 -0.78799999 0.65100002 128 16 0
1.903 -0.78600001 0.648 115 16 0
1.911 -0.78600001 0.64600003 101 16 0
1.914 -0.78399998 0.64200002 99 16 0
1.914 -0.77999997 0.63700002 95 16 0
1.919 -0.778 0.63300002 102 16 0
1.926 -0.77700001 0.63099998 101 16 0
1.928 -0.77399999 0.62599999 98 16 0
1.931 -0.77200001 0.62199998 97 16 0
1.936 -0.76999998 0.61900002 105 16 0
1.936 -0.76599997 0.61400002 98 16 0
1.941 -0.764 0.61000001 98 16 0
1.946 -0.76200002 0.60699999 103 16 0
1.947 -0.75800002 0.602 95 16 0
1.955 -0.75700003 0.59899998 103 16 0
1.959 -0.755 0.59500003 107 16 0
1.959 -0.75099999 0.58999997 99 16 0
1.9680001 -0.75 0.588 91 16 0
1.969 -0.74599999 0.583 92 16 0
1.975 -0.74400002 0.57999998 93 16 0
1.977 -0.74000001 0.57499999 93 16 0
1.9859999 -0.73900002 0.57300001 97 16 0
1.987 -0.73500001 0.56800002 95 16 0
1.995 -0.73400003 0.565 93 16 0
2.0020001 -0.73199999 0.56199998 97 16 0
2.0050001 -0.72899997 0.55800003 93 16 0
2.01 -0.72600001 0.55400002 96 16 0
2.013 -0.722 0.55000001 95 16 0
2.017 -0.71899998 0.546 88 16 0
2.0239999 -0.71700001 0.54299998 99 16 0
2.027 -0.71399999 0.53799999 92 16 0
2.0280001 -0.70899999 0.53399998 87 16 0
2.036 -0.708 0.53100002 90 16 0
2.043 -0.70499998 0.52700001 102 16 0
2.05 -0.70300001 0.52399999 95 16 0
2.053 -0.699 0.51999998 94 16 0
2.056 -0.69499999 0.51599997 95 16 0
2.063 -0.69199997 0.51200002 96 16 0
2.0650001 -0.68800002 0.50800002 89 16 0
2.0699999 -0.685 0.50400001 85 16 0
2.089 -0.68599999 0.50300002 90 16 0
2.0910001 -0.68199998 0.49900001 88 16 0
2.0999999 -0.68000001 0.49599999 81 16 0
2.102 -0.67500001 0.49200001 83 16 0
2.1070001 -0.67199999 0.48699999 84 16 0
2.1140001 -0.66900003 0.484 88 16 0
2.1199999 -0.66600001 0.47999999 80 16 0
2.1259999 -0.662 0.477 58 16 0
2.132 -0.65899998 0.47299999 55 16 0
2.1389999 -0.65600002 0.47 51 16 0
2.1429999 -0.65100002 0.465 51 16 0
2.152 -0.64899999 0.463 56 16 0
2.1589999 -0.64600003 0.45899999 54 16 0
2.168 -0.64300001 0.456 52 16 0
2.1719999 -0.639 0.45100001 57 16 0
2.177 -0.63499999 0.44800001 52 16 0
2.1819999 -0.63099998 0.44400001 52 16 0
2.1900001 -0.62800002 0.44 60 16 0
2.1989999 -0.625 0.43700001 61 16 0
2.201 -0.62 0.433 53 16 0
2.2090001 -0.616 0.42899999 40 16 0
2.217 -0.61299998 0.426 33 16 0
2.2219999 -0.60900003 0.42199999 39 16 0
2.2309999 -0.60500002 0.41800001 32 16 0
2.2390001 -0.602 0.41499999 37 16 0
2.243 -0.597 0.41100001 31 16 0
2.2550001 -0.59399998 0.40799999 28 16 0
2.263 -0.59100002 0.40400001 28 16 0
2.266 -0.58600003 0.40000001 31 16 0
2.2709999 -0.58099997 0.396 27 16 0
2.286 -0.579 0.39300001 28 16 0
2.293 -0.57499999 0.389 28 16 0
2.2980001 -0.56999999 0.38499999 28 16 0
2.3099999 -0.56699997 0.382 29 16 0
2.3139999 -0.56199998 0.37799999 27 16 0
2.322 -0.55800003 0.37400001 26 16 0
2.332 -0.55400002 0.37099999 27 16 0
2.342 -0.55000001 0.368 29 16 0
2.3469999 -0.546 0.36399999 28 16 0
2.3540001 -0.54100001 0.36000001 29 16 0
2.3659999 -0.53799999 0.35600001 30 16 0
2.3770001 -0.53399998 0.35299999 31 16 0
2.3800001 -0.528 0.34900001 31 16 0
2.3940001 -0.52499998 0.34599999 29 16 0
2.401 -0.51999998 0.34200001 30 16 0
2.4070001 -0.51499999 0.338 29 16 0
2.418 -0.51099998 0.33399999 29 16 0
2.428 -0.50700003 0.331 28 16 0
2.4319999 -0.50099999 0.32600001 29 16 0
2.4430001 -0.49700001 0.32300001 28 16 0
2.4489999 -0.49200001 0.31900001 29 16 0
2.4590001 -0.48699999 0.315 29 16 0
2.467 -0.48199999 0.31099999 28 16 0
2.473 -0.477 0.30700001 24 16 0
2.4909999 -0.47400001 0.30399999 26 16 0
2.4960001 -0.46799999 0.30000001 26 16 0
2.51 -0.46399999 0.29699999 26 16 0
2.5179999 -0.45899999 0.29300001 27 16 0
2.527 -0.45300001 0.289 25 16 0
2.5339999 -0.44800001 0.285 26 16 0
2.5450001 -0.44299999 0.28099999 26 16 0
2.5550001 -0.43799999 0.27700001 26 16 0
2.566 -0.433 0.273 26 16 0
2.5710001 -0.42699999 0.26899999 26 16 0
2.5880001 -0.42300001 0.266 27 16 0
2.596 -0.417 0.26100001 27 16 0
2.6110001 -0.412 0.25799999 27 16 0
2.6170001 -0.40599999 0.25400001 26 16 0
2.6259999 -0.40000001 0.25 26 16 0
2.6370001 -0.39500001 0.245 25 16 0
2.6530001 -0.38999999 0.242 25 16 0
2.664 -0.38499999 0.23800001 26 16 0
2.6689999 -0.37799999 0.234 25 16 0
2.6830001 -0.373 0.23 25 16 0
2.6960001 -0.36700001 0.226 26 16 0
2.7060001 -0.361 0.222 26 16 0
2.7149999 -0.35499999 0.21699999 25 16 0
2.723 -0.34900001 0.213 24 16 0
2.7420001 -0.34400001 0.20999999 26 16 0
2.7520001 -0.33700001 0.205 26 16 0
2.757 -0.33000001 0.20100001 25 16 0
2.7720001 -0.32499999 0.197 26 16 0
2.7880001 -0.31900001 0.193 26 16 0
2.793 -0.31200001 0.18799999 25 16 0
2.806 -0.30599999 0.184 25 16 0
2.823 -0.30000001 0.18000001 25 16 0
2.8329999 -0.29300001 0.176 26 16 0
2.8469999 -0.287 0.17200001 24 16 0
2.852 -0.27900001 0.167 24 16 0
2.8729999 -0.273 0.163 25 16 0
2.885 -0.26699999 0.15899999 26 16 0
2.8940001 -0.259 0.154 24 16 0
2.911 -0.25299999 0.15000001 24 16 0
2.9219999 -0.24600001 0.145 24 16 0
2.9430001 -0.23999999 0.141 23 16 0
2.957 -0.233 0.13699999 23 16 0
2.967 -0.22499999 0.132 23 16 0
2.9760001 -0.21799999 0.12800001 22 16 0
2.9979999 -0.211 0.123 23 16 0
3.0090001 -0.20299999 0.119 23 16 0
3.03 -0.19599999 0.114 23 16 0
3.0409999 -0.189 0.11 23 16 0
3.0599999 -0.18099999 0.105 23 16 0
3.0780001 -0.17399999 0.101 23 16 0
3.0929999 -0.16599999 0.096000001 23 16 0
3.1099999 -0.15800001 0.090999998 23 16 0
3.122 -0.15000001 0.086000003 22 16 0
3.142 -0.142 0.082000002 24 16 0
3.164 -0.13500001 0.077 23 16 0
3.174 -0.126 0.071999997 24 16 0
3.191 -0.118 0.067000002 24 16 0
3.2090001 -0.11 0.061999999 25 16 0
3.2190001 -0.101 0.057 24 16 0
3.2390001 -0.093000002 0.052000001 25 16 0
3.2620001 -0.083999999 0.046999998 25 16 0
3.279 -0.075000003 0.041999999 29 16 0
3.283 -0.066 0.037 83 16 0
3.28 -0.057 0.032000002 99 16 0
3.2720001 -0.046999998 0.027000001 81 16 0
3.2609999 -0.037999999 0.021 86 16 0
3.26 -0.028999999 0.016000001 88 16 0
3.2509999 -0.02 0.011 41 16 0
3.2620001 -0.011 0.0060000001 18 16 0
3.2739999 -0.001 0 16 16 0
3.2939999 0.0070000002 -0.0040000002 16 16 0
3.313 0.016000001 -0.0089999996 19 16 0
3.325 0.026000001 -0.014 37 16 0
3.3150001 0.035 -0.018999999 48 16 0
3.3080001 0.045000002 -0.024 46 16 0
3.306 0.054000001 -0.028999999 36 16 0
3.2950001 0.063000001 -0.034000002 44 16 0
3.286 0.071999997 -0.039000001 47 16 0
3.283 0.082000002 -0.044 49 16 0
3.277 0.090999998 -0.048999999 51 16 0
3.267 0.1 -0.054000001 52 16 0
3.257 0.109 -0.059 50 16 0
3.25 0.118 -0.064000003 50 16 0
3.2449999 0.127 -0.068999998 49 16 0
3.243 0.13600001 -0.072999999 50 16 0
3.2320001 0.145 -0.078000002 51 16 0
3.233 0.154 -0.082999997 50 16 0
3.2219999 0.163 -0.086999997 59 16 0
3.2119999 0.17200001 -0.092 54 16 0
3.207 0.18099999 -0.097000003 55 16 0
3.201 0.19 -0.101 55 16 0
3.1919999 0.199 -0.106 65 16 0
3.1860001 0.207 -0.11 61 16 0
3.1760001 0.21600001 -0.114 65 16 0
3.175 0.22499999 -0.119 54 16 0
3.165 0.234 -0.123 70 16 0
3.1630001 0.243 -0.12800001 80 16 0
3.1559999 0.25099999 -0.132 57 16 0
3.145 0.25999999 -0.13600001 60 16 0
3.138 0.26800001 -0.14 54 16 0
3.1329999 0.27700001 -0.145 70 16 0
3.1289999 0.28600001 -0.149 68 16 0
3.119 0.294 -0.153 74 16 0
3.112 0.303 -0.15700001 66 16 0
3.108 0.31099999 -0.161 65 16 0
3.1040001 0.31999999 -0.16500001 79 16 0
3.0940001 0.32800001 -0.169 70 16 0
3.0869999 0.33700001 -0.17299999 72 16 0
3.0829999 0.345 -0.177 78 16 0
3.0769999 0.354 -0.18099999 78 16 0
3.0669999 0.361 -0.185 96 16 0
3.0650001 0.37 -0.189 92 16 0
3.0539999 0.37799999 -0.192 84 16 0
3.053 0.38699999 -0.19599999 85 16 0
3.0409999 0.39500001 -0.2 77 16 0
3.04 0.40400001 -0.204 91 16 0
3.029 0.41100001 -0.207 85 16 0
3.0250001 0.41999999 -0.211 93 16 0
3.0179999 0.428 -0.214 82 16 0
3.0139999 0.43599999 -0.21799999 79 16 0
3.0120001 0.44499999 -0.222 79 16 0
3.0039999 0.45300001 -0.22499999 96 16 0
2.997 0.461 -0.229 81 16 0
2.9920001 0.46900001 -0.23199999 78 16 0
2.9860001 0.477 -0.236 91 16 0
2.9790001 0.48500001 -0.23899999 91 16 0
2.974 0.493 -0.243 79 16 0
2.9649999 0.50099999 -0.24600001 81 16 0
2.9579999 0.509 -0.249 87 16 0
2.9579999 0.51800001 -0.25299999 99 16 0
2.9519999 0.52600002 -0.25600001 101 16 0
2.944 0.53299999 -0.259 94 16 0
2.9419999 0.542 -0.26300001 112 16 0
2.9360001 0.55000001 -0.266 107 16 0
2.9260001 0.55699998 -0.26899999 109 16 0
2.9260001 0.56599998 -0.27200001 115 16 0
2.9119999 0.57200003 -0.27500001 128 16 0
2.905 0.57999998 -0.278 145 16 0
2.9030001 0.588 -0.28099999 145 16 0
2.895 0.59600002 -0.28400001 144 16 0
2.891 0.60399997 -0.287 150 16 0
2.8870001 0.61199999 -0.28999999 150 16 0
2.8789999 0.61900002 -0.29300001 131 16 0
2.872 0.62699997 -0.29499999 133 16 0
2.8710001 0.63499999 -0.29899999 143 16 0
2.862 0.64200002 -0.301 143 16 0
2.859 0.65100002 -0.30399999 141 16 0
2.8510001 0.65799999 -0.30700001 149 16 0
2.8440001 0.66500002 -0.30899999 134 16 0
2.842 0.67299998 -0.31200001 150 16 0
2.8399999 0.68199998 -0.315 150 16 0
2.8299999 0.68800002 -0.31799999 138 16 0
2.825 0.69599998 -0.31999999 148 16 0
2.823 0.70499998 -0.32300001 150 16 0
2.8180001 0.71200001 -0.32600001 147 16 0
2.8080001 0.71899998 -0.32800001 140 16 0
2.806 0.727 -0.331 150 16 0
2.8010001 0.73500001 -0.333 146 16 0
2.7980001 0.74299997 -0.336 150 16 0
2.79 0.74900001 -0.338 150 16 0
2.7869999 0.75800002 -0.34099999 150 16 0
2.7850001 0.76599997 -0.34299999 147 16 0
2.78 0.77399999 -0.34599999 150 16 0
2.767 0.77899998 -0.347 150 16 0
2.7639999 0.787 -0.34999999 150 16 0
2.7620001 0.79500002 -0.352 150 16 0
2.7520001 0.801 -0.354 150 16 0
2.7520001 0.81 -0.35699999 150 16 0
2.744 0.81699997 -0.35800001 150 16 0
2.7390001 0.824 -0.36000001 150 16 0
2.737 0.83200002 -0.36300001 150 16 0
2.7360001 0.84100002 -0.36500001 150 16 0
2.723 0.84600002 -0.366 150 16 0
2.7179999 0.85299999 -0.368 150 16 0
2.72 0.86199999 -0.37099999 150 16 0
2.711 0.86900002 -0.373 150 16 0
2.7079999 0.87699997 -0.375 150 16 0
2.7060001 0.884 -0.377 150 16 0
2.691 0.889 -0.37799999 150 16 0
2.6900001 0.89700001 -0.38 150 16 0
2.6830001 0.903 -0.38100001 150 16 0
2.6830001 0.912 -0.384 150 16 0
2.6800001 0.92000002 -0.38600001 150 16 0
2.674 0.92699999 -0.38699999 150 16 0
2.674 0.93599999 -0.389 150 16 0
2.6589999 0.93900001 -0.389 150 16 0
2.661 0.949 -0.39199999 150 16 0
2.655 0.95499998 -0.39300001 90 16 0
2.6730001 0.97100002 -0.398 77 16 0
2.6500001 0.97100002 -0.39700001 150 16 0
2.642 0.977 -0.398 150 16 0
2.638 0.98400003 -0.39899999 150 16 0
2.635 0.99199998 -0.40099999 150 16 0
2.628 0.99800003 -0.40200001 150 16 0
2.6259999 1.006 -0.40400001 150 16 0
2.618 1.011 -0.40400001 150 16 0
2.615 1.0190001 -0.40599999 150 16 0
2.6110001 1.026 -0.40700001 150 16 0
2.608 1.034 -0.40799999 150 16 0
2.602 1.04 -0.40900001 150 16 0
2.5940001 1.045 -0.41 150 16 0
2.5940001 1.054 -0.41100001 150 16 0
2.5869999 1.0599999 -0.412 150 16 0
2.5829999 1.067 -0.41299999 150 16 0
2.5799999 1.074 -0.414 150 16 0
2.575 1.081 -0.41499999 150 16 0
2.5769999 1.09 -0.417 150 16 0
2.5699999 1.096 -0.417 150 16 0
2.5669999 1.103 -0.41800001 150 16 0
2.5580001 1.108 -0.41800001 150 16 0
2.559 1.117 -0.41999999 150 16 0
2.5510001 1.122 -0.41999999 150 16 0
2.552 1.131 -0.421 150 16 0
2.546 1.136 -0.42199999 150 16 0
2.54 1.142 -0.42199999 150 16 0
2.536 1.149 -0.42199999 150 16 0
2.533 1.156 -0.42300001 150 16 0
2.5320001 1.164 -0.42399999 150 16 0
2.526 1.17 -0.42399999 150 16 0
2.523 1.176 -0.42500001 150 16 0
2.517 1.182 -0.42500001 150 16 0
2.5139999 1.189 -0.42500001 150 16 0
2.5109999 1.196 -0.426 150 16 0
2.5079999 1.202 -0.426 150 16 0
2.5039999 1.209 -0.426 150 16 0
2.5009999 1.216 -0.426 150 16 0
2.4979999 1.222 -0.42699999 150 16 0
2.494 1.229 -0.42699999 150 16 0
2.4909999 1.235 -0.42699999 150 16 0
2.4879999 1.242 -0.42699999 150 16 0
2.4849999 1.248 -0.42699999 150 16 0
2.4820001 1.255 -0.42699999 150 16 0
2.4809999 1.262 -0.42699999 150 16 0
2.474 1.267 -0.42699999 150 16 0
2.4719999 1.274 -0.42699999 150 16 0
2.4679999 1.279 -0.426 150 16 0
2.4649999 1.286 -0.426 150 16 0
2.4619999 1.2920001 -0.426 150 16 0
2.4579999 1.298 -0.426 150 16 0
2.4549999 1.304 -0.42500001 150 16 0
2.4530001 1.311 -0.42500001 150 16 0
2.45 1.317 -0.42399999 150 16 0
2.4460001 1.322 -0.42399999 150 16 0
2.4460001 1.33 -0.42399999 150 16 0
2.4419999 1.335 -0.42300001 150 16 0
2.4360001 1.34 -0.42199999 150 16 0
2.434 1.346 -0.42199999 150 16 0
2.4300001 1.351 -0.421 150 16 0
2.431 1.359 -0.41999999 150 16 0
2.428 1.364 -0.41999999 150 16 0
2.425 1.37 -0.419 150 16 0
2.4219999 1.376 -0.41800001 150 16 0
2.4189999 1.381 -0.417 150 16 0
2.4159999 1.387 -0.41600001 150 16 0
2.4119999 1.391 -0.41499999 150 16 0
2.4100001 1.397 -0.414 150 16 0
2.4070001 1.403 -0.41299999 150 16 0
2.404 1.408 -0.412 150 16 0
2.4030001 1.414 -0.41100001 150 16 0
2.3989999 1.418 -0.40900001 150 16 0
2.3970001 1.424 -0.40799999 150 16 0
2.3959999 1.4299999 -0.40700001 150 16 0
2.3940001 1.4349999 -0.40599999 150 16 0
2.391 1.4400001 -0.40400001 150 16 0
2.3900001 1.446 -0.403 150 16 0
2.3859999 1.45 -0.40099999 150 16 0
2.3829999 1.454 -0.40000001 150 16 0
2.3840001 1.461 -0.39899999 150 16 0
2.378 1.4630001 -0.39700001 150 16 0
2.381 1.472 -0.396 150 16 0
2.381 1.477 -0.39500001 150 16 0
2.3759999 1.48 -0.39199999 150 16 0
2.3770001 1.4859999 -0.391 150 16 0
2.3740001 1.4910001 -0.389 150 16 0
2.369 1.493 -0.38699999 150 16 0
2.369 1.498 -0.38499999 150 16 0
2.369 1.5039999 -0.384 150 16 0
2.3670001 1.508 -0.382 150 16 0
2.3670001 1.5140001 -0.38 150 16 0
2.365 1.518 -0.37799999 150 16 0
2.3629999 1.521 -0.37599999 150 16 0
2.362 1.526 -0.37400001 150 16 0
2.365 1.533 -0.37200001 150 16 0
2.3559999 1.5319999 -0.36899999 150 16 0
2.3570001 1.538 -0.36700001 150 16 0
2.359 1.543 -0.36500001 150 16 0
2.3540001 1.545 -0.36300001 150 16 0
2.3570001 1.552 -0.361 150 16 0
2.3499999 1.551 -0.35800001 150 16 0
2.348 1.554 -0.35499999 150 16 0
2.349 1.559 -0.35299999 150 16 0
2.355 1.567 -0.352 150 16 0
2.3510001 1.568 -0.34900001 150 16 0
2.349 1.571 -0.34599999 150 16 0
2.348 1.574 -0.34400001 150 16 0
2.346 1.576 -0.34099999 150 16 0
2.345 1.579 -0.338 150 16 0
2.346 1.5829999 -0.336 150 16 0
2.3469999 1.587 -0.33399999 150 16 0
2.348 1.591 -0.331 150 16 0
2.3469999 1.5930001 -0.32800001 150 16 0
2.346 1.595 -0.32499999 150 16 0
2.345 1.598 -0.32300001 150 16 0
2.3469999 1.602 -0.31999999 150 16 0
2.346 1.604 -0.317 150 16 0
2.345 1.6059999 -0.31400001 150 16 0
2.3440001 1.607 -0.31099999 150 16 0
2.3499999 1.614 -0.30899999 150 16 0
2.345 1.612 -0.30599999 150 16 0
2.3440001 1.614 -0.30199999 150 16 0
2.3440001 1.615 -0.29899999 150 16 0
2.348 1.62 -0.29699999 150 16 0
2.348 1.622 -0.294 150 16 0
2.348 1.623 -0.29100001 150 16 0
2.348 1.624 -0.28799999 150 16 0
2.3469999 1.625 -0.28400001 150 16 0
2.3469999 1.626 -0.28099999 150 16 0
2.3510001 1.63 -0.27900001 150 16 0
2.3469999 1.628 -0.27500001 150 16 0
2.3510001 1.631 -0.27200001 150 16 0
2.352 1.633 -0.26899999 150 16 0
2.3559999 1.636 -0.266 150 16 0
2.352 1.6339999 -0.26199999 150 16 0
2.3570001 1.638 -0.259 150 16 0
2.358 1.638 -0.25600001 150 16 0
2.3570001 1.638 -0.25299999 150 16 0
2.3570001 1.638 -0.249 150 16 0
2.3599999 1.6390001 -0.24600001 150 16 0
2.358 1.638 -0.243 150 16 0
2.3629999 1.64 -0.23999999 150 16 0
2.362 1.6390001 -0.236 150 16 0
2.365 1.64 -0.233 150 16 0
2.3659999 1.64 -0.229 150 16 0
2.3670001 1.64 -0.226 150 16 0
2.368 1.6390001 -0.222 150 16 0
2.3699999 1.6390001 -0.219 150 16 0
2.372 1.6390001 -0.21600001 150 16 0
2.372 1.638 -0.212 150 16 0
2.3729999 1.637 -0.20900001 150 16 0
2.3789999 1.6390001 -0.206 150 16 0
2.3800001 1.638 -0.20299999 150 16 0
2.381 1.637 -0.199 150 16 0
2.3859999 1.637 -0.19599999 150 16 0
2.3840001 1.6339999 -0.192 150 16 0
2.388 1.6339999 -0.189 150 16 0
2.391 1.6339999 -0.186 150 16 0
2.3940001 1.633 -0.182 150 16 0
2.3940001 1.63 -0.17900001 150 16 0
2.3989999 1.631 -0.176 150 16 0
2.4000001 1.628 -0.17200001 150 16 0
2.404 1.628 -0.169 150 16 0
2.4070001 1.627 -0.16599999 150 16 0
2.408 1.623 -0.162 150 16 0
2.4089999 1.6210001 -0.15899999 150 16 0
2.4159999 1.622 -0.156 150 16 0
2.411 1.615 -0.152 150 16 0
2.415 1.614 -0.148 150 16 0
2.4200001 1.613 -0.145 150 16 0
2.424 1.612 -0.142 150 16 0
2.4260001 1.609 -0.139 150 16 0
2.428 1.6059999 -0.13500001 150 16 0
2.4300001 1.603 -0.132 150 16 0
2.437 1.603 -0.12899999 150 16 0
2.4389999 1.599 -0.126 150 16 0
2.441 1.596 -0.122 150 16 0
2.444 1.5930001 -0.119 150 16 0
2.4460001 1.589 -0.116 150 16 0
2.444 1.5829999 -0.112 150 16 0
2.4530001 1.584 -0.109 150 16 0
2.454 1.579 -0.106 150 16 0
2.4579999 1.577 -0.103 150 16 0
2.461 1.573 -0.1 150 16 0
2.464 1.5700001 -0.097000003 150 16 0
2.4660001 1.5650001 -0.093999997 150 16 0
2.47 1.562 -0.090000004 150 16 0
2.4719999 1.558 -0.086999997 150 16 0
2.474 1.553 -0.083999999 150 16 0
2.48 1.551 -0.081 150 16 0
2.483 1.546 -0.078000002 150 16 0
2.4860001 1.5420001 -0.075000003 150 16 0
2.4890001 1.538 -0.071999997 150 16 0
2.4890001 1.531 -0.068999998 150 16 0
2.4949999 1.528 -0.066 150 16 0
2.4990001 1.525 -0.064000003 150 16 0
2.503 1.521 -0.061000001 150 16 0
2.506 1.516 -0.057999998 150 16 0
2.5120001 1.512 -0.055 150 16 0
2.517 1.5089999 -0.052000001 150 16 0
2.5190001 1.5039999 -0.050000001 150 16 0
2.5239999 1.499 -0.046999998 150 16 0
2.523 1.492 -0.044 150 16 0
2.5239999 1.485 -0.041000001 150 16 0
2.533 1.484 -0.039000001 150 16 0
2.5369999 1.478 -0.035999998 150 16 0
2.536 1.471 -0.033 150 16 0
2.543 1.4680001 -0.030999999 150 16 0
2.549 1.464 -0.028000001 150 16 0
2.5539999 1.459 -0.026000001 150 16 0
2.5610001 1.455 -0.023 150 16 0
2.5610001 1.448 -0.02 150 16 0
2.5680001 1.444 -0.017999999 150 16 0
2.5710001 1.438 -0.015 150 16 0
2.575 1.432 -0.013 150 16 0
2.5780001 1.426 -0.011 150 16 0
2.5829999 1.421 -0.0080000004 150 16 0
2.586 1.415 -0.0060000001 150 16 0
2.5880001 1.408 -0.0040000002 150 16 0
2.5929999 1.403 -0.0020000001 150 16 0
2.598 1.398 0 150 16 0
2.6029999 1.392 0.0020000001 150 16 0
2.6070001 1.386 0.0040000002 150 16 0
2.6099999 1.3789999 0.0060000001 150 16 0
2.615 1.373 0.0080000004 150 16 0
2.6170001 1.3660001 0.011 150 16 0
2.6240001 1.362 0.013 150 16 0
2.6289999 1.3559999 0.015 150 16 0
2.6329999 1.349 0.017000001 150 16 0
2.6359999 1.3430001 0.018999999 150 16 0
2.6400001 1.336 0.02 150 16 0
2.6440001 1.329 0.022 150 16 0
2.6470001 1.323 0.024 150 16 0
2.6530001 1.317 0.026000001 150 16 0
2.654 1.309 0.028000001 150 16 0
2.6600001 1.303 0.029999999 150 16 0
2.664 1.296 0.032000002 150 16 0
2.6670001 1.289 0.033 150 16 0
2.671 1.2819999 0.035 150 16 0
2.677 1.276 0.037 150 16 0
2.6800001 1.268 0.037999999 150 16 0
2.684 1.261 0.039999999 150 16 0
2.687 1.2539999 0.041000001 150 16 0
2.6930001 1.248 0.043000001 150 16 0
2.694 1.239 0.044 150 16 0
2.7019999 1.234 0.046 150 16 0
2.7049999 1.226 0.046999998 150 16 0
2.7079999 1.219 0.048999999 150 16 0
2.7119999 1.211 0.050000001 150 16 0
2.721 1.206 0.052000001 150 16 0
2.727 1.199 0.052999999 150 16 0
2.7309999 1.192 0.054000001 150 16 0
2.7379999 1.186 0.056000002 150 16 0
2.743 1.179 0.057 150 16 0
2.7449999 1.17 0.057999998 150 16 0
2.7539999 1.164 0.059999999 150 16 0
2.753 1.155 0.059999999 150 16 0
2.76 1.149 0.061999999 150 16 0
2.7639999 1.141 0.063000001 150 16 0
2.7709999 1.1339999 0.064000003 150 16 0
2.7709999 1.125 0.064999998 150 16 0
2.7739999 1.117 0.066 150 16 0
2.7809999 1.11 0.067000002 150 16 0
2.783 1.101 0.068000004 150 16 0
2.7939999 1.096 0.068999998 150 16 0
2.793 1.086 0.07 150 16 0
2.799 1.079 0.071000002 150 16 0
2.8039999 1.071 0.071000002 150 16 0
2.8069999 1.063 0.071999997 150 16 0
2.8099999 1.0549999 0.072999999 149 16 0
2.8180001 1.048 0.074000001 150 16 0
2.8210001 1.04 0.074000001 150 16 0
2.823 1.031 0.075000003 150 16 0
2.826 1.022 0.075999998 150 16 0
2.839 1.017 0.077 150 16 0
2.839 1.007 0.077 150 16 0
2.842 0.99900001 0.078000002 150 16 0
2.849 0.99199998 0.078000002 150 16 0
2.8510001 0.98299998 0.079000004 141 16 0
2.868 0.97899997 0.079999998 32 16 0
2.8670001 0.96899998 0.079999998 44 16 0
2.8640001 0.958 0.079999998 150 16 0
2.8699999 0.94999999 0.081 145 16 0
2.8729999 0.94199997 0.081 148 16 0
2.878 0.93400002 0.081 150 16 0
2.881 0.92500001 0.082000002 150 16 0
2.888 0.917 0.082000002 147 16 0
2.888 0.90700001 0.082000002 150 16 0
2.898 0.90100002 0.082999997 127 16 0
2.9030001 0.89300001 0.082999997 150 16 0
2.8989999 0.88200003 0.082999997 150 16 0
2.9070001 0.87400001 0.082999997 150 16 0
2.915 0.86699998 0.083999999 150 16 0
2.915 0.85699999 0.083999999 150 16 0
2.925 0.85000002 0.083999999 150 16 0
2.9230001 0.83899999 0.083999999 150 16 0
2.9319999 0.83200002 0.083999999 150 16 0
2.9400001 0.824 0.083999999 150 16 0
2.9389999 0.81400001 0.083999999 150 16 0
2.9449999 0.80599999 0.083999999 150 16 0
2.947 0.79699999 0.083999999 150 16 0
2.947 0.787 0.083999999 150 16 0
2.9579999 0.77999997 0.083999999 150 16 0
2.961 0.77100003 0.083999999 150 16 0
2.9660001 0.76200002 0.082999997 150 16 0
2.97 0.75300002 0.082999997 150 16 0
2.9760001 0.745 0.082999997 150 16 0
2.98 0.736 0.082999997 150 16 0
2.984 0.727 0.082999997 150 16 0
2.9909999 0.71899998 0.082000002 145 16 0
2.9979999 0.70999998 0.082000002 150 16 0
3 0.69999999 0.082000002 148 16 0
3.006 0.69199997 0.081 150 16 0
3.007 0.68199998 0.081 150 16 0
3.013 0.67400002 0.081 136 16 0
3.017 0.66399997 0.079999998 133 16 0
3.023 0.65600002 0.079999998 129 16 0
3.0250001 0.64600003 0.079000004 124 16 0
3.027 0.63700002 0.079000004 126 16 0
3.0369999 0.62900001 0.078000002 125 16 0
3.04 0.61900002 0.078000002 115 16 0
3.046 0.61000001 0.077 118 16 0
3.0539999 0.602 0.077 114 16 0
3.062 0.59299999 0.075999998 116 16 0
3.0650001 0.58399999 0.075999998 119 16 0
3.0669999 0.574 0.075000003 110 16 0
3.069 0.56400001 0.074000001 98 16 0
3.0799999 0.55599999 0.074000001 134 16 0
3.0869999 0.54699999 0.072999999 121 16 0
3.0840001 0.53600001 0.071999997 123 16 0
3.0929999 0.528 0.071000002 99 16 0
3.095 0.51800001 0.071000002 100 16 0
3.1010001 0.509 0.07 109 16 0
3.1029999 0.49900001 0.068999998 99 16 0
3.105 0.48899999 0.068000004 105 16 0
3.115 0.48100001 0.067000002 93 16 0
3.1159999 0.47099999 0.066 79 16 0
3.1259999 0.46200001 0.066 104 16 0
3.1289999 0.45199999 0.064999998 112 16 0
3.1359999 0.44299999 0.064000003 93 16 0
3.142 0.433 0.063000001 123 16 0
3.145 0.42399999 0.061999999 107 16 0
3.151 0.414 0.061000001 114 16 0
3.154 0.40400001 0.059999999 100 16 0
3.158 0.39500001 0.059 101 16 0
3.1659999 0.38499999 0.057 102 16 0
3.1689999 0.375 0.056000002 116 16 0
3.1719999 0.36500001 0.055 103 16 0
3.1730001 0.35499999 0.054000001 99 16 0
3.1800001 0.34599999 0.052999999 95 16 0
3.1830001 0.336 0.052000001 77 16 0
3.191 0.32600001 0.050000001 75 16 0
3.1919999 0.31600001 0.048999999 65 16 0
3.1989999 0.30599999 0.048 54 16 0
3.2060001 0.29699999 0.046999998 50 16 0
3.207 0.287 0.045000002 48 16 0
3.2079999 0.27599999 0.044 45 16 0
3.2130001 0.266 0.043000001 43 16 0
3.2219999 0.257 0.041000001 42 16 0
3.221 0.24600001 0.039999999 38 16 0
3.1989999 0.234 0.037999999 35 16 0
3.1930001 0.22400001 0.035999998 45 16 0
3.194 0.213 0.035 34 16 0
3.23 0.205 0.034000002 33 19 0
3.2420001 0.19599999 0.032000002 34 16 0
3.244 0.186 0.030999999 34 16 0
3.2490001 0.175 0.028999999 32 16 0
3.257 0.16500001 0.028000001 32 16 0
3.2579999 0.155 0.026000001 32 16 0
3.27 0.145 0.025 45 16 0
3.277 0.13500001 0.023 76 16 0
3.286 0.125 0.021 84 16 0
3.2909999 0.114 0.02 83 16 0
3.296 0.104 0.017999999 86 16 0
3.2980001 0.093999997 0.016000001 80 16 0
3.299 0.082999997 0.014 87 16 0
3.3099999 0.072999999 0.013 71 16 0
3.3110001 0.061999999 0.011 47 16 0
3.3169999 0.052000001 0.0089999996 50 16 0
3.319 0.041000001 0.0070000002 70 16 0
3.3269999 0.030999999 0.0049999999 55 16 0
3.3210001 0.02 0.003 24 16 0
3.299 0.0089999996 0.001 19 16 0
3.2720001 0 0 18 16 0
3.247 -0.0099999998 -0.0020000001 23 16 0
3.2420001 -0.021 -0.003 90 16 0
3.25 -0.030999999 -0.0049999999 150 16 0
3.2550001 -0.041999999 -0.0070000002 150 16 0
3.2590001 -0.052000001 -0.0089999996 150 16 0
3.26 -0.061999999 -0.011 150 16 0
3.2520001 -0.071999997 -0.013 43 16 0
3.2320001 -0.082000002 -0.015 30 16 0
3.2060001 -0.092 -0.017000001 29 16 0
3.1919999 -0.102 -0.018999999 29 16 0
3.1689999 -0.111 -0.021 29 16 0
3.145 -0.12 -0.023 28 16 0
3.122 -0.12899999 -0.025 27 16 0
3.1029999 -0.138 -0.027000001 28 16 0
3.0799999 -0.147 -0.028999999 27 16 0
3.059 -0.156 -0.030999999 28 16 0
3.0409999 -0.164 -0.032000002 28 16 0
3.02 -0.17299999 -0.034000002 27 16 0
2.9979999 -0.18099999 -0.035999998 27 16 0
