# .PCD v0.7 - Point Cloud Data file format
VERSION 0.7
FIELDS x y z intensity tag line
SIZE 4 4 4 4 1 1
TYPE F F F F U U
COUNT 1 1 1 1 1 1
WIDTH 1363
HEIGHT 1
VIEWPOINT 0 0 0 1 0 0 0
POINTS 1363
DATA ascii
2.5309999 0.223 -1.539 126 16 0
2.529 0.227 -1.544 110 16 0
2.5250001 0.23 -1.548 112 16 0
2.517 0.233 -1.549 110 16 0
2.5109999 0.236 -1.551 116 16 0
2.5120001 0.23999999 -1.557 109 16 0
2.5090001 0.244 -1.561 103 16 0
2.507 0.24699999 -1.5650001 107 16 0
2.5039999 0.25099999 -1.569 105 16 0
2.5009999 0.25400001 -1.572 111 16 0
2.4890001 0.257 -1.5700001 101 16 0
2.4920001 0.26100001 -1.577 110 16 0
2.49 0.26499999 -1.581 109 16 0
2.487 0.26800001 -1.584 97 16 0
2.4849999 0.27200001 -1.5880001 98 16 0
2.4820001 0.27500001 -1.59 107 16 0
2.4719999 0.278 -1.589 101 16 0
2.477 0.28299999 -1.597 102 16 0
2.467 0.285 -1.595 99 16 0
2.4630001 0.289 -1.596 93 16 0
2.461 0.292 -1.599 94 16 0
2.4560001 0.296 -1.6 111 16 0
2.4560001 0.30000001 -1.604 99 16 0
2.4530001 0.303 -1.607 93 16 0
2.454 0.30700001 -1.6109999 94 16 0
2.4489999 0.31099999 -1.6109999 104 16 0
2.4449999 0.31400001 -1.612 98 16 0
2.444 0.31799999 -1.615 113 16 0
2.4430001 0.322 -1.618 106 16 0
2.438 0.32499999 -1.618 105 16 0
2.437 0.329 -1.62 103 16 0
2.4349999 0.33199999 -1.622 109 16 0
2.4289999 0.33500001 -1.6210001 101 16 0
2.4289999 0.33899999 -1.624 105 16 0
2.4260001 0.34299999 -1.624 102 16 0
2.424 0.34599999 -1.626 102 16 0
2.424 0.34999999 -1.628 110 16 0
2.4200001 0.35299999 -1.628 99 16 0
2.4170001 0.35699999 -1.628 101 16 0
2.4159999 0.361 -1.6289999 105 16 0
2.415 0.36399999 -1.63 104 16 0
2.4130001 0.368 -1.631 97 16 0
2.4070001 0.37 -1.628 99 16 0
2.408 0.37400001 -1.631 99 16 0
2.4000001 0.377 -1.627 136 16 0
2.4059999 0.382 -1.632 144 16 0
2.401 0.384 -1.63 146 16 0
2.398 0.38800001 -1.6289999 131 16 0
2.3959999 0.391 -1.628 135 16 0
2.3929999 0.39399999 -1.627 142 16 0
2.3870001 0.39700001 -1.624 123 16 0
2.3940001 0.40200001 -1.6289999 138 16 0
2.388 0.40400001 -1.626 142 16 0
2.388 0.40799999 -1.625 137 16 0
2.3870001 0.41100001 -1.625 142 16 0
2.382 0.414 -1.622 140 16 0
2.3829999 0.417 -1.622 137 16 0
2.3829999 0.421 -1.622 133 16 0
2.3800001 0.42300001 -1.62 135 16 0
2.3800001 0.42699999 -1.619 136 16 0
2.3800001 0.43000001 -1.618 146 16 0
2.3800001 0.43399999 -1.618 138 16 0
2.378 0.43599999 -1.615 137 16 0
2.378 0.44 -1.614 142 16 0
2.375 0.442 -1.6109999 150 16 0
2.3759999 0.44600001 -1.61 132 16 0
2.3759999 0.449 -1.609 139 16 0
2.375 0.45199999 -1.607 139 16 0
2.3759999 0.45500001 -1.6059999 140 16 0
2.3710001 0.45699999 -1.601 125 16 0
2.372 0.46000001 -1.599 142 16 0
2.372 0.463 -1.598 131 16 0
2.3729999 0.46599999 -1.596 150 16 0
2.372 0.46799999 -1.5930001 133 16 0
2.372 0.47099999 -1.591 150 16 0
2.3729999 0.47400001 -1.589 143 16 0
2.369 0.47600001 -1.584 141 16 0
2.375 0.47999999 -1.585 145 16 0
2.3729999 0.48199999 -1.581 150 16 0
2.369 0.484 -1.575 134 16 0
2.3699999 0.486 -1.573 131 16 0
2.3710001 0.48899999 -1.5700001 143 16 0
2.372 0.49200001 -1.568 134 16 0
2.3740001 0.49399999 -1.5650001 150 16 0
2.3699999 0.49599999 -1.5599999 149 16 0
2.368 0.498 -1.5549999 143 16 0
2.3699999 0.5 -1.552 140 16 0
2.3740001 0.50300002 -1.551 150 16 0
2.372 0.505 -1.546 150 16 0
2.3729999 0.50700003 -1.5420001 150 16 0
2.375 0.509 -1.539 150 16 0
2.3759999 0.51200002 -1.536 146 16 0
2.375 0.51300001 -1.531 150 16 0
2.378 0.51599997 -1.528 150 16 0
2.3770001 0.51700002 -1.523 150 16 0
2.3789999 0.51899999 -1.5190001 150 16 0
2.381 0.52200001 -1.516 150 16 0
2.3789999 0.523 -1.51 150 16 0
2.3840001 0.52499998 -1.508 150 16 0
2.378 0.52600002 -1.499 150 16 0
2.3840001 0.528 -1.498 150 16 0
2.3829999 0.52899998 -1.4910001 150 16 0
2.385 0.53100002 -1.487 150 16 0
2.3870001 0.53299999 -1.483 150 16 0
2.3889999 0.53399998 -1.479 150 16 0
2.3900001 0.53600001 -1.474 150 16 0
2.388 0.53600001 -1.467 150 16 0
2.3900001 0.53799999 -1.4630001 150 16 0
2.392 0.53899997 -1.459 150 16 0
2.391 0.54000002 -1.452 150 16 0
2.3940001 0.542 -1.448 150 16 0
2.3959999 0.54299998 -1.443 150 16 0
2.3989999 0.54400003 -1.438 150 16 0
2.404 0.546 -1.4349999 150 16 0
2.4070001 0.54699999 -1.431 150 16 0
2.4059999 0.54799998 -1.424 150 16 0
2.4059999 0.54799998 -1.418 150 16 0
2.4089999 0.54900002 -1.413 150 16 0
2.4170001 0.55199999 -1.411 150 16 0
2.414 0.551 -1.403 150 16 0
2.414 0.55199999 -1.396 150 16 0
2.4159999 0.55199999 -1.391 150 16 0
2.4200001 0.55299997 -1.386 150 16 0
2.4230001 0.55400002 -1.381 150 16 0
2.4260001 0.55500001 -1.376 150 16 0
2.427 0.55500001 -1.369 150 16 0
2.4300001 0.55599999 -1.364 150 16 0
2.4319999 0.55599999 -1.358 150 16 0
2.4349999 0.55699998 -1.352 150 16 0
2.438 0.55699998 -1.347 150 16 0
2.441 0.55800003 -1.341 150 16 0
2.444 0.55800003 -1.336 150 16 0
2.444 0.55800003 -1.329 150 16 0
2.451 0.55900002 -1.325 150 16 0
2.454 0.55900002 -1.319 150 16 0
2.4519999 0.55800003 -1.3099999 150 16 0
2.4549999 0.55800003 -1.3049999 150 16 0
2.46 0.55900002 -1.3 150 16 0
2.4630001 0.55900002 -1.294 150 16 0
2.4660001 0.55900002 -1.288 150 16 0
2.4679999 0.55800003 -1.281 150 16 0
2.4719999 0.55800003 -1.276 150 16 0
2.473 0.55800003 -1.2690001 150 16 0
2.477 0.55800003 -1.262 150 16 0
2.48 0.55699998 -1.256 150 16 0
2.483 0.55699998 -1.25 150 16 0
2.4890001 0.55699998 -1.245 150 16 0
2.4909999 0.55699998 -1.238 150 16 0
2.4920001 0.55599999 -1.2309999 150 16 0
2.4960001 0.55500001 -1.225 150 16 0
2.4990001 0.55500001 -1.219 150 16 0
2.5020001 0.55400002 -1.212 150 16 0
2.5050001 0.55299997 -1.205 150 16 0
2.507 0.55199999 -1.198 150 16 0
2.5120001 0.55199999 -1.193 150 16 0
2.513 0.551 -1.1849999 150 16 0
2.516 0.55000001 -1.178 150 16 0
2.5190001 0.54900002 -1.1720001 150 16 0
2.523 0.54799998 -1.165 150 16 0
2.527 0.54699999 -1.159 150 16 0
2.5320001 0.54699999 -1.153 150 16 0
2.5350001 0.546 -1.146 150 16 0
2.539 0.54400003 -1.1390001 150 16 0
2.5450001 0.54400003 -1.1339999 150 16 0
2.549 0.54299998 -1.127 150 16 0
2.5480001 0.54100001 -1.119 150 16 0
2.552 0.53899997 -1.112 150 16 0
2.5550001 0.53799999 -1.105 150 16 0
2.5580001 0.537 -1.098 150 16 0
2.563 0.53600001 -1.092 150 16 0
2.572 0.53500003 -1.087 150 16 0
2.5739999 0.53399998 -1.08 150 16 0
2.573 0.53100002 -1.071 150 16 0
2.582 0.53100002 -1.066 150 16 0
2.5829999 0.52899998 -1.058 150 16 0
2.5869999 0.52700001 -1.052 150 16 0
2.5940001 0.52600002 -1.046 150 16 0
2.599 0.52399999 -1.039 150 16 0
2.5969999 0.52200001 -1.03 150 16 0
2.609 0.52200001 -1.026 26 16 0
2.612 0.51999998 -1.0190001 0 16 0
2.5079999 0.49599999 -0.97000003 0 17 0
2.5929999 0.51099998 -0.995 0 18 0
2.529 0.495 -0.96200001 0 19 0
2.5999999 0.50700003 -0.98000002 0 19 0
2.527 0.49000001 -0.94499999 0 19 0
2.562 0.49399999 -0.949 0 16 0
2.4679999 0.47299999 -0.90600002 0 16 0
2.579 0.49200001 -0.93900001 0 18 0
2.5469999 0.48300001 -0.91900003 0 16 0
2.6400001 0.49700001 -0.94400001 0 16 0
2.658 0.498 -0.94199997 13 16 0
2.6619999 0.49599999 -0.935 150 16 0
2.661 0.493 -0.926 150 16 0
2.668 0.491 -0.92000002 150 16 0
2.6670001 0.48800001 -0.91100001 150 16 0
2.6700001 0.48500001 -0.903 150 16 0
2.677 0.48300001 -0.89700001 150 16 0
2.6849999 0.48100001 -0.89099997 150 16 0
2.6860001 0.47799999 -0.88300002 150 16 0
2.6919999 0.47600001 -0.87699997 150 16 0
2.6949999 0.47299999 -0.86900002 150 16 0
2.698 0.47099999 -0.861 150 16 0
2.701 0.46799999 -0.85399997 150 16 0
2.704 0.465 -0.84600002 150 16 0
2.7160001 0.46399999 -0.84100002 150 16 0
2.721 0.461 -0.83399999 150 16 0
2.727 0.45899999 -0.82700002 150 16 0
2.727 0.45500001 -0.81900001 150 16 0
2.74 0.454 -0.81400001 150 16 0
2.743 0.45100001 -0.80599999 150 16 0
2.7379999 0.44600001 -0.796 150 16 0
2.7490001 0.44499999 -0.79100001 150 16 0
2.7520001 0.44100001 -0.78299999 150 16 0
2.757 0.43799999 -0.77600002 150 16 0
2.763 0.43599999 -0.76899999 150 16 0
2.77 0.433 -0.76200002 150 16 0
2.77 0.42899999 -0.75400001 150 16 0
2.773 0.426 -0.74599999 150 16 0
2.786 0.42399999 -0.741 150 16 0
2.7869999 0.421 -0.73199999 150 16 0
2.79 0.417 -0.72500002 150 16 0
2.799 0.41499999 -0.71799999 150 16 0
2.8039999 0.41100001 -0.71100003 150 16 0
2.8069999 0.40799999 -0.70300001 150 16 0
2.812 0.405 -0.69599998 150 16 0
2.8150001 0.40099999 -0.68800002 150 16 0
2.823 0.398 -0.68099999 150 16 0
2.8280001 0.39500001 -0.67400002 150 16 0
2.8329999 0.391 -0.66600001 150 16 0
2.839 0.38800001 -0.65899998 150 16 0
2.842 0.384 -0.65100002 150 16 0
2.8499999 0.38100001 -0.64499998 150 16 0
2.8540001 0.37799999 -0.63700002 150 16 0
2.8610001 0.375 -0.63 150 16 0
2.8629999 0.37099999 -0.62199998 150 16 0
2.8659999 0.36700001 -0.61400002 150 16 0
2.8699999 0.36300001 -0.60600001 150 16 0
2.8789999 0.36000001 -0.59899998 150 16 0
2.8889999 0.35699999 -0.59299999 150 16 0
2.895 0.35299999 -0.58499998 150 16 0
2.9000001 0.34900001 -0.57800001 150 16 0
2.908 0.34599999 -0.57099998 150 16 0
2.9100001 0.34200001 -0.56300002 150 16 0
2.9130001 0.33700001 -0.55400002 150 16 0
2.9230001 0.33399999 -0.54799998 150 16 0
2.9260001 0.33000001 -0.54000002 150 16 0
2.9319999 0.32600001 -0.53200001 150 16 0
2.938 0.322 -0.52499998 150 16 0
2.9460001 0.31799999 -0.51800001 150 16 0
2.95 0.31400001 -0.50999999 150 16 0
2.954 0.31 -0.50199997 150 16 0
2.9590001 0.30599999 -0.49399999 150 16 0
2.9679999 0.30199999 -0.48699999 150 16 0
2.9690001 0.29800001 -0.47799999 150 16 0
2.9779999 0.294 -0.47099999 150 16 0
2.9820001 0.289 -0.463 150 16 0
2.987 0.285 -0.45500001 150 16 0
2.99 0.28 -0.447 150 16 0
2.997 0.27599999 -0.44 150 16 0
3.0009999 0.27200001 -0.43200001 150 16 0
3.007 0.26699999 -0.42399999 150 16 0
3.0150001 0.26300001 -0.41600001 150 16 0
3.02 0.259 -0.40799999 150 16 0
3.026 0.25400001 -0.40099999 150 16 0
3.03 0.25 -0.39199999 150 16 0
3.0309999 0.245 -0.384 150 16 0
3.043 0.241 -0.377 150 16 0
3.0439999 0.236 -0.368 150 16 0
3.0539999 0.23199999 -0.361 150 16 0
3.063 0.227 -0.35299999 150 16 0
3.063 0.222 -0.345 150 16 0
3.0699999 0.21699999 -0.33700001 150 16 0
3.0769999 0.213 -0.329 150 16 0
3.0840001 0.208 -0.32100001 150 16 0
3.0929999 0.20299999 -0.31299999 150 16 0
3.0969999 0.198 -0.30500001 150 16 0
3.099 0.193 -0.29699999 150 16 0
3.1110001 0.189 -0.289 150 16 0
3.1159999 0.184 -0.28099999 150 16 0
3.125 0.17900001 -0.273 146 16 0
3.1259999 0.17399999 -0.26499999 150 16 0
3.1359999 0.169 -0.257 150 16 0
3.1359999 0.164 -0.248 150 16 0
3.148 0.15899999 -0.23999999 150 16 0
3.1559999 0.154 -0.23199999 150 16 0
3.1600001 0.148 -0.22400001 150 16 0
3.171 0.14300001 -0.21600001 150 16 0
3.175 0.138 -0.207 150 16 0
3.181 0.133 -0.199 150 16 0
3.1900001 0.12800001 -0.191 143 16 0
3.1960001 0.122 -0.183 150 16 0
3.2019999 0.117 -0.17399999 141 16 0
3.2090001 0.111 -0.16599999 145 16 0
3.217 0.106 -0.15700001 146 16 0
3.224 0.1 -0.149 146 16 0
3.23 0.094999999 -0.14 137 16 0
3.2390001 0.089000002 -0.132 150 16 0
3.244 0.083999999 -0.123 146 16 0
3.2490001 0.078000002 -0.115 145 16 0
3.2609999 0.071999997 -0.107 142 16 0
3.2590001 0.067000002 -0.097999997 109 16 0
3.2739999 0.061000001 -0.089000002 53 16 0
3.277 0.055 -0.081 51 16 0
3.2820001 0.048999999 -0.071999997 103 16 0
3.2869999 0.043000001 -0.063000001 113 16 0
3.299 0.037 -0.055 115 16 0
3.3099999 0.032000002 -0.046 61 16 0
3.312 0.026000001 -0.037 37 16 0
3.306 0.018999999 -0.028000001 22 16 0
3.293 0.013 -0.018999999 20 16 0
3.283 0.0070000002 -0.011 19 16 0
3.276 0.001 -0.0020000001 19 16 0
3.2650001 -0.0040000002 0.0060000001 19 16 0
3.257 -0.0099999998 0.015 28 16 0
3.2550001 -0.016000001 0.023 66 16 0
3.2650001 -0.022 0.032000002 150 16 0
3.27 -0.028000001 0.041000001 150 16 0
3.2750001 -0.035 0.048999999 150 16 0
3.2850001 -0.041000001 0.057999998 150 16 0
3.2909999 -0.046999998 0.067000002 150 16 0
3.3 -0.054000001 0.075999998 150 16 0
3.303 -0.059999999 0.083999999 150 16 0
3.309 -0.066 0.093000002 91 16 0
3.306 -0.071999997 0.102 34 16 0
3.293 -0.078000002 0.11 30 16 0
3.2809999 -0.083999999 0.118 30 16 0
3.2780001 -0.090999998 0.127 31 16 0
3.263 -0.097000003 0.13500001 31 16 0
3.2550001 -0.102 0.14300001 31 16 0
3.244 -0.108 0.15099999 30 16 0
3.2279999 -0.114 0.15800001 30 16 0
3.2179999 -0.12 0.16599999 31 16 0
3.211 -0.126 0.17399999 30 16 0
3.2049999 -0.132 0.182 29 16 0
3.1949999 -0.138 0.19 29 16 0
3.181 -0.14399999 0.197 30 16 0
3.1700001 -0.149 0.205 29 16 0
3.1600001 -0.155 0.212 28 16 0
3.152 -0.161 0.22 30 16 0
3.141 -0.167 0.227 29 16 0
3.132 -0.17200001 0.235 28 16 0
3.1240001 -0.178 0.242 29 16 0
3.1110001 -0.184 0.249 29 16 0
3.1010001 -0.189 0.25600001 28 16 0
3.092 -0.19499999 0.26300001 27 16 0
3.0799999 -0.2 0.27000001 27 16 0
3.0710001 -0.206 0.27700001 30 16 0
3.0610001 -0.212 0.28400001 29 16 0
3.056 -0.21699999 0.292 29 16 0
3.046 -0.223 0.29800001 29 16 0
3.033 -0.228 0.30500001 31 16 0
3.0179999 -0.233 0.31099999 31 16 0
3.0109999 -0.23899999 0.31799999 31 16 0
3 -0.244 0.324 31 16 0
2.9890001 -0.25 0.331 31 16 0
2.98 -0.255 0.33700001 31 16 0
2.971 -0.25999999 0.34400001 29 16 0
2.961 -0.266 0.34999999 30 16 0
2.954 -0.271 0.35699999 30 16 0
2.9419999 -0.27599999 0.36300001 30 16 0
2.934 -0.28200001 0.36899999 30 16 0
2.9260001 -0.287 0.37599999 31 16 0
2.9159999 -0.292 0.382 31 16 0
2.9030001 -0.29699999 0.38699999 31 16 0
2.9000001 -0.303 0.39399999 31 16 0
2.8870001 -0.308 0.40000001 31 16 0
2.8740001 -0.31299999 0.405 31 16 0
2.8710001 -0.31900001 0.412 31 16 0
2.859 -0.32300001 0.417 32 16 0
2.848 -0.32800001 0.42300001 31 16 0
2.8369999 -0.333 0.428 31 16 0
2.832 -0.33899999 0.435 33 16 0
2.822 -0.34400001 0.44 32 16 0
2.8099999 -0.34799999 0.44499999 31 16 0
2.806 -0.354 0.45199999 32 16 0
2.7969999 -0.359 0.45699999 31 16 0
2.7869999 -0.36399999 0.46200001 32 16 0
2.777 -0.36899999 0.46700001 31 16 0
2.7679999 -0.37400001 0.47299999 31 16 0
2.7579999 -0.37900001 0.47799999 32 16 0
2.7479999 -0.38299999 0.48300001 33 16 0
2.74 -0.38800001 0.48800001 33 16 0
2.7309999 -0.39300001 0.493 33 16 0
2.72 -0.398 0.498 33 16 0
2.7130001 -0.403 0.50300002 33 16 0
2.707 -0.40799999 0.509 34 16 0
2.6960001 -0.41299999 0.51300001 35 16 0
2.6849999 -0.417 0.51800001 35 16 0
2.677 -0.42199999 0.523 34 16 0
2.674 -0.428 0.52899998 35 16 0
2.6630001 -0.43200001 0.53299999 34 16 0
2.655 -0.43700001 0.53799999 34 16 0
2.6489999 -0.442 0.54299998 47 16 0
2.6429999 -0.447 0.54799998 47 16 0
2.6329999 -0.45199999 0.55199999 42 16 0
2.6240001 -0.456 0.55699998 47 16 0
2.6129999 -0.461 0.56099999 45 16 0
2.608 -0.46599999 0.56599998 45 16 0
2.602 -0.47099999 0.57099998 56 16 0
2.5969999 -0.47600001 0.57599998 51 16 0
2.579 -0.479 0.57800001 43 16 0
2.569 -0.48300001 0.58200002 54 16 0
2.5639999 -0.48899999 0.58700001 53 16 0
2.552 -0.493 0.58999997 51 16 0
2.546 -0.49700001 0.59500003 58 16 0
2.5380001 -0.50199997 0.59899998 61 16 0
2.53 -0.50700003 0.60299999 51 16 0
2.5209999 -0.51099998 0.60699999 62 16 0
2.51 -0.51499999 0.61000001 54 16 0
2.4979999 -0.51899999 0.61299998 54 16 0
2.4960001 -0.52399999 0.61799997 63 16 0
2.4849999 -0.528 0.62099999 63 16 0
2.48 -0.53299999 0.62599999 65 16 0
2.4719999 -0.53799999 0.62900001 70 16 0
2.4649999 -0.542 0.63300002 59 16 0
2.454 -0.546 0.63599998 66 16 0
2.4489999 -0.551 0.63999999 66 16 0
2.4400001 -0.55500001 0.64399999 78 16 0
2.428 -0.55800003 0.64600003 70 16 0
2.4200001 -0.56300002 0.64899999 53 16 0
2.4130001 -0.56699997 0.653 60 16 0
2.3989999 -0.56999999 0.65499997 67 16 0
2.395 -0.57499999 0.65899998 71 16 0
2.391 -0.57999998 0.66299999 75 16 0
2.382 -0.58399999 0.66600001 69 16 0
2.372 -0.588 0.66799998 72 16 0
2.365 -0.59200001 0.67199999 75 16 0
2.3540001 -0.59600002 0.67400002 72 16 0
2.3499999 -0.60100001 0.67799997 75 16 0
2.3410001 -0.60399997 0.68000001 75 16 0
2.335 -0.60900003 0.68400002 78 16 0
2.3269999 -0.61299998 0.68599999 81 16 0
2.3199999 -0.61799997 0.69 80 16 0
2.3110001 -0.62099999 0.69199997 81 16 0
2.3039999 -0.625 0.69499999 84 16 0
2.2980001 -0.63 0.69800001 81 16 0
2.29 -0.634 0.69999999 75 16 0
2.277 -0.63599998 0.70099998 76 16 0
2.2709999 -0.63999999 0.704 108 16 0
2.2639999 -0.64399999 0.70700002 118 16 0
2.256 -0.648 0.70899999 123 16 0
2.247 -0.65200001 0.71100003 115 16 0
2.2420001 -0.65700001 0.71399999 128 16 0
2.2309999 -0.65899998 0.71499997 131 16 0
2.221 -0.662 0.71600002 121 16 0
2.2160001 -0.667 0.71899998 116 16 0
2.2079999 -0.67000002 0.72100002 134 16 0
2.201 -0.67400002 0.72299999 121 16 0
2.1919999 -0.67799997 0.72500002 106 16 0
2.1789999 -0.68000001 0.72500002 105 16 0
2.175 -0.68400002 0.72799999 109 16 0
2.1670001 -0.68699998 0.72899997 120 16 0
2.158 -0.69099998 0.73000002 128 16 0
2.1489999 -0.69400001 0.73199999 121 16 0
2.145 -0.69800001 0.73400003 125 16 0
2.141 -0.70300001 0.73699999 118 16 0
2.1289999 -0.70499998 0.73699999 114 16 0
2.119 -0.70700002 0.73699999 130 16 0
2.1129999 -0.71200001 0.74000001 125 16 0
2.1040001 -0.71399999 0.74000001 124 16 0
2.099 -0.71799999 0.74199998 124 16 0
2.096 -0.72299999 0.745 129 16 0
2.086 -0.72600001 0.745 137 16 0
2.075 -0.72799999 0.745 130 16 0
2.072 -0.73199999 0.74800003 128 16 0
2.0599999 -0.73400003 0.74699998 119 16 0
2.056 -0.73799998 0.74900001 118 16 0
2.0469999 -0.741 0.74900001 124 16 0
2.0409999 -0.74400002 0.75099999 139 16 0
2.0350001 -0.74800003 0.75199997 138 16 0
2.027 -0.75099999 0.75199997 129 16 0
2.023 -0.755 0.75400001 137 16 0
2.017 -0.75800002 0.755 150 16 0
2.0079999 -0.76099998 0.755 150 16 0
2.0009999 -0.764 0.75599998 150 16 0
1.9960001 -0.76700002 0.75700003 150 16 0
1.988 -0.76999998 0.75700003 150 16 0
1.982 -0.773 0.75800002 150 16 0
1.978 -0.77700001 0.759 150 16 0
1.967 -0.778 0.75800002 150 16 0
1.96 -0.78100002 0.75800002 150 16 0
1.9529999 -0.78399998 0.75800002 150 16 0
1.949 -0.78799999 0.75999999 150 16 0
1.933 -0.78600001 0.75599998 150 19 0
1.9299999 -0.79100001 0.75800002 150 16 0
1.923 -0.79299998 0.75700003 150 16 0
1.92 -0.79699999 0.759 150 16 0
1.914 -0.80000001 0.759 150 16 0
1.908 -0.80299997 0.759 150 16 0
1.901 -0.80500001 0.75800002 150 16 0
1.892 -0.80699998 0.75800002 150 16 0
1.886 -0.81 0.75700003 150 16 0
1.882 -0.81300002 0.75800002 150 16 0
1.876 -0.815 0.75800002 150 16 0
1.874 -0.81999999 0.759 150 16 0
1.863 -0.81999999 0.75700003 150 16 0
1.858 -0.82300001 0.75700003 150 16 0
1.851 -0.82499999 0.75599998 150 16 0
1.845 -0.82700002 0.755 150 16 0
1.839 -0.82999998 0.755 150 16 0
1.834 -0.83200002 0.75400001 150 16 0
1.832 -0.83600003 0.755 150 16 0
1.826 -0.838 0.75400001 150 16 0
1.819 -0.83999997 0.75300002 150 16 0
1.813 -0.84200001 0.75199997 150 16 0
1.8049999 -0.84299999 0.75099999 150 16 0
1.802 -0.84600002 0.75099999 150 16 0
1.794 -0.847 0.74900001 150 16 0
1.7920001 -0.85100001 0.74900001 150 16 0
1.786 -0.852 0.74800003 150 16 0
1.781 -0.85500002 0.74699998 150 16 0
1.778 -0.85699999 0.74699998 150 16 0
1.768 -0.85699999 0.74400002 150 16 0
1.766 -0.861 0.74400002 150 16 0
1.76 -0.86199999 0.74299997 150 16 0
1.7589999 -0.866 0.74299997 150 16 0
1.751 -0.866 0.74000001 150 16 0
1.751 -0.87099999 0.741 150 16 0
1.745 -0.87199998 0.73900002 150 16 0
1.737 -0.87199998 0.73699999 150 16 0
1.733 -0.87400001 0.73500001 150 16 0
1.726 -0.87400001 0.73299998 150 16 0
1.723 -0.87699997 0.73199999 150 16 0
1.719 -0.87900001 0.73100001 150 16 0
1.717 -0.88200003 0.73100001 150 16 0
1.7029999 -0.87800002 0.72500002 150 18 0
1.7 -0.88 0.72399998 150 16 0
1.697 -0.88200003 0.722 150 16 0
1.6950001 -0.88499999 0.722 150 16 0
1.691 -0.88700002 0.72100002 150 16 0
1.688 -0.88800001 0.71899998 150 16 0
1.686 -0.89099997 0.71799999 150 16 0
1.684 -0.89300001 0.71700001 150 16 0
1.677 -0.89300001 0.71399999 150 16 0
1.6720001 -0.89300001 0.71200001 150 16 0
1.67 -0.89600003 0.71100003 150 16 0
1.666 -0.89600003 0.708 150 16 0
1.664 -0.89899999 0.70700002 150 16 0
1.6619999 -0.89999998 0.70599997 150 16 0
1.656 -0.89999998 0.70300001 150 16 0
1.653 -0.90100002 0.70099998 150 16 0
1.651 -0.903 0.699 150 16 0
1.647 -0.90399998 0.69700003 150 16 0
1.642 -0.903 0.69400001 150 16 0
1.641 -0.90600002 0.69300002 150 16 0
1.638 -0.90700001 0.69 150 16 0
1.635 -0.90700001 0.68800002 150 16 0
1.6289999 -0.90700001 0.685 150 16 0
1.628 -0.90799999 0.68300003 150 16 0
1.626 -0.91000003 0.68199998 150 16 0
1.627 -0.912 0.68000001 150 16 0
1.623 -0.912 0.67799997 150 16 0
1.622 -0.91399997 0.676 150 16 0
1.622 -0.91600001 0.67500001 150 16 0
1.618 -0.91600001 0.67199999 150 16 0
1.6109999 -0.91299999 0.667 150 16 0
1.612 -0.91600001 0.66600001 150 16 0
1.607 -0.91500002 0.66299999 150 16 0
1.607 -0.91600001 0.66100001 150 16 0
1.601 -0.91500002 0.65700001 150 19 0
1.599 -0.91500002 0.65399998 150 16 0
1.6 -0.917 0.653 150 16 0
1.597 -0.91600001 0.64999998 150 16 0
1.597 -0.91799998 0.648 150 16 0
1.595 -0.91799998 0.64499998 150 16 0
1.592 -0.917 0.64200002 150 16 0
1.59 -0.917 0.639 150 16 0
1.59 -0.91799998 0.63700002 150 16 0
1.59 -0.91900003 0.63499999 150 16 0
1.589 -0.92000002 0.63300002 150 16 0
1.589 -0.92000002 0.63 150 16 0
1.59 -0.921 0.62900001 150 16 0
1.585 -0.91900003 0.62400001 150 16 0
1.586 -0.92000002 0.62199998 150 16 0
1.586 -0.921 0.62 150 16 0
1.585 -0.921 0.61699998 150 16 0
1.586 -0.921 0.61500001 150 16 0
1.58 -0.91799998 0.611 150 16 0
1.581 -0.91900003 0.60799998 150 16 0
1.582 -0.91900003 0.60600001 150 16 0
1.581 -0.91900003 0.60299999 150 16 0
1.582 -0.92000002 0.60100001 68 0 0
1.5829999 -0.92000002 0.59799999 72 0 0
1.584 -0.92000002 0.59600002 150 16 0
1.58 -0.91799998 0.59200001 150 16 0
1.577 -0.91600001 0.588 150 16 0
1.579 -0.91600001 0.58600003 65 0 0
1.576 -0.91399997 0.58200002 150 16 0
1.581 -0.91600001 0.58099997 65 0 0
1.579 -0.91500002 0.57700002 66 0 0
1.579 -0.91399997 0.574 70 0 0
1.581 -0.91500002 0.57200003 66 0 0
1.581 -0.91399997 0.56900001 58 0 0
1.5829999 -0.91399997 0.56599998 65 0 0
1.584 -0.91299999 0.56400001 65 0 0
1.585 -0.91299999 0.56099999 60 0 0
1.584 -0.912 0.55800003 64 0 0
1.587 -0.912 0.55599999 69 0 0
1.587 -0.91100001 0.55199999 71 0 0
1.5829999 -0.90700001 0.54799998 61 0 0
1.591 -0.91000003 0.54699999 65 0 0
1.591 -0.90899998 0.54400003 63 0 0
1.589 -0.90600002 0.54000002 75 0 0
1.591 -0.90600002 0.53799999 61 0 0
1.595 -0.90600002 0.53600001 2 0 0
1.5930001 -0.903 0.53200001 71 0 0
1.595 -0.90200001 0.52899998 2 0 0
1.596 -0.90100002 0.52600002 74 0 0
1.595 -0.89899999 0.52200001 59 0 0
1.599 -0.89899999 0.51999998 69 0 0
1.604 -0.89999998 0.51800001 58 0 0
1.603 -0.89700001 0.514 68 0 0
1.604 -0.89600003 0.51099998 7 0 0
1.6059999 -0.89399999 0.50800002 75 0 0
1.609 -0.89300001 0.50599998 65 0 0
1.607 -0.88999999 0.50199997 87 0 0
1.6109999 -0.88999999 0.5 74 0 0
1.613 -0.889 0.49700001 65 0 0
1.612 -0.88599998 0.493 60 0 0
1.614 -0.884 0.49000001 64 0 0
1.619 -0.884 0.48800001 66 0 0
1.625 -0.88499999 0.486 45 0 0
1.622 -0.88 0.48199999 45 0 0
1.627 -0.88 0.47999999 49 0 0
1.6289999 -0.87800002 0.477 37 0 0
1.631 -0.87699997 0.47299999 59 0 0
1.63 -0.87300003 0.47 36 0 0
1.635 -0.87300003 0.46700001 47 0 0
1.637 -0.87099999 0.46399999 2 0 0
1.641 -0.86900002 0.46200001 48 0 0
1.643 -0.86699998 0.45899999 2 0 0
1.646 -0.866 0.456 2 0 0
1.647 -0.86299998 0.45199999 2 0 0
1.649 -0.861 0.449 2 0 0
1.655 -0.861 0.447 2 0 0
1.656 -0.85799998 0.44400001 2 0 0
1.659 -0.85600001 0.44100001 43 0 0
1.663 -0.85399997 0.43900001 2 0 0
1.665 -0.852 0.435 2 0 0
1.6670001 -0.84899998 0.43200001 2 0 0
1.669 -0.84600002 0.42899999 2 0 0
1.671 -0.84399998 0.426 2 0 0
1.677 -0.84299999 0.42399999 1 0 0
1.686 -0.84399998 0.42300001 150 16 0
1.6849999 -0.83899999 0.419 150 16 0
1.691 -0.838 0.41600001 150 16 0
1.6950001 -0.83600003 0.414 150 16 0
1.698 -0.83399999 0.41100001 150 16 0
1.701 -0.83099997 0.40799999 2 0 0
1.7079999 -0.83099997 0.40599999 150 16 0
1.71 -0.82800001 0.403 142 16 0
1.717 -0.82700002 0.40099999 143 16 0
1.715 -0.82099998 0.39700001 146 16 0
1.72 -0.81900001 0.39399999 145 16 0
1.723 -0.81699997 0.391 149 16 0
1.73 -0.815 0.389 137 16 0
1.732 -0.81199998 0.38600001 140 16 0
1.7359999 -0.81 0.38299999 143 16 0
1.738 -0.80599999 0.38 134 16 0
1.7460001 -0.80500001 0.37799999 139 16 0
1.751 -0.80299997 0.37599999 150 16 0
1.753 -0.79900002 0.37200001 142 16 0
1.7640001 -0.80000001 0.37099999 144 16 0
1.7690001 -0.79799998 0.36899999 145 16 0
1.772 -0.79400003 0.366 143 16 0
1.779 -0.79299998 0.36300001 142 16 0
1.781 -0.78899997 0.36000001 121 16 0
1.784 -0.78500003 0.35699999 120 16 0
1.788 -0.78200001 0.354 127 16 0
1.796 -0.78100002 0.35299999 127 16 0
1.8 -0.778 0.34999999 114 16 0
1.807 -0.77600002 0.34799999 118 16 0
1.811 -0.773 0.345 110 16 0
1.817 -0.76999998 0.34200001 112 16 0
1.826 -0.76899999 0.34 111 16 0
1.83 -0.76599997 0.338 116 16 0
1.835 -0.76300001 0.33500001 115 16 0
1.84 -0.759 0.33199999 117 16 0
1.845 -0.75599998 0.33000001 110 16 0
1.847 -0.75199997 0.32699999 110 16 0
1.855 -0.75 0.32499999 115 16 0
1.86 -0.74699998 0.322 107 16 0
1.863 -0.74299997 0.31900001 113 16 0
1.867 -0.73900002 0.31600001 101 16 0
1.874 -0.736 0.31400001 108 16 0
1.877 -0.73199999 0.31099999 104 16 0
1.895 -0.73400003 0.31 115 19 0
1.898 -0.72899997 0.30700001 91 16 0
1.9069999 -0.727 0.30500001 87 16 0
1.911 -0.72299999 0.303 83 16 0
1.921 -0.722 0.301 87 16 0
1.926 -0.71799999 0.29800001 83 16 0
1.9299999 -0.71399999 0.29499999 87 16 0
1.934 -0.70899999 0.29300001 83 16 0
1.944 -0.708 0.29100001 88 16 0
1.949 -0.704 0.28799999 82 16 0
1.9529999 -0.699 0.285 84 16 0
1.962 -0.69700003 0.28299999 88 16 0
1.966 -0.69199997 0.28 80 16 0
1.974 -0.68900001 0.278 77 16 0
1.9859999 -0.68699998 0.27599999 79 16 0
1.989 -0.68300003 0.273 79 16 0
1.999 -0.68000001 0.27200001 85 16 0
2.0039999 -0.676 0.26899999 80 16 0
2.006 -0.671 0.266 77 16 0
2.02 -0.66900003 0.264 76 16 0
2.0250001 -0.66500002 0.26199999 83 16 0
2.033 -0.66100001 0.259 80 16 0
2.039 -0.65700001 0.257 67 16 0
2.0539999 -0.65600002 0.255 73 16 0
2.056 -0.65100002 0.252 70 16 0
2.063 -0.64700001 0.25 71 16 0
2.072 -0.64300001 0.248 62 16 0
2.0799999 -0.639 0.245 58 16 0
2.0829999 -0.634 0.243 70 16 0
2.095 -0.63099998 0.241 62 16 0
2.1029999 -0.62699997 0.23800001 59 16 0
2.109 -0.62300003 0.236 57 16 0
2.1199999 -0.62 0.234 63 16 0
2.131 -0.61699998 0.23199999 64 16 0
2.1370001 -0.61199999 0.229 65 16 0
2.1429999 -0.60699999 0.227 60 16 0
2.161 -0.60500002 0.22499999 59 16 0
2.1700001 -0.60100001 0.223 55 16 0
2.174 -0.59600002 0.22 54 16 0
2.1849999 -0.59200001 0.21799999 55 16 0
2.198 -0.58899999 0.21600001 50 16 0
2.201 -0.583 0.213 46 16 0
2.2119999 -0.57999998 0.211 48 16 0
2.2179999 -0.574 0.20900001 41 16 0
2.227 -0.56999999 0.206 42 16 0
2.2390001 -0.56599998 0.204 47 16 0
2.2460001 -0.56099999 0.20200001 44 16 0
2.2539999 -0.55599999 0.199 43 16 0
2.266 -0.55199999 0.197 48 16 0
2.276 -0.54799998 0.19499999 43 16 0
2.2839999 -0.54299998 0.193 44 16 0
2.2950001 -0.53799999 0.19 40 16 0
2.3050001 -0.53299999 0.18799999 38 16 0
2.316 -0.52899998 0.186 41 16 0
2.325 -0.52399999 0.184 40 16 0
2.339 -0.51999998 0.182 44 16 0
2.349 -0.51499999 0.17900001 41 16 0
2.355 -0.509 0.177 37 16 0
2.369 -0.505 0.175 30 16 0
2.378 -0.5 0.17200001 41 16 0
2.3959999 -0.49599999 0.17 39 16 0
2.401 -0.49000001 0.168 40 16 0
2.4119999 -0.484 0.16500001 42 16 0
2.425 -0.47999999 0.163 38 16 0
2.4330001 -0.47400001 0.161 40 16 0
2.4449999 -0.46799999 0.15800001 35 16 0
2.4489999 -0.46200001 0.156 41 16 0
2.467 -0.458 0.154 34 16 0
2.471 -0.45100001 0.15099999 31 16 0
2.4879999 -0.44600001 0.149 32 16 0
2.4979999 -0.44 0.146 33 16 0
2.513 -0.435 0.14399999 33 16 0
2.517 -0.428 0.141 26 16 0
2.5339999 -0.42300001 0.139 27 16 0
2.5439999 -0.417 0.13699999 27 16 0
2.5610001 -0.412 0.13500001 28 16 0
2.5650001 -0.405 0.132 26 16 0
2.582 -0.40000001 0.13 27 16 0
2.5999999 -0.39399999 0.12800001 27 16 0
2.608 -0.38800001 0.125 26 16 0
2.622 -0.382 0.123 27 16 0
2.6340001 -0.375 0.12 27 16 0
2.6459999 -0.36899999 0.118 25 16 0
2.6659999 -0.36399999 0.116 26 16 0
2.6760001 -0.35699999 0.113 26 16 0
2.6900001 -0.34999999 0.111 26 16 0
2.704 -0.34400001 0.108 27 16 0
2.7190001 -0.33700001 0.106 27 16 0
2.7249999 -0.329 0.103 26 16 0
2.7420001 -0.32300001 0.101 26 16 0
2.7550001 -0.31600001 0.098999999 26 16 0
2.766 -0.30899999 0.096000001 26 16 0
2.7850001 -0.30199999 0.093999997 26 16 0
2.799 -0.29499999 0.090999998 26 16 0
2.809 -0.28799999 0.088 25 16 0
2.8299999 -0.28099999 0.086000003 25 16 0
2.8399999 -0.273 0.083999999 25 16 0
2.8529999 -0.266 0.081 25 16 0
2.875 -0.259 0.079000004 25 16 0
2.8870001 -0.25099999 0.075999998 26 16 0
2.904 -0.244 0.072999999 26 16 0
2.9200001 -0.236 0.071000002 26 16 0
2.9360001 -0.228 0.068000004 25 16 0
2.9549999 -0.22 0.066 24 16 0
2.967 -0.212 0.063000001 24 16 0
2.993 -0.205 0.061000001 25 16 0
3.0050001 -0.19599999 0.057999998 25 16 0
3.016 -0.18799999 0.055 24 16 0
3.043 -0.18000001 0.052999999 25 16 0
3.059 -0.171 0.050000001 25 16 0
3.082 -0.163 0.048 24 16 0
3.095 -0.154 0.045000002 25 16 0
3.118 -0.146 0.041999999 25 16 0
3.1340001 -0.13699999 0.039000001 25 16 0
3.155 -0.12800001 0.037 26 16 0
3.175 -0.119 0.034000002 26 16 0
3.1960001 -0.11 0.030999999 26 16 0
3.2130001 -0.1 0.028000001 25 16 0
3.2320001 -0.090999998 0.026000001 24 16 0
3.253 -0.081 0.023 26 16 0
3.279 -0.071999997 0.02 44 16 0
3.2709999 -0.061999999 0.017000001 138 16 0
3.2720001 -0.050999999 0.014 107 16 0
3.263 -0.041000001 0.011 102 16 0
3.257 -0.030999999 0.0080000004 109 16 0
3.2449999 -0.021 0.0049999999 47 16 0
3.2550001 -0.011 0.003 19 16 0
3.279 0 0 17 16 0
3.3 0.0089999996 -0.0020000001 18 16 0
3.326 0.018999999 -0.0049999999 22 16 0
3.323 0.029999999 -0.0080000004 47 16 0
3.316 0.039999999 -0.011 50 16 0
3.3150001 0.050000001 -0.013 42 16 0
3.3010001 0.059999999 -0.016000001 42 16 0
3.2939999 0.071000002 -0.018999999 50 16 0
3.2909999 0.081 -0.022 51 16 0
3.2850001 0.090999998 -0.024 54 16 0
3.279 0.101 -0.027000001 52 16 0
3.2720001 0.111 -0.028999999 54 16 0
3.2650001 0.121 -0.032000002 57 16 0
3.2590001 0.131 -0.034000002 53 16 0
3.2550001 0.141 -0.037 52 16 0
3.2449999 0.15099999 -0.039000001 54 16 0
3.2420001 0.161 -0.041999999 59 16 0
3.2390001 0.171 -0.044 67 16 0
3.2349999 0.18099999 -0.046999998 61 16 0
3.221 0.191 -0.048999999 60 16 0
3.221 0.20100001 -0.052000001 60 16 0
3.21 0.20999999 -0.054000001 69 16 0
3.2030001 0.22 -0.056000002 65 16 0
3.197 0.23 -0.057999998 63 16 0
3.1919999 0.23899999 -0.061000001 60 16 0
3.1860001 0.249 -0.063000001 58 16 0
3.1819999 0.259 -0.064999998 74 16 0
3.1730001 0.26800001 -0.067000002 68 16 0
3.171 0.278 -0.07 63 16 0
3.161 0.287 -0.071999997 75 16 0
3.1559999 0.29699999 -0.074000001 69 16 0
3.1530001 0.30599999 -0.075999998 58 16 0
3.1440001 0.31600001 -0.078000002 67 16 0
3.1400001 0.32499999 -0.079999998 64 16 0
3.1329999 0.33399999 -0.082000002 56 16 0
3.1259999 0.34400001 -0.083999999 68 16 0
3.115 0.352 -0.086000003 82 16 0
3.1129999 0.36199999 -0.088 81 16 0
3.1070001 0.37099999 -0.089000002 78 16 0
3.1029999 0.38100001 -0.090999998 80 16 0
3.1010001 0.38999999 -0.093000002 74 16 0
3.089 0.39899999 -0.094999999 94 16 0
3.086 0.40799999 -0.097000003 83 16 0
3.0810001 0.417 -0.098999999 88 16 0
3.073 0.426 -0.1 82 16 0
3.069 0.43599999 -0.102 85 16 0
3.0599999 0.44400001 -0.104 88 16 0
3.0580001 0.454 -0.106 82 16 0
3.0510001 0.463 -0.107 85 16 0
3.0450001 0.472 -0.109 85 16 0
3.0420001 0.48100001 -0.11 93 16 0
3.0320001 0.48899999 -0.112 90 16 0
3.0309999 0.49900001 -0.114 84 16 0
3.027 0.50800002 -0.115 91 16 0
3.02 0.51700002 -0.117 98 16 0
3.013 0.52499998 -0.118 93 16 0
3.006 0.53399998 -0.119 79 16 0
3.0020001 0.54299998 -0.121 67 16 0
3 0.55199999 -0.122 77 16 0
2.9920001 0.56 -0.124 102 16 0
2.984 0.56900001 -0.125 85 16 0
2.987 0.579 -0.127 83 16 0
2.974 0.58600003 -0.12800001 85 16 0
2.973 0.59600002 -0.12899999 77 16 0
2.971 0.60500002 -0.131 88 16 0
2.961 0.61299998 -0.132 96 16 0
2.9530001 0.62099999 -0.133 95 16 0
2.9549999 0.63099998 -0.134 92 16 0
2.9460001 0.639 -0.13500001 96 16 0
2.938 0.64700001 -0.13600001 90 16 0
2.9360001 0.65600002 -0.13699999 94 16 0
2.934 0.66500002 -0.139 97 16 0
2.9300001 0.67400002 -0.14 108 16 0
2.9219999 0.68199998 -0.141 97 16 0
2.9189999 0.69099998 -0.142 101 16 0
2.9119999 0.699 -0.14300001 100 16 0
2.9100001 0.708 -0.14399999 114 16 0
2.9030001 0.71600002 -0.145 118 16 0
2.898 0.72399998 -0.145 111 16 0
2.8859999 0.73100001 -0.146 107 16 0
2.8829999 0.74000001 -0.147 111 16 0
2.8740001 0.74699998 -0.148 118 16 0
2.869 0.755 -0.148 140 16 0
2.8659999 0.764 -0.149 146 16 0
2.8629999 0.773 -0.15000001 125 16 0
2.8610001 0.78200001 -0.15099999 124 16 0
2.858 0.79000002 -0.152 139 16 0
2.8499999 0.79799998 -0.152 133 16 0
2.8440001 0.80500001 -0.153 143 16 0
2.8440001 0.815 -0.154 150 16 0
2.8380001 0.82300001 -0.154 144 16 0
2.832 0.83099997 -0.155 146 16 0
2.829 0.83899999 -0.156 146 16 0
2.829 0.84899998 -0.156 142 16 0
2.8169999 0.85500002 -0.15700001 148 16 0
2.8150001 0.86400002 -0.15700001 141 16 0
2.8010001 0.86900002 -0.15700001 144 16 0
2.8050001 0.88 -0.15800001 143 16 0
2.803 0.88800001 -0.15899999 148 16 0
2.7980001 0.89600003 -0.15899999 147 16 0
2.79 0.903 -0.15899999 150 16 0
2.7869999 0.912 -0.15899999 150 16 0
2.7839999 0.92000002 -0.16 139 16 0
2.7739999 0.926 -0.16 145 16 0
2.7750001 0.93599999 -0.16 150 16 0
2.766 0.94199997 -0.16 145 16 0
2.766 0.95200002 -0.161 143 16 0
2.7620001 0.95999998 -0.161 92 16 0
2.767 0.97100002 -0.162 31 16 0
2.756 0.97600001 -0.161 102 16 0
2.7449999 0.98199999 -0.161 150 16 0
2.7420001 0.99000001 -0.161 150 16 0
2.737 0.99699998 -0.161 150 16 0
2.734 1.006 -0.161 150 16 0
2.7309999 1.0140001 -0.161 150 16 0
2.73 1.023 -0.161 150 16 0
2.723 1.029 -0.161 150 16 0
2.717 1.0369999 -0.161 150 16 0
2.7160001 1.045 -0.161 150 16 0
2.7119999 1.053 -0.161 150 16 0
2.704 1.059 -0.16 150 16 0
2.7019999 1.067 -0.16 150 16 0
2.698 1.075 -0.16 150 16 0
2.694 1.0829999 -0.15899999 150 16 0
2.6949999 1.092 -0.15899999 150 16 0
2.691 1.1 -0.15899999 150 16 0
2.6849999 1.107 -0.15800001 150 16 0
2.6789999 1.113 -0.15800001 150 16 0
2.678 1.122 -0.15800001 150 16 0
2.675 1.13 -0.15700001 150 16 0
2.6689999 1.137 -0.156 150 16 0
2.6689999 1.145 -0.156 150 16 0
2.661 1.151 -0.155 150 16 0
2.6619999 1.161 -0.155 150 16 0
2.6570001 1.1670001 -0.154 150 16 0
2.6459999 1.1720001 -0.153 150 16 0
2.645 1.1799999 -0.153 150 16 0
2.6400001 1.187 -0.152 150 16 0
2.641 1.196 -0.15099999 150 16 0
2.6370001 1.2029999 -0.15000001 150 16 0
2.6370001 1.212 -0.15000001 150 16 0
2.6289999 1.217 -0.149 150 16 0
2.628 1.226 -0.148 150 16 0
2.6199999 1.2309999 -0.147 150 16 0
2.6140001 1.237 -0.146 150 16 0
2.6199999 1.249 -0.145 150 16 0
2.6129999 1.2539999 -0.14399999 150 16 0
2.6040001 1.258 -0.14300001 150 16 0
2.5999999 1.265 -0.142 150 16 0
2.6029999 1.275 -0.141 150 16 0
2.5940001 1.279 -0.139 150 16 0
2.595 1.288 -0.138 150 16 0
2.5969999 1.298 -0.13699999 150 16 0
2.5940001 1.3049999 -0.13600001 150 16 0
2.592 1.312 -0.13500001 150 16 0
2.5869999 1.318 -0.133 150 16 0
2.585 1.326 -0.132 150 16 0
2.5799999 1.332 -0.131 150 16 0
2.5769999 1.3380001 -0.12899999 150 16 0
2.5710001 1.3430001 -0.12800001 150 16 0
2.5699999 1.351 -0.126 150 16 0
2.5680001 1.359 -0.125 150 16 0
2.5650001 1.365 -0.123 150 16 0
2.562 1.3710001 -0.122 150 16 0
2.5580001 1.378 -0.12 150 16 0
2.5550001 1.3839999 -0.118 150 16 0
2.552 1.39 -0.117 150 16 0
2.5480001 1.397 -0.115 150 16 0
2.5450001 1.403 -0.113 150 16 0
2.5439999 1.41 -0.111 150 16 0
2.539 1.415 -0.109 150 16 0
2.5380001 1.4220001 -0.108 150 16 0
2.5369999 1.429 -0.106 150 16 0
2.5380001 1.438 -0.104 150 16 0
2.5309999 1.441 -0.102 150 16 0
2.529 1.448 -0.1 150 16 0
2.526 1.454 -0.097999997 150 16 0
2.523 1.459 -0.096000001 150 16 0
2.5250001 1.4680001 -0.093999997 150 16 0
2.5179999 1.471 -0.090999998 150 16 0
2.5190001 1.479 -0.089000002 150 16 0
2.516 1.484 -0.086999997 150 16 0
2.516 1.492 -0.085000001 150 16 0
2.513 1.497 -0.082999997 150 16 0
2.51 1.502 -0.079999998 150 16 0
2.5039999 1.506 -0.078000002 150 16 0
2.506 1.5140001 -0.075999998 150 16 0
2.503 1.5190001 -0.072999999 150 16 0
2.5 1.524 -0.071000002 150 16 0
2.4979999 1.529 -0.068000004 150 16 0
2.4960001 1.535 -0.066 150 16 0
2.497 1.5420001 -0.063000001 150 16 0
2.4909999 1.545 -0.061000001 150 16 0
2.4920001 1.552 -0.057999998 150 16 0
2.493 1.559 -0.056000002 150 16 0
2.487 1.562 -0.052999999 150 16 0
2.4879999 1.568 -0.050000001 150 16 0
2.4849999 1.572 -0.048 150 16 0
2.483 1.577 -0.045000002 150 16 0
2.4820001 1.582 -0.041999999 150 16 0
2.48 1.587 -0.039000001 150 16 0
2.4790001 1.592 -0.035999998 150 16 0
2.4790001 1.598 -0.034000002 150 16 0
2.4809999 1.604 -0.030999999 150 16 0
2.474 1.6059999 -0.028000001 150 16 0
2.4760001 1.612 -0.025 150 16 0
2.4760001 1.617 -0.022 150 16 0
2.471 1.619 -0.018999999 150 16 0
2.474 1.626 -0.016000001 150 16 0
2.473 1.631 -0.013 148 16 0
2.4679999 1.633 -0.0099999998 143 16 0
2.471 1.6390001 -0.0070000002 150 16 0
2.47 1.643 -0.0040000002 150 16 0
2.467 1.646 -0.001 150 16 0
2.4679999 1.651 0.0020000001 148 16 0
2.4690001 1.656 0.0049999999 150 16 0
2.4660001 1.658 0.0080000004 144 16 0
2.4690001 1.665 0.011 150 16 0
2.4679999 1.668 0.014 150 16 0
2.4660001 1.67 0.017999999 149 16 0
2.464 1.673 0.021 150 16 0
2.464 1.677 0.024 150 16 0
2.4649999 1.681 0.028000001 150 16 0
2.4630001 1.683 0.030999999 144 16 0
2.4619999 1.686 0.034000002 150 16 0
2.4619999 1.689 0.037999999 148 16 0
2.4619999 1.692 0.041000001 147 16 0
2.46 1.694 0.044 129 16 0
2.4590001 1.696 0.048 138 16 0
2.467 1.704 0.052000001 142 19 0
2.4630001 1.704 0.055 98 16 0
2.4660001 1.7079999 0.057999998 60 16 0
2.467 1.712 0.061999999 41 16 0
2.4660001 1.7130001 0.064999998 38 16 0
2.4660001 1.715 0.068999998 38 16 0
2.4660001 1.717 0.072999999 44 16 0
2.4630001 1.717 0.075999998 70 16 0
2.4560001 1.714 0.079000004 108 16 0
2.4660001 1.722 0.082999997 136 16 0
2.464 1.722 0.086000003 150 16 0
2.4649999 1.724 0.090000004 144 16 0
2.467 1.727 0.093999997 139 16 0
2.4679999 1.729 0.097000003 139 16 0
2.47 1.7309999 0.101 137 16 0
2.471 1.732 0.104 144 16 0
2.474 1.735 0.108 150 16 0
2.4749999 1.7359999 0.112 150 16 0
2.4779999 1.739 0.115 150 16 0
2.4779999 1.739 0.119 150 16 0
2.4779999 1.739 0.122 150 16 0
2.4779999 1.739 0.126 150 16 0
2.4860001 1.745 0.13 150 19 0
2.4860001 1.744 0.133 150 16 0
2.484 1.742 0.13699999 150 16 0
2.4879999 1.745 0.141 150 16 0
2.4879999 1.744 0.14399999 150 16 0
2.49 1.745 0.147 146 16 0
2.494 1.7460001 0.15099999 150 16 0
2.4920001 1.744 0.155 150 16 0
2.497 1.745 0.15800001 150 16 0
2.4979999 1.745 0.162 150 16 0
2.4979999 1.744 0.16500001 150 16 0
2.4990001 1.743 0.169 150 16 0
2.5 1.7410001 0.17200001 150 16 0
2.5009999 1.74 0.175 150 16 0
2.503 1.739 0.17900001 150 16 0
2.5039999 1.738 0.182 145 16 0
2.5090001 1.739 0.186 150 16 0
2.5120001 1.738 0.189 136 16 0
2.5090001 1.734 0.192 140 16 0
2.5090001 1.7309999 0.19499999 128 16 0
2.5120001 1.73 0.199 130 16 0
2.5139999 1.728 0.20200001 132 16 0
2.5150001 1.726 0.205 136 16 0
2.523 1.728 0.20900001 135 16 0
2.5250001 1.726 0.212 123 16 0
2.526 1.723 0.215 90 16 0
2.527 1.721 0.21799999 59 16 0
2.5309999 1.72 0.222 45 16 0
2.5369999 1.72 0.22499999 40 16 0
2.543 1.72 0.229 40 16 0
2.5450001 1.717 0.23199999 43 16 0
2.5439999 1.712 0.234 54 16 0
2.5450001 1.7079999 0.237 103 16 0
2.5450001 1.704 0.23999999 139 16 0
2.55 1.7029999 0.243 142 16 0
2.5539999 1.7 0.24600001 141 16 0
2.5569999 1.697 0.249 150 16 0
2.5580001 1.693 0.252 147 16 0
2.562 1.691 0.255 150 16 0
2.566 1.688 0.25799999 150 16 0
2.566 1.683 0.25999999 149 16 0
2.5680001 1.679 0.26300001 147 16 0
2.569 1.674 0.26499999 146 16 0
2.576 1.673 0.26800001 146 16 0
2.5829999 1.6720001 0.27200001 149 16 0
2.586 1.668 0.27399999 150 16 0
2.5829999 1.66 0.27599999 148 16 0
2.5910001 1.659 0.27900001 150 16 0
2.5940001 1.655 0.28099999 150 16 0
2.596 1.65 0.28400001 149 16 0
2.599 1.646 0.28600001 150 16 0
2.608 1.645 0.289 150 16 0
2.6040001 1.636 0.29100001 143 16 0
2.6070001 1.631 0.29300001 144 16 0
2.6140001 1.6289999 0.296 103 16 0
2.599 1.613 0.296 40 19 0
2.5840001 1.597 0.296 33 16 0
2.5799999 1.5880001 0.29699999 38 16 0
2.5769999 1.579 0.29800001 45 16 0
2.5780001 1.572 0.30000001 70 16 0
2.582 1.568 0.30199999 112 16 0
2.5799999 1.5599999 0.30399999 135 16 0
2.5829999 1.554 0.30500001 122 16 0
2.586 1.549 0.30700001 134 16 0
2.589 1.543 0.30899999 131 16 0
2.596 1.54 0.31099999 140 16 0
2.596 1.5319999 0.31200001 128 16 0
2.6059999 1.531 0.315 143 16 0
2.609 1.525 0.317 135 16 0
2.6129999 1.52 0.31799999 141 16 0
2.612 1.511 0.31900001 147 16 0
2.612 1.503 0.31999999 150 16 0
2.6199999 1.5 0.322 150 16 0
2.625 1.495 0.324 150 16 0
2.6340001 1.493 0.32600001 147 16 0
2.641 1.488 0.32800001 150 16 0
2.6470001 1.484 0.329 149 16 0
2.655 1.48 0.331 97 16 0
2.6570001 1.473 0.33199999 42 16 0
2.6659999 1.469 0.33399999 32 16 0
2.6789999 1.4680001 0.336 27 16 0
2.7 1.471 0.33899999 30 16 0
2.707 1.467 0.34099999 42 16 0
2.7130001 1.461 0.34200001 52 16 0
2.7130001 1.4529999 0.34200001 50 16 0
2.7119999 1.444 0.34299999 43 16 0
2.7160001 1.437 0.34299999 44 16 0
2.7179999 1.429 0.34400001 40 16 0
2.714 1.418 0.34400001 40 16 0
2.7149999 1.41 0.34400001 40 16 0
2.71 1.399 0.34400001 41 16 0
2.7060001 1.388 0.34299999 38 16 0
2.7079999 1.38 0.34400001 38 16 0
2.7090001 1.372 0.34400001 40 16 0
2.707 1.362 0.34400001 38 16 0
2.71 1.354 0.34400001 39 16 0
2.7079999 1.345 0.34400001 37 16 0
2.7119999 1.337 0.34400001 38 16 0
2.7130001 1.329 0.34400001 40 16 0
2.7130001 1.3200001 0.34400001 43 16 0
2.7079999 1.308 0.34299999 44 16 0
2.714 1.302 0.34400001 49 16 0
2.7130001 1.293 0.34299999 72 16 0
2.7130001 1.284 0.34299999 76 16 0
2.714 1.275 0.34299999 101 16 0
2.717 1.267 0.34200001 101 16 0
2.7179999 1.2589999 0.34200001 130 16 0
2.7219999 1.251 0.34200001 150 16 0
2.727 1.245 0.34200001 150 16 0
2.7309999 1.237 0.34200001 150 16 0
2.734 1.229 0.34200001 150 16 0
2.733 1.22 0.34099999 150 16 0
2.737 1.212 0.34099999 150 16 0
2.743 1.206 0.34099999 150 16 0
2.743 1.197 0.34 150 16 0
2.747 1.189 0.33899999 150 16 0
2.753 1.182 0.33899999 150 16 0
2.756 1.174 0.33899999 150 16 0
2.76 1.166 0.338 150 16 0
2.763 1.159 0.338 150 16 0
2.767 1.151 0.33700001 150 16 0
2.77 1.143 0.33700001 150 16 0
2.78 1.137 0.33700001 150 16 0
2.783 1.1289999 0.336 150 16 0
2.7869999 1.1210001 0.33500001 150 16 0
2.7880001 1.112 0.33399999 150 16 0
2.7950001 1.1059999 0.33399999 150 16 0
2.7939999 1.096 0.33199999 150 16 0
2.8 1.089 0.33199999 150 16 0
2.803 1.08 0.331 150 16 0
2.806 1.072 0.33000001 150 16 0
2.8110001 1.0650001 0.329 150 16 0
2.8150001 1.056 0.32800001 150 16 0
2.816 1.0470001 0.32699999 150 16 0
2.8210001 1.04 0.32600001 150 16 0
2.8239999 1.0319999 0.324 150 16 0
2.8280001 1.023 0.32300001 150 16 0
2.832 1.015 0.322 150 16 0
2.835 1.007 0.32100001 150 16 0
2.8380001 0.99800003 0.31900001 150 16 0
2.8440001 0.991 0.31799999 150 16 0
2.848 0.98299998 0.317 150 16 0
2.8510001 0.97399998 0.31600001 150 16 0
2.858 0.96700001 0.315 150 16 0
2.859 0.958 0.31299999 150 16 0
2.8659999 0.95099998 0.31200001 150 16 0
2.8659999 0.94099998 0.31 150 16 0
2.8699999 0.93300003 0.308 150 16 0
2.875 0.92500001 0.30700001 150 16 0
2.8759999 0.91500002 0.30500001 150 16 0
2.8789999 0.90700001 0.303 150 16 0
2.8829999 0.89899999 0.30199999 150 16 0
2.8889999 0.89099997 0.30000001 150 16 0
2.8959999 0.88300002 0.29899999 150 16 0
2.895 0.87400001 0.29699999 150 16 0
2.901 0.866 0.29499999 150 16 0
2.904 0.85699999 0.29300001 150 16 0
2.905 0.84799999 0.29100001 150 16 0
2.9100001 0.83999997 0.289 150 16 0
2.9159999 0.83200002 0.28799999 150 16 0
2.915 0.82200003 0.285 150 16 0
2.9200001 0.81400001 0.28400001 150 16 0
2.924 0.80500001 0.28200001 150 16 0
2.925 0.796 0.27900001 150 16 0
2.9319999 0.78799999 0.278 150 16 0
2.937 0.77999997 0.27599999 150 16 0
2.9419999 0.77200001 0.27399999 150 16 0
2.9460001 0.76300001 0.27200001 150 16 0
2.948 0.75400001 0.26899999 150 16 0
2.951 0.745 0.26699999 150 16 0
2.9530001 0.736 0.26499999 150 16 0
2.9590001 0.72799999 0.26300001 150 16 0
2.9619999 0.71899998 0.25999999 150 16 0
2.9679999 0.71100003 0.25799999 150 16 0
2.971 0.70200002 0.25600001 150 16 0
2.9719999 0.69300002 0.25299999 150 16 0
2.9749999 0.68400002 0.25099999 150 16 0
2.9779999 0.67500001 0.248 150 16 0
2.98 0.66600001 0.24600001 150 16 0
2.984 0.65799999 0.243 150 16 0
2.9879999 0.64899999 0.241 150 16 0
2.99 0.63999999 0.23800001 150 16 0
2.9990001 0.63200003 0.236 150 16 0
3.0020001 0.62300003 0.234 150 16 0
3.0039999 0.61400002 0.23100001 150 16 0
3.013 0.60600001 0.228 139 16 0
3.0150001 0.597 0.226 130 16 0
3.017 0.588 0.223 116 16 0
3.0220001 0.579 0.22 88 16 0
3.0309999 0.57200003 0.21799999 64 16 0
3.0350001 0.56300002 0.215 48 16 0
3.04 0.55400002 0.213 45 16 0
3.049 0.546 0.20999999 41 16 0
3.0539999 0.537 0.207 35 16 0
3.0569999 0.528 0.204 34 16 0
3.0650001 0.51999998 0.20200001 32 16 0
3.069 0.51099998 0.199 28 16 0
3.0799999 0.50300002 0.19599999 29 16 0
3.0910001 0.495 0.19400001 28 16 0
3.096 0.48699999 0.191 28 16 0
3.1010001 0.47799999 0.18799999 28 16 0
3.108 0.46900001 0.185 29 16 0
3.109 0.46000001 0.182 28 16 0
3.125 0.45199999 0.17900001 27 16 0
3.1340001 0.44400001 0.176 28 16 0
3.145 0.43599999 0.17399999 29 16 0
3.1470001 0.426 0.17 29 16 0
3.155 0.417 0.167 30 16 0
3.1600001 0.40799999 0.164 30 16 0
3.1730001 0.40000001 0.161 30 16 0
3.1819999 0.39199999 0.15800001 30 16 0
3.191 0.38299999 0.155 33 16 0
3.1989999 0.37400001 0.152 35 16 0
3.2060001 0.36500001 0.149 39 16 0
3.211 0.35600001 0.145 42 16 0
3.2179999 0.347 0.142 49 16 0
3.227 0.338 0.139 75 16 0
3.2260001 0.32800001 0.13500001 84 16 0
3.2219999 0.31799999 0.131 125 16 0
3.221 0.308 0.127 106 16 0
3.2 0.296 0.123 45 16 0
3.191 0.285 0.119 37 16 0
3.1889999 0.27599999 0.115 49 16 0
3.1860001 0.266 0.111 52 16 0
3.1900001 0.25600001 0.107 83 16 0
3.187 0.24600001 0.103 91 16 0
3.1919999 0.237 0.1 72 16 0
3.1930001 0.228 0.096000001 76 16 0
3.198 0.21799999 0.092 77 16 0
3.2030001 0.20900001 0.088 82 16 0
3.204 0.199 0.085000001 75 16 0
3.207 0.19 0.081 74 16 0
3.2119999 0.18099999 0.077 78 16 0
3.2160001 0.171 0.072999999 83 16 0
3.2219999 0.162 0.068999998 85 16 0
3.217 0.152 0.064999998 81 16 0
3.2279999 0.14300001 0.061000001 93 16 0
3.2379999 0.134 0.057999998 112 16 0
3.2780001 0.125 0.054000001 94 19 0
3.303 0.116 0.050000001 67 16 0
3.3080001 0.107 0.046 61 16 0
3.309 0.097000003 0.041999999 55 16 0
3.312 0.086999997 0.037999999 60 16 0
3.3169999 0.077 0.034000002 63 16 0
3.319 0.068000004 0.028999999 55 16 0
3.325 0.057999998 0.025 42 16 0
3.3239999 0.048 0.021 53 16 0
3.3239999 0.037999999 0.017000001 58 16 0
3.3299999 0.028000001 0.012 43 16 0
3.323 0.017999999 0.0080000004 21 16 0
3.296 0.0080000004 0.003 18 16 0
3.276 0 0 17 16 0
3.253 -0.0099999998 -0.0040000002 20 16 0
3.2390001 -0.02 -0.0089999996 47 16 0
3.2420001 -0.028999999 -0.013 136 16 0
3.2490001 -0.039000001 -0.017000001 136 16 0
3.2509999 -0.048 -0.022 144 16 0
3.2579999 -0.057999998 -0.026000001 150 16 0
3.253 -0.067000002 -0.029999999 121 16 0
3.2349999 -0.077 -0.035 31 16 0
3.2149999 -0.086000003 -0.039000001 26 16 0
3.2 -0.094999999 -0.043000001 27 16 0
3.174 -0.103 -0.046999998 27 16 0
3.151 -0.112 -0.050999999 27 16 0
3.1340001 -0.12 -0.055 27 16 0
3.1129999 -0.12899999 -0.059 26 16 0
3.092 -0.13699999 -0.063000001 26 16 0
3.069 -0.145 -0.067000002 27 16 0
3.0469999 -0.152 -0.071000002 27 16 0
3.03 -0.161 -0.075000003 26 16 0
3.0050001 -0.168 -0.078000002 26 16 0
2.9849999 -0.176 -0.082000002 26 16 0
2.971 -0.183 -0.086000003 26 16 0
2.9549999 -0.191 -0.090000004 26 16 0
2.9349999 -0.198 -0.093000002 27 16 0
2.915 -0.205 -0.097000003 28 16 0
2.898 -0.212 -0.1 28 16 0
2.882 -0.22 -0.104 28 16 0
2.8640001 -0.227 -0.108 27 16 0
2.846 -0.233 -0.111 27 16 0
2.823 -0.23999999 -0.114 27 16 0
2.8110001 -0.24699999 -0.118 28 16 0
2.796 -0.25400001 -0.121 28 16 0
2.7780001 -0.25999999 -0.125 28 16 0
2.7650001 -0.26699999 -0.12800001 29 16 0
2.743 -0.273 -0.132 28 16 0
2.733 -0.28 -0.13500001 27 16 0
2.7190001 -0.28600001 -0.139 27 16 0
2.7060001 -0.292 -0.142 30 16 0
2.694 -0.29899999 -0.146 32 16 0
2.677 -0.30500001 -0.149 29 16 0
2.6619999 -0.31099999 -0.152 31 16 0
2.6440001 -0.31600001 -0.155 30 16 0
2.631 -0.322 -0.15800001 31 16 0
2.6170001 -0.32800001 -0.162 32 16 0
2.6029999 -0.33399999 -0.16500001 31 16 0
2.5940001 -0.34 -0.168 31 16 0
2.5799999 -0.34599999 -0.17200001 32 16 0
