# .PCD v0.7 - Point Cloud Data file format
VERSION 0.7
FIELDS x y z intensity tag line
SIZE 4 4 4 4 1 1
TYPE F F F F U U
COUNT 1 1 1 1 1 1
WIDTH 1343
HEIGHT 1
VIEWPOINT 0 0 0 1 0 0 0
POINTS 1343
DATA ascii
1.911 -0.84200001 1.003 150 16 0
1.909 -0.84500003 1.003 150 16 0
1.903 -0.84500003 0.99900001 150 16 0
1.901 -0.84799999 0.99900001 150 16 0
1.898 -0.85000002 0.99699998 146 16 0
1.8940001 -0.852 0.995 139 16 0
1.893 -0.85500002 0.99400002 135 16 0
1.886 -0.85500002 0.99000001 126 16 0
1.883 -0.85699999 0.98900002 128 16 0
1.876 -0.85600001 0.98400003 132 16 0
1.875 -0.85900003 0.98299998 126 16 0
1.87 -0.86000001 0.98000002 126 16 0
1.868 -0.86199999 0.97899997 128 16 0
1.865 -0.86299998 0.97600001 133 16 0
1.855 -0.861 0.97000003 130 18 0
1.8559999 -0.86400002 0.97000003 142 16 0
1.85 -0.86400002 0.96600002 141 16 0
1.85 -0.86699998 0.96499997 133 16 0
1.848 -0.86799997 0.963 141 16 0
1.845 -0.87 0.95999998 140 16 0
1.841 -0.87 0.95599997 150 16 0
1.829 -0.86699998 0.949 150 16 0
1.834 -0.87099999 0.94999999 150 16 0
1.823 -0.86900002 0.94300002 150 16 0
1.821 -0.86900002 0.94099998 150 16 0
1.819 -0.87099999 0.93800002 144 16 0
1.818 -0.87199998 0.93599999 150 16 0
1.8150001 -0.87199998 0.93199998 149 16 0
1.813 -0.87300003 0.93000001 150 16 0
1.812 -0.87400001 0.92699999 148 16 0
1.8099999 -0.875 0.92400002 149 16 0
1.806 -0.875 0.92000002 150 16 0
1.804 -0.87599999 0.917 145 16 0
1.804 -0.87699997 0.91500002 150 16 0
1.7970001 -0.875 0.90899998 149 19 0
1.7970001 -0.87599999 0.90700001 150 16 0
1.796 -0.87699997 0.90399998 149 16 0
1.7920001 -0.87599999 0.89999998 150 16 0
1.788 -0.875 0.89499998 145 16 0
1.786 -0.87599999 0.89200002 142 16 0
1.785 -0.87599999 0.889 150 16 0
1.786 -0.87699997 0.88599998 148 16 0
1.786 -0.87800002 0.88300002 149 16 0
1.7869999 -0.87900001 0.88099998 150 16 0
1.7819999 -0.87699997 0.87599999 150 16 0
1.781 -0.87699997 0.87199998 150 16 0
1.78 -0.87699997 0.86900002 150 16 0
1.778 -0.87699997 0.86500001 150 16 0
1.779 -0.87800002 0.86299998 150 16 0
1.778 -0.87800002 0.85900003 150 16 0
1.774 -0.87599999 0.85399997 150 16 0
1.773 -0.875 0.85000002 150 16 0
1.774 -0.87599999 0.847 150 16 0
1.774 -0.87599999 0.84399998 150 16 0
1.775 -0.87599999 0.84100002 150 16 0
1.772 -0.87400001 0.83600003 150 16 0
1.768 -0.87199998 0.83099997 150 16 0
1.7690001 -0.87300003 0.82800001 150 16 0
1.77 -0.87300003 0.82499999 150 16 0
1.772 -0.87300003 0.82200003 150 16 0
1.771 -0.87199998 0.81800002 150 16 0
1.772 -0.87199998 0.81400001 150 16 0
1.772 -0.87099999 0.81 150 16 0
1.771 -0.87099999 0.80699998 150 16 0
1.771 -0.87 0.80299997 150 16 0
1.773 -0.87 0.79900002 150 16 0
1.77 -0.86699998 0.79400003 150 16 0
1.771 -0.86699998 0.79100001 150 16 0
1.771 -0.866 0.787 150 16 0
1.775 -0.86699998 0.78500003 150 16 0
1.774 -0.86500001 0.77999997 150 16 0
1.772 -0.86299998 0.77499998 150 16 0
1.776 -0.86400002 0.773 150 16 0
1.776 -0.86199999 0.76899999 150 16 0
1.777 -0.861 0.76499999 150 16 0
1.775 -0.85900003 0.75999999 150 16 0
1.777 -0.85799998 0.75700003 150 16 0
1.779 -0.85699999 0.75300002 150 16 0
1.781 -0.85600001 0.75 150 16 0
1.7819999 -0.85500002 0.74599999 150 16 0
1.784 -0.85500002 0.74299997 150 16 0
1.786 -0.85399997 0.73900002 150 16 0
1.785 -0.85100001 0.73400003 150 16 0
1.786 -0.85000002 0.73000002 150 16 0
1.788 -0.84799999 0.72600001 150 16 0
1.791 -0.84799999 0.72299999 150 16 0
1.794 -0.847 0.72000003 150 16 0
1.7920001 -0.84399998 0.71499997 150 16 0
1.795 -0.84299999 0.71100003 150 16 0
1.7970001 -0.84100002 0.70700002 150 16 0
1.799 -0.83999997 0.704 150 16 0
1.801 -0.838 0.69999999 150 16 0
1.803 -0.83700001 0.69599998 150 16 0
1.804 -0.83499998 0.69199997 150 16 0
1.807 -0.83399999 0.68900001 150 16 0
1.8099999 -0.83200002 0.685 150 16 0
1.812 -0.83099997 0.68099999 150 16 0
1.814 -0.829 0.67699999 150 16 0
1.814 -0.82599998 0.67199999 150 16 0
1.819 -0.82499999 0.66900003 150 16 0
1.823 -0.824 0.66600001 150 16 0
1.8279999 -0.824 0.66399997 150 16 0
1.827 -0.81999999 0.65799999 150 16 0
1.834 -0.81999999 0.65600002 150 16 0
1.83 -0.815 0.64999998 138 16 0
1.834 -0.81400001 0.64700001 150 16 0
1.837 -0.81199998 0.64300001 149 16 0
1.839 -0.80900002 0.639 146 16 0
1.842 -0.80699998 0.63499999 150 16 0
1.844 -0.80500001 0.63099998 131 16 0
1.847 -0.80299997 0.62699997 124 16 0
1.8559999 -0.80299997 0.62599999 106 16 0
1.86 -0.801 0.62199998 112 16 0
1.862 -0.79900002 0.61799997 110 16 0
1.8660001 -0.79699999 0.61500001 117 16 0
1.869 -0.79400003 0.61000001 109 16 0
1.8710001 -0.792 0.60600001 110 16 0
1.875 -0.79000002 0.60299999 110 16 0
1.876 -0.78600001 0.59799999 112 16 0
1.883 -0.78500003 0.59600002 109 16 0
1.89 -0.78399998 0.59299999 107 16 0
1.892 -0.78100002 0.58899999 114 16 0
1.896 -0.77899998 0.58499998 94 16 0
1.899 -0.77600002 0.58099997 110 16 0
1.902 -0.77399999 0.57800001 110 16 0
1.908 -0.77200001 0.574 109 16 0
1.913 -0.76999998 0.57099998 109 16 0
1.915 -0.76700002 0.56699997 104 16 0
1.918 -0.76300001 0.56300002 105 16 0
1.925 -0.76200002 0.56 103 16 0
1.923 -0.75700003 0.55500001 104 16 0
1.932 -0.75599998 0.55199999 98 16 0
1.938 -0.755 0.54900002 107 16 0
1.941 -0.75099999 0.54500002 101 16 0
1.947 -0.74900001 0.542 101 16 0
1.951 -0.74599999 0.53799999 107 16 0
1.9579999 -0.74400002 0.53500003 103 16 0
1.961 -0.741 0.53100002 98 16 0
1.97 -0.74000001 0.52899998 103 16 0
1.973 -0.736 0.52499998 102 16 0
1.976 -0.73299998 0.52100003 98 16 0
1.983 -0.73100001 0.51800001 94 16 0
1.9809999 -0.72600001 0.51200002 85 16 0
1.989 -0.72399998 0.50999999 96 16 0
1.9960001 -0.722 0.50700003 100 16 0
1.999 -0.71799999 0.50199997 103 16 0
2.0039999 -0.71499997 0.49900001 95 16 0
2.0139999 -0.713 0.49700001 98 16 0
2.0150001 -0.70899999 0.49200001 91 16 0
2.026 -0.708 0.49000001 96 16 0
2.0280001 -0.704 0.486 96 16 0
2.0350001 -0.70099998 0.48199999 95 16 0
2.0420001 -0.69800001 0.479 90 16 0
2.0439999 -0.69400001 0.47499999 90 16 0
2.05 -0.69099998 0.472 88 16 0
2.059 -0.68900001 0.46900001 90 16 0
2.0639999 -0.68599999 0.465 92 16 0
2.0680001 -0.68199998 0.461 70 16 0
2.075 -0.67900002 0.458 75 16 0
2.082 -0.676 0.45500001 63 16 0
2.085 -0.671 0.45100001 68 16 0
2.092 -0.66799998 0.447 66 16 0
2.1070001 -0.66799998 0.44600001 71 16 0
2.1099999 -0.66299999 0.442 71 16 0
2.119 -0.66100001 0.43900001 65 16 0
2.1240001 -0.65700001 0.435 65 16 0
2.1289999 -0.653 0.43099999 61 16 0
2.1370001 -0.64999998 0.428 60 16 0
2.145 -0.64700001 0.42500001 63 16 0
2.148 -0.64200002 0.421 58 16 0
2.1559999 -0.639 0.417 55 16 0
2.161 -0.63499999 0.414 58 16 0
2.1689999 -0.63200003 0.41 50 16 0
2.175 -0.62800002 0.40700001 52 16 0
2.1849999 -0.625 0.40400001 52 16 0
2.1900001 -0.62099999 0.40000001 48 16 0
2.201 -0.61799997 0.39700001 53 16 0
2.2030001 -0.61299998 0.39300001 55 16 0
2.2119999 -0.60900003 0.38999999 48 16 0
2.217 -0.60500002 0.38600001 47 16 0
2.2260001 -0.602 0.38299999 49 16 0
2.2360001 -0.59799999 0.38 29 16 0
2.2390001 -0.59299999 0.37599999 29 16 0
2.2490001 -0.58999997 0.373 30 16 0
2.257 -0.58600003 0.36899999 28 16 0
2.2650001 -0.58200002 0.366 27 16 0
2.2709999 -0.57700002 0.36199999 28 16 0
2.283 -0.574 0.359 28 16 0
2.2850001 -0.56900001 0.35499999 28 16 0
2.296 -0.565 0.352 27 16 0
2.306 -0.56199998 0.34900001 28 16 0
2.313 -0.55699998 0.345 27 16 0
2.322 -0.55299997 0.34200001 29 16 0
2.3299999 -0.54900002 0.338 27 16 0
2.335 -0.54400003 0.33399999 26 16 0
2.3469999 -0.54000002 0.331 30 16 0
2.358 -0.53600001 0.32800001 28 16 0
2.3640001 -0.53100002 0.324 28 16 0
2.3759999 -0.528 0.32100001 30 16 0
2.3840001 -0.523 0.31799999 30 16 0
2.3900001 -0.51800001 0.31400001 29 16 0
2.4030001 -0.514 0.31099999 30 16 0
2.4119999 -0.509 0.30700001 29 16 0
2.424 -0.505 0.30399999 28 16 0
2.428 -0.49900001 0.30000001 26 16 0
2.437 -0.495 0.296 27 16 0
2.448 -0.49000001 0.29300001 26 16 0
2.454 -0.48500001 0.289 27 16 0
2.467 -0.47999999 0.28600001 27 16 0
2.474 -0.47499999 0.28200001 26 16 0
2.4820001 -0.47 0.278 25 16 0
2.4960001 -0.46599999 0.27500001 26 16 0
2.5009999 -0.46000001 0.271 27 16 0
2.513 -0.45500001 0.26699999 26 16 0
2.5250001 -0.44999999 0.264 25 16 0
2.5320001 -0.44400001 0.25999999 26 16 0
2.5439999 -0.44 0.257 25 16 0
2.5580001 -0.435 0.25299999 26 16 0
2.569 -0.43000001 0.25 27 16 0
2.5739999 -0.42300001 0.24600001 26 16 0
2.5880001 -0.41800001 0.242 25 16 0
2.598 -0.41299999 0.23899999 26 16 0
2.6070001 -0.40700001 0.235 25 16 0
2.618 -0.40200001 0.23100001 26 16 0
2.6240001 -0.39500001 0.227 27 16 0
2.642 -0.391 0.22400001 26 16 0
2.6559999 -0.38499999 0.22 25 16 0
2.6670001 -0.38 0.21600001 26 16 0
2.6800001 -0.37400001 0.213 25 16 0
2.6919999 -0.368 0.20900001 27 16 0
2.6989999 -0.36199999 0.205 26 16 0
2.711 -0.35600001 0.20100001 25 16 0
2.717 -0.34900001 0.197 24 16 0
2.727 -0.34299999 0.193 25 16 0
2.744 -0.33700001 0.189 25 16 0
2.756 -0.331 0.185 26 16 0
2.7690001 -0.32499999 0.18099999 25 16 0
2.78 -0.31799999 0.177 25 16 0
2.79 -0.31099999 0.17299999 25 16 0
2.8010001 -0.30500001 0.169 25 16 0
2.8150001 -0.29899999 0.16500001 24 16 0
2.8340001 -0.29300001 0.162 25 16 0
2.839 -0.285 0.15700001 25 16 0
2.8559999 -0.27900001 0.153 25 16 0
2.8710001 -0.27200001 0.149 25 16 0
2.8870001 -0.266 0.146 26 16 0
2.8940001 -0.25799999 0.141 25 16 0
2.9089999 -0.25099999 0.13699999 26 16 0
2.9260001 -0.244 0.133 25 16 0
2.944 -0.23800001 0.12899999 25 16 0
2.9579999 -0.23 0.125 25 16 0
2.9630001 -0.222 0.12 24 16 0
2.9860001 -0.21600001 0.116 23 16 0
2.9979999 -0.208 0.112 24 16 0
3.0090001 -0.2 0.108 23 16 0
3.0339999 -0.193 0.104 23 16 0
3.052 -0.186 0.1 24 16 0
3.0639999 -0.178 0.094999999 24 16 0
3.0829999 -0.17 0.090999998 23 16 0
3.0940001 -0.162 0.086000003 23 16 0
3.115 -0.154 0.082000002 23 16 0
3.1300001 -0.146 0.078000002 24 16 0
3.1489999 -0.138 0.072999999 24 16 0
3.1659999 -0.13 0.068999998 24 16 0
3.181 -0.122 0.064000003 24 16 0
3.1989999 -0.113 0.059 24 16 0
3.2149999 -0.105 0.055 24 16 0
3.2379999 -0.096000001 0.050000001 25 16 0
3.253 -0.086999997 0.045000002 25 16 0
3.273 -0.078000002 0.041000001 25 16 0
3.286 -0.068999998 0.035999998 51 16 0
3.2820001 -0.059999999 0.030999999 112 16 0
3.2720001 -0.050000001 0.026000001 84 16 0
3.267 -0.041000001 0.021 81 16 0
3.2609999 -0.030999999 0.016000001 87 16 0
3.2520001 -0.022 0.011 49 16 0
3.253 -0.013 0.0060000001 21 16 0
3.2739999 -0.003 0.001 16 16 0
3.286 0.0049999999 -0.0020000001 16 16 0
3.3110001 0.015 -0.0070000002 18 16 0
3.3299999 0.025 -0.012 33 16 0
3.316 0.034000002 -0.017000001 48 16 0
3.3080001 0.043000001 -0.022 50 16 0
3.3050001 0.052999999 -0.027000001 37 16 0
3.296 0.061999999 -0.030999999 43 16 0
3.289 0.071999997 -0.035999998 47 16 0
3.283 0.081 -0.041000001 49 16 0
3.276 0.090999998 -0.045000002 49 16 0
3.2690001 0.1 -0.050000001 49 16 0
3.266 0.109 -0.054000001 50 16 0
3.2550001 0.119 -0.059 49 16 0
3.25 0.12800001 -0.063000001 49 16 0
3.2449999 0.13699999 -0.068000004 50 16 0
3.2360001 0.146 -0.071999997 48 16 0
3.2349999 0.156 -0.077 69 16 0
3.2219999 0.164 -0.081 59 16 0
3.2190001 0.17399999 -0.085000001 73 16 0
3.211 0.183 -0.090000004 70 16 0
3.201 0.192 -0.093999997 70 16 0
3.201 0.20100001 -0.097999997 72 16 0
3.1900001 0.20999999 -0.102 55 16 0
3.181 0.21799999 -0.106 60 16 0
3.178 0.228 -0.11 60 16 0
3.1659999 0.236 -0.114 64 16 0
3.1619999 0.245 -0.118 84 16 0
3.158 0.25400001 -0.122 79 16 0
3.151 0.26300001 -0.126 51 16 0
3.1429999 0.271 -0.13 59 16 0
3.1370001 0.28 -0.134 78 16 0
3.1300001 0.289 -0.138 66 16 0
3.119 0.29699999 -0.142 65 16 0
3.115 0.30599999 -0.146 69 16 0
3.1099999 0.315 -0.149 61 16 0
3.1070001 0.324 -0.153 74 16 0
3.099 0.33199999 -0.15700001 77 16 0
3.092 0.34099999 -0.161 70 16 0
3.0869999 0.34999999 -0.164 90 16 0
3.079 0.35800001 -0.168 73 16 0
3.072 0.366 -0.171 79 16 0
3.066 0.375 -0.175 88 16 0
3.0580001 0.38299999 -0.17900001 81 16 0
3.053 0.39199999 -0.182 82 16 0
3.05 0.40099999 -0.186 77 16 0
3.043 0.40900001 -0.189 96 16 0
3.0350001 0.417 -0.192 73 16 0
3.03 0.426 -0.19599999 77 16 0
3.023 0.43399999 -0.199 92 16 0
3.0139999 0.442 -0.20200001 74 16 0
3.0120001 0.45100001 -0.206 91 16 0
3.007 0.45899999 -0.20900001 79 16 0
3.003 0.46799999 -0.213 79 16 0
2.9979999 0.47600001 -0.21600001 96 16 0
2.9920001 0.484 -0.219 86 16 0
2.9860001 0.493 -0.222 95 16 0
2.974 0.5 -0.22499999 91 16 0
2.973 0.509 -0.228 93 16 0
2.964 0.51599997 -0.23100001 87 16 0
2.9579999 0.52399999 -0.234 101 16 0
2.9549999 0.53299999 -0.237 82 16 0
2.95 0.54100001 -0.23999999 94 16 0
2.951 0.55000001 -0.244 131 16 0
2.9349999 0.55699998 -0.24600001 133 16 0
2.938 0.56599998 -0.25 139 16 0
2.927 0.57300001 -0.252 140 16 0
2.925 0.58200002 -0.255 150 16 0
2.9200001 0.58999997 -0.25799999 142 16 0
2.9030001 0.59600002 -0.25999999 144 16 0
2.8989999 0.60399997 -0.26300001 133 16 0
2.8929999 0.61199999 -0.26499999 135 16 0
2.891 0.62099999 -0.26800001 143 16 0
2.8870001 0.62900001 -0.271 131 16 0
2.881 0.63700002 -0.27399999 141 16 0
2.875 0.64399999 -0.27599999 130 16 0
2.869 0.65200001 -0.27900001 147 16 0
2.8670001 0.66100001 -0.28200001 141 16 0
2.858 0.66799998 -0.28400001 147 16 0
2.852 0.67500001 -0.28600001 141 16 0
2.8469999 0.68300003 -0.289 140 16 0
2.842 0.69099998 -0.29100001 142 16 0
2.839 0.699 -0.294 132 16 0
2.8310001 0.70700002 -0.296 142 16 0
2.829 0.71499997 -0.29899999 145 16 0
2.8210001 0.722 -0.301 143 16 0
2.8169999 0.73000002 -0.303 148 16 0
2.813 0.73799998 -0.30599999 150 16 0
2.8039999 0.745 -0.30700001 145 16 0
2.8 0.75300002 -0.31 150 16 0
2.7980001 0.76099998 -0.31200001 138 16 0
2.7909999 0.76800001 -0.31400001 150 16 0
2.79 0.77700001 -0.317 149 16 0
2.7820001 0.78399998 -0.31900001 149 16 0
2.777 0.792 -0.32100001 142 16 0
2.7739999 0.80000001 -0.32300001 150 16 0
2.7650001 0.80599999 -0.324 150 16 0
2.7590001 0.81300002 -0.32600001 150 16 0
2.757 0.82200003 -0.32800001 150 16 0
2.7509999 0.829 -0.33000001 150 16 0
2.747 0.83700001 -0.33199999 150 16 0
2.74 0.84399998 -0.33399999 150 16 0
2.7360001 0.85100001 -0.336 150 16 0
2.734 0.85900003 -0.338 150 16 0
2.7279999 0.86699998 -0.34 150 16 0
2.72 0.87300003 -0.34099999 150 16 0
2.717 0.88099998 -0.34299999 150 16 0
2.7119999 0.88800001 -0.34400001 150 16 0
2.7119999 0.89700001 -0.347 150 16 0
2.704 0.90399998 -0.34799999 150 16 0
2.7 0.91100001 -0.34999999 150 16 0
2.6919999 0.917 -0.35100001 150 16 0
2.6860001 0.92400002 -0.352 150 16 0
2.6860001 0.93300003 -0.354 150 16 0
2.6789999 0.94 -0.35499999 150 16 0
2.6760001 0.94800001 -0.35699999 150 16 0
2.6730001 0.95499998 -0.35800001 100 16 0
2.684 0.96799999 -0.36199999 40 16 0
2.668 0.97100002 -0.36199999 150 16 0
2.6589999 0.977 -0.36199999 150 16 0
2.6530001 0.98400003 -0.36300001 150 16 0
2.648 0.991 -0.36399999 150 16 0
2.645 0.99800003 -0.366 150 16 0
2.6389999 1.005 -0.36700001 150 16 0
2.6329999 1.011 -0.368 150 16 0
2.6329999 1.02 -0.36899999 150 16 0
2.6289999 1.028 -0.37 150 16 0
2.625 1.035 -0.37099999 150 16 0
2.6199999 1.0420001 -0.37200001 150 16 0
2.6170001 1.049 -0.373 150 16 0
2.6129999 1.056 -0.37400001 150 16 0
2.6059999 1.062 -0.375 150 16 0
2.6070001 1.071 -0.37599999 150 16 0
2.5999999 1.077 -0.377 150 16 0
2.5969999 1.084 -0.37799999 150 16 0
2.5899999 1.09 -0.37799999 150 16 0
2.5869999 1.098 -0.37900001 150 16 0
2.5829999 1.105 -0.38 150 16 0
2.5799999 1.112 -0.38 150 16 0
2.575 1.119 -0.38100001 150 16 0
2.5710001 1.125 -0.38100001 150 16 0
2.5680001 1.133 -0.382 150 16 0
2.563 1.1390001 -0.382 150 16 0
2.5610001 1.147 -0.38299999 150 16 0
2.552 1.152 -0.38299999 150 16 0
2.546 1.1569999 -0.38299999 150 16 0
2.55 1.1670001 -0.384 150 16 0
2.5420001 1.1720001 -0.384 150 16 0
2.5369999 1.178 -0.384 150 16 0
2.536 1.187 -0.38499999 150 16 0
2.5320001 1.193 -0.38499999 150 16 0
2.529 1.2 -0.38499999 150 16 0
2.5220001 1.205 -0.38499999 150 16 0
2.5220001 1.2130001 -0.38600001 150 16 0
2.517 1.219 -0.38499999 150 16 0
2.5139999 1.226 -0.38600001 150 16 0
2.506 1.2309999 -0.38499999 150 16 0
2.5039999 1.238 -0.38499999 150 16 0
2.503 1.2460001 -0.38499999 150 16 0
2.5020001 1.253 -0.38600001 150 16 0
2.497 1.2589999 -0.38499999 150 16 0
2.493 1.265 -0.38499999 150 16 0
2.49 1.272 -0.38499999 150 16 0
2.487 1.278 -0.384 150 16 0
2.484 1.284 -0.384 150 16 0
2.4790001 1.29 -0.384 150 16 0
2.48 1.298 -0.384 150 16 0
2.4719999 1.302 -0.38299999 150 16 0
2.4719999 1.3099999 -0.38299999 150 16 0
2.464 1.314 -0.38100001 150 16 0
2.4630001 1.321 -0.38100001 150 16 0
2.4619999 1.3279999 -0.38100001 150 16 0
2.4560001 1.3329999 -0.38 150 16 0
2.4579999 1.342 -0.38 150 16 0
2.451 1.345 -0.37900001 150 16 0
2.447 1.35 -0.37799999 150 16 0
2.447 1.358 -0.377 150 16 0
2.4449999 1.364 -0.377 150 16 0
2.438 1.368 -0.375 150 16 0
2.4360001 1.374 -0.37400001 150 16 0
2.437 1.382 -0.37400001 150 16 0
2.4319999 1.387 -0.373 150 16 0
2.4360001 1.396 -0.373 150 16 0
2.428 1.399 -0.37099999 150 16 0
2.428 1.406 -0.37 150 16 0
2.427 1.4119999 -0.36899999 150 16 0
2.424 1.418 -0.368 150 16 0
2.4200001 1.4220001 -0.366 150 16 0
2.4170001 1.427 -0.36500001 150 16 0
2.418 1.4349999 -0.36399999 150 16 0
2.4130001 1.438 -0.36199999 150 16 0
2.4119999 1.4450001 -0.361 150 16 0
2.4100001 1.45 -0.36000001 150 16 0
2.4070001 1.455 -0.35800001 150 16 0
2.408 1.462 -0.35699999 150 16 0
2.4030001 1.466 -0.35499999 150 16 0
2.401 1.47 -0.354 150 16 0
2.401 1.477 -0.352 150 16 0
2.4000001 1.482 -0.35100001 150 16 0
2.3940001 1.485 -0.34900001 150 16 0
2.391 1.489 -0.34599999 150 16 0
2.3940001 1.497 -0.345 150 16 0
2.3859999 1.498 -0.34299999 150 16 0
2.3900001 1.506 -0.34200001 150 16 0
2.385 1.5089999 -0.33899999 150 16 0
2.382 1.513 -0.33700001 150 16 0
2.3829999 1.5190001 -0.336 150 16 0
2.3840001 1.525 -0.33399999 150 16 0
2.381 1.528 -0.33199999 150 16 0
2.3800001 1.533 -0.33000001 150 16 0
2.378 1.5369999 -0.32699999 150 16 0
2.3759999 1.541 -0.32499999 150 16 0
2.3710001 1.543 -0.32300001 150 16 0
2.3729999 1.549 -0.32100001 150 16 0
2.3670001 1.55 -0.31799999 150 16 0
2.3699999 1.557 -0.31600001 150 16 0
2.3699999 1.561 -0.31400001 150 16 0
2.3670001 1.564 -0.31099999 150 16 0
2.3659999 1.568 -0.30899999 150 16 0
2.3640001 1.571 -0.30599999 150 16 0
2.3640001 1.575 -0.30399999 150 16 0
2.3670001 1.581 -0.30199999 150 16 0
2.365 1.584 -0.29899999 150 16 0
2.3610001 1.585 -0.296 150 16 0
2.368 1.594 -0.29499999 150 16 0
2.365 1.595 -0.292 150 16 0
2.3629999 1.598 -0.289 150 16 0
2.3629999 1.602 -0.28600001 150 16 0
2.362 1.604 -0.28400001 150 16 0
2.3610001 1.6059999 -0.28099999 150 16 0
2.3599999 1.609 -0.278 150 16 0
2.358 1.6109999 -0.27500001 150 16 0
2.3570001 1.613 -0.27200001 150 16 0
2.3640001 1.62 -0.27000001 150 16 0
2.3610001 1.6210001 -0.26699999 150 16 0
2.3629999 1.625 -0.264 150 16 0
2.362 1.627 -0.26100001 150 16 0
2.362 1.6289999 -0.25799999 150 16 0
2.3610001 1.63 -0.255 150 16 0
2.3610001 1.632 -0.252 150 16 0
2.3599999 1.6339999 -0.249 150 16 0
2.3599999 1.636 -0.24600001 150 16 0
2.3599999 1.637 -0.243 150 16 0
2.3640001 1.642 -0.23999999 150 16 0
2.3599999 1.641 -0.237 150 16 0
2.362 1.643 -0.233 150 16 0
2.3629999 1.645 -0.23 150 16 0
2.368 1.649 -0.227 150 16 0
2.362 1.647 -0.22400001 150 16 0
2.3640001 1.648 -0.221 150 16 0
2.3659999 1.651 -0.21799999 150 16 0
2.369 1.653 -0.214 150 16 0
2.369 1.653 -0.211 150 16 0
2.3670001 1.652 -0.208 150 16 0
2.369 1.654 -0.204 150 16 0
2.375 1.658 -0.20100001 150 16 0
2.369 1.654 -0.198 150 16 0
2.3770001 1.659 -0.19499999 150 16 0
2.3759999 1.658 -0.191 150 16 0
2.3800001 1.661 -0.18799999 150 16 0
2.3770001 1.6569999 -0.185 150 16 0
2.3800001 1.659 -0.18099999 150 16 0
2.382 1.659 -0.178 150 16 0
2.378 1.656 -0.17399999 150 16 0
2.388 1.6619999 -0.17200001 150 19 0
2.382 1.656 -0.168 150 16 0
2.3900001 1.66 -0.16500001 150 16 0
2.391 1.659 -0.161 150 16 0
2.3900001 1.6569999 -0.15800001 150 16 0
2.3929999 1.6569999 -0.154 150 16 0
2.3940001 1.656 -0.15099999 150 16 0
2.3989999 1.6569999 -0.148 150 16 0
2.402 1.6569999 -0.14399999 150 16 0
2.404 1.6569999 -0.141 150 16 0
2.402 1.653 -0.13699999 150 16 0
2.4070001 1.653 -0.134 150 16 0
2.408 1.652 -0.131 150 16 0
2.408 1.649 -0.127 150 16 0
2.411 1.648 -0.124 150 16 0
2.4130001 1.646 -0.121 150 16 0
2.414 1.643 -0.117 150 16 0
2.418 1.643 -0.114 150 16 0
2.4219999 1.642 -0.111 150 16 0
2.4230001 1.6390001 -0.107 150 16 0
2.4260001 1.637 -0.104 150 16 0
2.427 1.635 -0.101 150 16 0
2.4319999 1.6339999 -0.097000003 150 16 0
2.4349999 1.632 -0.093999997 150 16 0
2.4360001 1.628 -0.090999998 150 16 0
2.4360001 1.624 -0.086999997 150 16 0
2.441 1.623 -0.083999999 150 16 0
2.4419999 1.62 -0.081 150 16 0
2.444 1.6160001 -0.078000002 150 16 0
2.451 1.617 -0.075000003 150 16 0
2.454 1.613 -0.071000002 144 16 0
2.4560001 1.61 -0.068000004 150 16 0
2.4579999 1.607 -0.064999998 150 16 0
2.4649999 1.6059999 -0.061999999 150 16 0
2.4630001 1.599 -0.059 150 16 0
2.4690001 1.598 -0.056000002 150 16 0
2.4719999 1.595 -0.052999999 150 16 0
2.474 1.59 -0.048999999 150 16 0
2.4760001 1.586 -0.046999998 150 16 0
2.4809999 1.584 -0.043000001 150 16 0
2.484 1.58 -0.039999999 150 16 0
2.4860001 1.575 -0.037 150 16 0
2.4909999 1.573 -0.035 150 16 0
2.4920001 1.567 -0.032000002 150 16 0
2.4949999 1.563 -0.028999999 150 16 0
2.4979999 1.559 -0.026000001 150 16 0
2.5039999 1.556 -0.023 150 16 0
2.5090001 1.553 -0.02 150 16 0
2.516 1.551 -0.017000001 150 16 0
2.5139999 1.543 -0.014 150 16 0
2.5209999 1.541 -0.012 150 16 0
2.5239999 1.536 -0.0089999996 150 16 0
2.527 1.531 -0.0060000001 150 16 0
2.53 1.526 -0.003 150 16 0
2.536 1.523 -0.001 150 16 0
2.5320001 1.513 0.001 150 16 0
2.5420001 1.512 0.0040000002 150 16 0
2.546 1.508 0.0060000001 150 16 0
2.5480001 1.501 0.0089999996 150 16 0
2.553 1.497 0.011 150 16 0
2.5610001 1.495 0.014 150 16 0
2.5569999 1.485 0.016000001 150 16 0
2.562 1.48 0.018999999 150 16 0
2.5680001 1.476 0.021 150 16 0
2.5680001 1.469 0.023 150 16 0
2.572 1.4630001 0.026000001 150 16 0
2.5780001 1.459 0.028000001 150 16 0
2.5810001 1.4529999 0.029999999 150 16 0
2.5869999 1.449 0.033 150 16 0
2.5910001 1.442 0.035 150 16 0
2.5940001 1.436 0.037 150 16 0
2.599 1.431 0.039000001 150 16 0
2.6010001 1.424 0.041999999 150 16 0
2.6040001 1.418 0.044 147 16 0
2.609 1.4119999 0.046 138 16 0
2.6129999 1.4069999 0.048 148 16 0
2.6159999 1.4 0.050000001 144 16 0
2.619 1.393 0.052000001 149 16 0
2.625 1.388 0.054000001 150 16 0
2.628 1.381 0.056000002 148 16 0
2.632 1.375 0.057999998 150 16 0
2.635 1.368 0.059 145 16 0
2.638 1.3609999 0.061000001 150 16 0
2.6429999 1.355 0.063000001 150 16 0
2.6459999 1.348 0.064999998 150 16 0
2.6500001 1.341 0.066 150 16 0
2.6570001 1.336 0.068000004 150 16 0
2.6700001 1.334 0.07 150 16 0
2.6700001 1.325 0.071999997 150 16 0
2.6730001 1.318 0.072999999 150 16 0
2.6800001 1.313 0.075000003 150 16 0
2.6789999 1.303 0.075999998 150 16 0
2.684 1.296 0.078000002 150 16 0
2.6900001 1.29 0.079000004 150 16 0
2.6900001 1.2819999 0.081 145 16 0
2.7019999 1.278 0.082000002 150 16 0
2.7079999 1.272 0.083999999 150 16 0
2.701 1.26 0.085000001 150 16 0
2.711 1.256 0.086000003 150 16 0
2.7160001 1.249 0.088 150 16 0
2.7219999 1.242 0.089000002 150 16 0
2.7249999 1.235 0.090000004 150 16 0
2.727 1.226 0.090999998 150 16 0
2.7360001 1.221 0.093000002 150 16 0
2.7420001 1.214 0.093999997 150 16 0
2.7449999 1.207 0.094999999 150 16 0
2.7490001 1.199 0.096000001 150 16 0
2.7520001 1.191 0.097000003 150 16 0
2.7590001 1.1849999 0.097999997 150 16 0
2.7590001 1.175 0.098999999 150 16 0
2.7639999 1.168 0.1 150 16 0
2.7679999 1.16 0.101 150 16 0
2.7720001 1.152 0.102 150 16 0
2.7780001 1.145 0.102 150 16 0
2.783 1.138 0.103 150 16 0
2.7839999 1.1289999 0.104 150 16 0
2.7939999 1.124 0.105 150 16 0
2.7950001 1.114 0.106 150 16 0
2.7980001 1.1059999 0.106 150 16 0
2.8039999 1.099 0.107 140 16 0
2.8099999 1.092 0.108 150 16 0
2.8099999 1.082 0.108 139 16 0
2.816 1.075 0.109 148 16 0
2.8199999 1.067 0.109 136 16 0
2.8199999 1.057 0.11 133 16 0
2.8299999 1.051 0.11 150 16 0
2.8329999 1.043 0.111 150 16 0
2.8369999 1.035 0.111 150 16 0
2.8410001 1.026 0.112 139 16 0
2.848 1.0190001 0.112 149 16 0
2.852 1.011 0.112 150 16 0
2.8559999 1.003 0.113 150 16 0
2.859 0.99400002 0.113 150 16 0
2.8610001 0.98500001 0.113 150 16 0
2.8770001 0.98000002 0.114 45 16 0
2.885 0.97399998 0.114 33 16 0
2.878 0.96100003 0.114 135 16 0
2.8840001 0.95300001 0.114 146 16 0
2.8889999 0.94599998 0.114 150 16 0
2.8889999 0.93599999 0.114 145 16 0
2.9000001 0.92900002 0.114 146 16 0
2.9030001 0.92000002 0.114 150 16 0
2.9070001 0.912 0.114 150 16 0
2.911 0.903 0.114 150 16 0
2.915 0.89499998 0.114 150 16 0
2.9170001 0.88499999 0.114 150 16 0
2.9219999 0.87699997 0.114 130 16 0
2.9260001 0.86799997 0.114 132 16 0
2.931 0.86000001 0.114 150 16 0
2.937 0.852 0.114 150 16 0
2.9400001 0.84299999 0.113 145 16 0
2.9419999 0.83399999 0.113 150 16 0
2.95 0.82599998 0.113 137 16 0
2.954 0.81699997 0.113 150 16 0
2.96 0.80900002 0.112 148 16 0
2.9619999 0.79900002 0.112 150 16 0
2.967 0.79100001 0.112 150 16 0
2.974 0.78299999 0.111 150 16 0
2.977 0.773 0.111 129 16 0
2.983 0.76499999 0.11 150 16 0
2.9860001 0.75599998 0.11 150 16 0
2.9879999 0.74599999 0.109 150 16 0
2.994 0.73799998 0.109 150 16 0
2.9960001 0.72799999 0.108 150 16 0
3.0009999 0.72000003 0.108 150 16 0
3.007 0.71100003 0.107 122 16 0
3.01 0.70200002 0.106 122 16 0
3.0190001 0.69400001 0.106 135 16 0
3.023 0.685 0.105 119 16 0
3.023 0.67500001 0.104 124 16 0
3.03 0.66600001 0.104 124 16 0
3.03 0.65600002 0.103 122 16 0
3.0369999 0.648 0.102 123 16 0
3.0409999 0.63800001 0.101 123 16 0
3.05 0.63 0.101 112 16 0
3.052 0.62 0.1 117 16 0
3.0599999 0.61199999 0.098999999 127 16 0
3.062 0.602 0.097999997 115 16 0
3.0669999 0.59299999 0.097000003 116 16 0
3.073 0.58399999 0.096000001 108 16 0
3.0769999 0.57499999 0.094999999 110 16 0
3.082 0.56599998 0.093999997 108 16 0
3.086 0.55599999 0.093000002 105 16 0
3.0880001 0.54699999 0.092 111 16 0
3.0929999 0.537 0.090999998 100 16 0
3.1029999 0.52899998 0.090000004 96 16 0
3.105 0.51899999 0.089000002 94 16 0
3.112 0.50999999 0.088 91 16 0
3.1170001 0.50099999 0.086999997 104 16 0
3.1210001 0.491 0.086000003 107 16 0
3.1240001 0.48100001 0.083999999 93 16 0
3.1270001 0.472 0.082999997 110 16 0
3.1329999 0.463 0.082000002 112 16 0
3.135 0.45199999 0.081 98 16 0
3.1400001 0.44299999 0.079000004 106 16 0
3.151 0.43399999 0.078000002 106 16 0
3.145 0.42300001 0.077 99 16 0
3.155 0.414 0.075000003 102 16 0
3.1619999 0.405 0.074000001 113 16 0
3.168 0.396 0.072999999 104 16 0
3.1700001 0.38600001 0.071000002 112 16 0
3.178 0.37599999 0.07 74 16 0
3.164 0.36500001 0.068000004 24 16 0
3.1600001 0.354 0.066 27 16 0
3.1659999 0.34400001 0.064999998 28 16 0
3.171 0.33500001 0.063000001 28 16 0
3.174 0.32499999 0.061999999 26 16 0
3.175 0.315 0.059999999 26 16 0
3.1830001 0.30500001 0.059 26 16 0
3.1849999 0.29499999 0.057 26 16 0
3.188 0.285 0.055 24 16 0
3.1900001 0.27500001 0.052999999 24 16 0
3.197 0.26499999 0.052000001 27 16 0
3.201 0.25600001 0.050000001 26 16 0
3.2019999 0.245 0.048 27 16 0
3.1930001 0.234 0.046 38 16 0
3.1819999 0.223 0.044 136 16 0
3.188 0.214 0.043000001 51 16 0
3.207 0.205 0.041000001 27 16 0
3.2260001 0.19599999 0.039000001 25 16 0
3.2279999 0.185 0.037 25 16 0
3.2360001 0.176 0.035999998 26 16 0
3.2390001 0.16599999 0.034000002 27 16 0
3.24 0.155 0.032000002 27 16 0
3.2579999 0.146 0.029999999 33 16 0
3.279 0.13600001 0.028000001 57 16 0
3.2880001 0.126 0.026000001 81 16 0
3.2909999 0.116 0.024 79 16 0
3.296 0.106 0.022 88 16 0
3.2980001 0.094999999 0.02 80 16 0
3.3050001 0.085000001 0.017999999 66 16 0
3.312 0.074000001 0.016000001 67 16 0
3.312 0.064000003 0.013 50 16 0
3.3169999 0.054000001 0.011 47 16 0
3.319 0.043000001 0.0089999996 73 16 0
3.325 0.033 0.0070000002 59 16 0
3.322 0.022 0.0040000002 28 16 0
3.302 0.011 0.0020000001 19 16 0
3.277 0.001 0 18 16 0
3.25 -0.0080000004 -0.001 19 16 0
3.243 -0.018999999 -0.0040000002 49 16 0
3.2479999 -0.028999999 -0.0060000001 150 16 0
3.2550001 -0.039000001 -0.0080000004 150 16 0
3.2579999 -0.048999999 -0.011 150 16 0
3.26 -0.059999999 -0.013 150 16 0
3.2639999 -0.07 -0.016000001 72 16 0
3.24 -0.079999998 -0.017999999 30 16 0
3.2149999 -0.089000002 -0.02 28 16 0
3.197 -0.098999999 -0.022 29 16 0
3.171 -0.108 -0.025 28 16 0
3.151 -0.117 -0.027000001 29 16 0
3.131 -0.126 -0.028999999 29 16 0
3.108 -0.13500001 -0.030999999 27 16 0
3.086 -0.14399999 -0.033 27 16 0
3.0680001 -0.153 -0.035 28 16 0
3.049 -0.161 -0.037999999 29 16 0
3.0209999 -0.17 -0.039999999 26 16 0
3.0020001 -0.178 -0.041999999 26 16 0
2.9809999 -0.186 -0.044 26 16 0
2.9660001 -0.19400001 -0.046 27 16 0
2.9460001 -0.20200001 -0.048 26 16 0
2.927 -0.20999999 -0.050000001 27 16 0
2.905 -0.21799999 -0.052000001 26 16 0
2.8889999 -0.226 -0.054000001 27 16 0
2.869 -0.233 -0.057 27 16 0
2.849 -0.23999999 -0.059 27 16 0
2.8340001 -0.248 -0.061000001 28 16 0
2.8139999 -0.255 -0.063000001 29 16 0
2.799 -0.26300001 -0.064999998 27 16 0
2.78 -0.26899999 -0.067000002 28 16 0
2.7639999 -0.27700001 -0.068999998 27 16 0
2.747 -0.28400001 -0.071000002 29 16 0
2.734 -0.29100001 -0.072999999 28 16 0
2.723 -0.29800001 -0.075000003 30 16 0
2.707 -0.30500001 -0.077 30 16 0
2.6900001 -0.31200001 -0.079000004 31 16 0
2.6760001 -0.31799999 -0.081 29 16 0
2.652 -0.324 -0.082999997 30 16 0
2.6400001 -0.331 -0.085000001 30 16 0
2.6289999 -0.33700001 -0.086999997 31 16 0
2.6159999 -0.34400001 -0.089000002 31 16 0
2.596 -0.34900001 -0.090999998 31 16 0
2.582 -0.35600001 -0.093000002 32 16 0
2.575 -0.36300001 -0.094999999 37 16 0
2.5550001 -0.368 -0.096000001 33 16 0
2.5380001 -0.373 -0.097999997 42 16 0
2.526 -0.38 -0.1 51 16 0
2.513 -0.38600001 -0.102 44 16 0
2.503 -0.39199999 -0.104 44 16 0
2.484 -0.39700001 -0.106 56 16 0
2.4690001 -0.40200001 -0.108 43 16 0
2.461 -0.40799999 -0.11 53 16 0
2.45 -0.414 -0.112 53 16 0
2.444 -0.421 -0.114 54 16 0
2.421 -0.42399999 -0.116 53 16 0
2.4100001 -0.43000001 -0.118 51 16 0
2.398 -0.435 -0.119 52 16 0
2.3859999 -0.44100001 -0.121 57 16 0
2.3770001 -0.44600001 -0.123 47 16 0
2.358 -0.44999999 -0.125 49 16 0
2.345 -0.45500001 -0.127 57 16 0
2.3329999 -0.46000001 -0.12899999 57 16 0
2.322 -0.465 -0.131 59 16 0
2.312 -0.47099999 -0.133 59 16 0
2.2939999 -0.47400001 -0.134 64 16 0
2.29 -0.47999999 -0.13600001 60 16 0
2.273 -0.484 -0.138 65 16 0
2.2620001 -0.48899999 -0.14 68 16 0
2.2550001 -0.49399999 -0.142 68 16 0
2.2409999 -0.498 -0.14399999 60 16 0
2.23 -0.50300002 -0.145 67 16 0
2.223 -0.50800002 -0.148 75 16 0
2.2079999 -0.51099998 -0.149 68 16 0
2.1949999 -0.51499999 -0.15099999 69 16 0
2.188 -0.52100003 -0.153 79 16 0
2.1800001 -0.52499998 -0.155 79 16 0
2.161 -0.528 -0.156 80 16 0
2.1530001 -0.53200001 -0.15800001 87 16 0
2.1400001 -0.53600001 -0.16 80 16 0
2.1359999 -0.54100001 -0.162 80 16 0
2.1240001 -0.54500002 -0.164 80 16 0
2.1070001 -0.54699999 -0.16500001 84 16 0
2.1029999 -0.55299997 -0.168 88 16 0
2.0940001 -0.55699998 -0.17 84 16 0
2.0840001 -0.56099999 -0.171 101 16 0
2.0799999 -0.56599998 -0.17399999 92 16 0
2.0680001 -0.56900001 -0.175 83 16 0
2.0539999 -0.57200003 -0.177 89 16 0
2.0480001 -0.57700002 -0.17900001 88 16 0
2.036 -0.579 -0.18099999 86 16 0
2.027 -0.583 -0.183 85 16 0
2.0209999 -0.588 -0.185 87 16 0
2.0079999 -0.58999997 -0.186 91 16 0
1.999 -0.59399998 -0.18799999 90 16 0
1.997 -0.59899998 -0.19 104 16 0
1.983 -0.60100001 -0.192 97 16 0
1.973 -0.60399997 -0.19400001 96 16 0
1.9680001 -0.60900003 -0.19599999 92 16 0
1.957 -0.61199999 -0.197 94 16 0
1.942 -0.61299998 -0.199 110 16 0
1.933 -0.616 -0.2 93 16 0
1.926 -0.62 -0.20200001 98 16 0
1.923 -0.625 -0.205 106 16 0
1.913 -0.62800002 -0.207 108 16 0
1.909 -0.63200003 -0.20900001 99 16 0
1.904 -0.63599998 -0.211 93 16 0
1.8890001 -0.63700002 -0.212 99 16 0
1.885 -0.64099997 -0.215 118 16 0
1.88 -0.64499998 -0.21699999 113 16 0
1.868 -0.64700001 -0.21799999 122 16 0
1.8609999 -0.64999998 -0.22 104 16 0
1.852 -0.653 -0.222 108 16 0
1.85 -0.65799999 -0.22499999 111 16 0
1.837 -0.65799999 -0.226 104 16 0
1.832 -0.662 -0.228 114 16 0
1.822 -0.66399997 -0.23 135 16 0
1.811 -0.66600001 -0.23100001 146 16 0
1.807 -0.67000002 -0.234 136 16 0
1.803 -0.67400002 -0.236 146 16 0
1.796 -0.67699999 -0.23800001 136 16 0
1.7920001 -0.68099999 -0.23999999 140 16 0
1.7819999 -0.68199998 -0.242 148 16 0
1.771 -0.68300003 -0.243 150 16 0
1.768 -0.68699998 -0.245 150 16 0
1.755 -0.68699998 -0.24699999 140 16 0
1.753 -0.69199997 -0.249 150 16 0
1.745 -0.69400001 -0.25099999 150 16 0
1.7410001 -0.69700003 -0.25299999 148 16 0
1.735 -0.69999999 -0.255 150 16 0
1.727 -0.70200002 -0.257 1 0 0
1.724 -0.70599997 -0.25999999 150 16 0
1.719 -0.70899999 -0.26199999 150 16 0
1.71 -0.70999998 -0.26300001 150 16 0
1.699 -0.70999998 -0.26499999 1 0 0
1.698 -0.71499997 -0.26800001 1 0 0
1.693 -0.71799999 -0.27000001 150 16 0
1.684 -0.71899998 -0.271 150 16 0
1.682 -0.72299999 -0.27399999 1 0 0
1.671 -0.72299999 -0.27500001 150 16 0
1.665 -0.72500002 -0.27700001 150 16 0
1.658 -0.727 -0.27900001 1 0 0
1.654 -0.73000002 -0.28099999 150 16 0
1.65 -0.73199999 -0.28400001 150 16 0
1.642 -0.73400003 -0.285 150 16 0
1.6390001 -0.73699999 -0.28799999 150 16 0
1.6339999 -0.73900002 -0.28999999 143 16 0
1.631 -0.74199998 -0.292 150 16 0
1.62 -0.74199998 -0.294 150 16 0
1.617 -0.745 -0.296 150 16 0
1.614 -0.74800003 -0.29899999 1 0 0
1.607 -0.74900001 -0.30000001 150 16 0
1.594 -0.74699998 -0.301 67 0 0
1.5930001 -0.75099999 -0.30399999 150 16 0
1.5880001 -0.75300002 -0.30599999 150 16 0
1.585 -0.75599998 -0.30899999 2 0 0
1.581 -0.75800002 -0.31099999 3 0 0
1.574 -0.759 -0.31299999 75 0 0
1.569 -0.75999999 -0.315 74 0 0
1.5650001 -0.76300001 -0.317 55 0 0
1.563 -0.76599997 -0.31900001 150 16 0
1.561 -0.76899999 -0.322 90 0 0
1.5470001 -0.76599997 -0.322 106 3 0
1.545 -0.76899999 -0.32499999 100 0 0
1.541 -0.76999998 -0.32699999 73 0 0
1.54 -0.77399999 -0.33000001 70 0 0
1.533 -0.77399999 -0.33199999 114 0 0
1.531 -0.77700001 -0.33500001 102 0 0
1.526 -0.778 -0.33700001 114 0 0
1.524 -0.78100002 -0.33899999 86 0 0
1.52 -0.78200001 -0.34099999 68 0 0
1.515 -0.78399998 -0.34299999 89 0 0
1.506 -0.78200001 -0.34400001 75 0 0
1.505 -0.78600001 -0.347 64 0 0
1.502 -0.787 -0.34999999 85 0 0
1.4960001 -0.78799999 -0.352 92 0 0
1.492 -0.78899997 -0.354 70 0 0
1.49 -0.79100001 -0.35600001 100 0 0
1.4859999 -0.792 -0.35800001 71 0 0
1.48 -0.792 -0.36000001 78 0 0
1.478 -0.79500002 -0.36300001 78 0 0
1.474 -0.79500002 -0.36500001 60 0 0
1.47 -0.796 -0.36700001 112 0 0
1.465 -0.79699999 -0.36899999 75 0 0
1.4579999 -0.796 -0.37 107 0 0
1.459 -0.79900002 -0.373 117 0 0
1.457 -0.801 -0.37599999 112 0 0
1.45 -0.80000001 -0.377 115 0 0
1.448 -0.80199999 -0.38 76 0 0
1.449 -0.80500001 -0.38299999 92 0 0
1.443 -0.80400002 -0.38499999 100 0 0
1.441 -0.80599999 -0.38699999 111 0 0
1.439 -0.80699998 -0.389 102 0 0
1.4299999 -0.80500001 -0.38999999 109 0 0
1.428 -0.80599999 -0.39300001 124 0 0
1.426 -0.80699998 -0.39500001 131 0 0
1.424 -0.80900002 -0.39700001 123 0 0
1.423 -0.81 -0.40000001 105 0 0
1.418 -0.81 -0.40200001 117 0 0
1.418 -0.81199998 -0.405 108 0 0
1.413 -0.81099999 -0.40599999 150 0 0
1.4119999 -0.81300002 -0.40900001 137 0 0
1.408 -0.81199998 -0.41 150 0 0
1.406 -0.81400001 -0.41299999 120 0 0
1.4069999 -0.81599998 -0.41600001 141 0 0
1.401 -0.81400001 -0.417 150 0 0
1.402 -0.81699997 -0.41999999 150 0 0
1.398 -0.81599998 -0.42199999 143 0 0
1.398 -0.81800002 -0.42500001 150 0 0
1.3940001 -0.81699997 -0.426 150 0 0
1.392 -0.81800002 -0.42899999 150 0 0
1.391 -0.81800002 -0.43099999 104 0 0
1.39 -0.81900001 -0.433 150 0 0
1.387 -0.81900001 -0.435 150 0 0
1.386 -0.81900001 -0.43799999 150 0 0
1.3839999 -0.81999999 -0.44 150 0 0
1.383 -0.82099998 -0.442 150 0 0
1.376 -0.81699997 -0.44299999 150 3 0
1.38 -0.82099998 -0.447 150 0 0
1.376 -0.81999999 -0.44800001 150 0 0
1.373 -0.81900001 -0.449 150 0 0
1.372 -0.81900001 -0.45199999 150 0 0
1.373 -0.82099998 -0.45500001 150 0 0
1.372 -0.82099998 -0.45699999 150 0 0
1.369 -0.81999999 -0.458 5 0 0
1.368 -0.81999999 -0.461 150 0 0
1.3710001 -0.82200003 -0.46399999 150 0 0
1.369 -0.82099998 -0.46599999 150 0 0
1.3660001 -0.81999999 -0.46700001 150 0 0
1.365 -0.81999999 -0.46900001 150 0 0
1.365 -0.81999999 -0.47099999 148 0 0
1.364 -0.81999999 -0.47299999 150 0 0
1.363 -0.81900001 -0.47600001 150 0 0
1.363 -0.81900001 -0.47799999 150 0 0
1.365 -0.82099998 -0.48100001 150 0 0
1.362 -0.81900001 -0.48199999 150 0 0
1.364 -0.81999999 -0.484 150 0 0
1.364 -0.81999999 -0.48699999 150 0 0
1.364 -0.81900001 -0.48899999 150 0 0
1.36 -0.81699997 -0.48899999 150 0 0
1.363 -0.81800002 -0.493 150 0 0
1.359 -0.81599998 -0.493 150 0 0
1.362 -0.81699997 -0.49599999 150 0 0
1.362 -0.81599998 -0.498 150 0 0
1.362 -0.81599998 -0.5 150 0 0
1.362 -0.815 -0.50199997 150 0 0
1.3609999 -0.81400001 -0.50300002 150 0 0
1.3609999 -0.81300002 -0.505 150 0 0
1.3660001 -0.815 -0.509 150 3 0
1.364 -0.81300002 -0.50999999 150 0 0
1.367 -0.81400001 -0.51200002 150 0 0
1.3660001 -0.81199998 -0.514 150 0 0
1.367 -0.81199998 -0.51599997 150 0 0
1.3660001 -0.81 -0.51700002 150 0 0
1.37 -0.81099999 -0.51999998 150 0 0
1.37 -0.80900002 -0.52100003 150 0 0
1.37 -0.80800003 -0.523 150 0 0
1.37 -0.80699998 -0.52399999 150 0 0
1.37 -0.80599999 -0.52499998 150 0 0
1.372 -0.80500001 -0.528 150 0 0
1.375 -0.80500001 -0.52999997 150 0 0
1.378 -0.80500001 -0.53200001 150 0 0
1.3789999 -0.80400002 -0.53399998 150 0 0
1.375 -0.80000001 -0.53299999 150 0 0
1.382 -0.80199999 -0.537 150 0 0
1.383 -0.801 -0.53799999 150 0 0
1.383 -0.79900002 -0.54000002 150 0 0
1.386 -0.79900002 -0.542 150 0 0
1.388 -0.79699999 -0.54299998 150 0 0
1.391 -0.79699999 -0.54500002 150 0 0
1.392 -0.79500002 -0.546 150 0 0
1.3940001 -0.79400003 -0.54799998 150 0 0
1.395 -0.792 -0.54900002 150 0 0
1.399 -0.792 -0.551 150 0 0
1.401 -0.79100001 -0.55299997 150 0 0
1.398 -0.787 -0.55199999 150 0 0
1.406 -0.78899997 -0.55599999 150 0 0
1.4069999 -0.787 -0.55699998 150 0 0
1.413 -0.787 -0.55900002 150 0 0
1.414 -0.78500003 -0.56 150 0 0
1.415 -0.78299999 -0.56099999 150 0 0
1.416 -0.78100002 -0.56199998 150 0 0
1.4220001 -0.78100002 -0.56400001 150 0 0
1.423 -0.778 -0.565 150 0 0
1.425 -0.77600002 -0.565 150 0 0
1.433 -0.778 -0.56900001 150 3 0
1.438 -0.77700001 -0.57099998 150 0 0
1.439 -0.77499998 -0.57099998 150 0 0
1.4400001 -0.77200001 -0.57200003 150 0 0
1.444 -0.77100003 -0.57300001 150 0 0
1.447 -0.76899999 -0.574 150 0 0
1.448 -0.76700002 -0.574 150 0 0
1.45 -0.764 -0.57499999 150 0 0
1.456 -0.764 -0.57700002 150 0 0
1.4579999 -0.76200002 -0.57700002 150 0 0
1.461 -0.75999999 -0.57800001 150 0 0
1.466 -0.759 -0.57999998 150 0 0
1.4680001 -0.75599998 -0.57999998 150 0 0
1.476 -0.75700003 -0.583 150 0 0
1.475 -0.75300002 -0.58200002 150 0 0
1.483 -0.75300002 -0.58399999 150 0 0
1.483 -0.74900001 -0.58399999 150 0 0
1.492 -0.75 -0.58600003 150 0 0
1.4960001 -0.74800003 -0.58700001 150 0 0
1.497 -0.745 -0.58700001 150 0 0
1.503 -0.74400002 -0.588 150 0 0
1.51 -0.74299997 -0.58999997 150 0 0
1.512 -0.74000001 -0.58999997 150 0 0
1.517 -0.73799998 -0.58999997 150 0 0
1.5190001 -0.736 -0.58999997 150 0 0
1.523 -0.73299998 -0.59100002 150 0 0
1.524 -0.73000002 -0.58999997 150 0 0
1.53 -0.72799999 -0.59100002 150 0 0
1.531 -0.72500002 -0.58999997 150 0 0
1.535 -0.722 -0.58999997 150 0 0
1.539 -0.72000003 -0.59100002 150 0 0
1.543 -0.71799999 -0.59100002 150 0 0
1.5549999 -0.71899998 -0.59399998 6 3 0
1.559 -0.71600002 -0.59399998 150 16 0
1.563 -0.71399999 -0.59399998 150 0 0
1.568 -0.71200001 -0.59399998 150 16 0
1.575 -0.70999998 -0.59500003 150 16 0
1.58 -0.708 -0.59600002 150 16 0
1.585 -0.70599997 -0.59600002 2 0 0
1.5880001 -0.70300001 -0.59500003 3 0 0
1.5930001 -0.70099998 -0.59500003 150 16 0
1.599 -0.699 -0.59600002 150 16 0
1.603 -0.69599998 -0.59500003 150 0 0
1.61 -0.69400001 -0.59600002 150 16 0
1.6160001 -0.69199997 -0.59600002 146 0 0
1.622 -0.69 -0.59600002 137 0 0
1.625 -0.68699998 -0.59500003 139 0 0
1.632 -0.685 -0.59600002 150 16 0
1.636 -0.68199998 -0.59500003 134 0 0
1.647 -0.68099999 -0.597 150 0 0
1.649 -0.67799997 -0.59500003 150 0 0
1.659 -0.67699999 -0.59600002 150 0 0
1.666 -0.67500001 -0.597 133 0 0
1.669 -0.67199999 -0.59600002 107 0 0
1.673 -0.66799998 -0.59500003 102 0 0
1.681 -0.66600001 -0.59500003 100 0 0
1.684 -0.66299999 -0.59299999 94 0 0
1.688 -0.65899998 -0.59200001 2 0 0
1.691 -0.65600002 -0.59100002 108 0 0
1.702 -0.65499997 -0.59200001 111 0 0
1.706 -0.65200001 -0.59100002 1 0 0
1.7130001 -0.64999998 -0.59100002 125 0 0
1.717 -0.64600003 -0.58899999 2 0 0
1.73 -0.64600003 -0.59100002 2 0 0
1.734 -0.64200002 -0.58999997 2 0 0
1.742 -0.63999999 -0.58899999 2 0 0
1.745 -0.63599998 -0.588 2 0 0
1.7539999 -0.634 -0.588 2 0 0
1.758 -0.63099998 -0.58600003 2 0 0
1.768 -0.62900001 -0.58600003 2 0 0
1.774 -0.62599999 -0.58499998 2 0 0
1.777 -0.62199998 -0.583 150 16 0
1.791 -0.62199998 -0.58499998 150 16 0
1.794 -0.61799997 -0.583 150 16 0
1.801 -0.61500001 -0.58200002 150 16 0
1.8049999 -0.611 -0.57999998 2 0 0
1.812 -0.60900003 -0.579 150 16 0
1.823 -0.60699999 -0.579 150 16 0
1.829 -0.60399997 -0.57800001 150 16 0
1.832 -0.59899998 -0.57499999 150 16 0
1.846 -0.59899998 -0.57599998 150 16 0
1.853 -0.59600002 -0.57499999 150 16 0
1.855 -0.59100002 -0.57200003 150 16 0
1.857 -0.58700001 -0.56900001 150 16 0
1.869 -0.58499998 -0.56900001 150 16 0
1.876 -0.58200002 -0.56800002 150 16 0
1.883 -0.579 -0.56599998 150 16 0
1.899 -0.57800001 -0.56699997 150 16 0
1.903 -0.574 -0.565 150 16 0
1.911 -0.57099998 -0.56300002 150 16 0
1.918 -0.56800002 -0.56199998 150 16 0
1.928 -0.56599998 -0.56099999 150 16 0
1.932 -0.56199998 -0.55800003 149 16 0
1.942 -0.55900002 -0.55699998 150 16 0
1.946 -0.55500001 -0.55400002 150 16 0
1.955 -0.55199999 -0.55299997 150 16 0
1.964 -0.54900002 -0.551 150 16 0
1.97 -0.546 -0.54900002 150 16 0
1.978 -0.54299998 -0.54799998 120 16 0
1.9859999 -0.53899997 -0.546 121 16 0
1.998 -0.537 -0.54500002 135 16 0
2.003 -0.53299999 -0.542 125 16 0
2.0120001 -0.52999997 -0.54000002 117 16 0
2.0239999 -0.528 -0.53899997 117 16 0
2.029 -0.52399999 -0.53600001 121 16 0
2.0380001 -0.51999998 -0.53399998 104 16 0
2.0450001 -0.51700002 -0.53200001 106 16 0
2.05 -0.51300001 -0.52899998 112 16 0
2.0639999 -0.51099998 -0.528 124 16 0
2.072 -0.50700003 -0.52600002 114 16 0
2.0810001 -0.50400001 -0.52399999 112 16 0
2.092 -0.50099999 -0.52200001 105 16 0
2.099 -0.49700001 -0.51899999 106 16 0
2.102 -0.49200001 -0.51499999 104 16 0
2.1210001 -0.491 -0.51499999 107 16 0
2.1300001 -0.48800001 -0.51300001 105 16 0
2.1389999 -0.484 -0.50999999 99 16 0
2.1470001 -0.47999999 -0.50800002 91 16 0
2.155 -0.477 -0.505 91 16 0
2.164 -0.47299999 -0.50199997 86 16 0
2.175 -0.47 -0.5 87 16 0
2.1849999 -0.46599999 -0.49700001 75 16 0
2.1930001 -0.463 -0.49399999 75 16 0
2.2030001 -0.45899999 -0.49200001 77 16 0
2.211 -0.45500001 -0.48899999 87 16 0
2.22 -0.45100001 -0.486 75 16 0
2.2290001 -0.447 -0.48300001 60 16 0
2.2390001 -0.44400001 -0.47999999 71 16 0
2.2479999 -0.44 -0.477 70 16 0
2.257 -0.43599999 -0.47299999 68 16 0
2.2709999 -0.433 -0.47099999 66 16 0
2.279 -0.42899999 -0.46799999 68 16 0
2.2909999 -0.426 -0.465 67 16 0
2.299 -0.421 -0.461 67 16 0
2.306 -0.417 -0.45699999 57 16 0
2.3180001 -0.41299999 -0.45500001 56 16 0
2.3310001 -0.41 -0.45199999 56 16 0
2.3410001 -0.40599999 -0.449 52 16 0
2.3499999 -0.40200001 -0.44499999 66 16 0
2.3559999 -0.39700001 -0.44 56 16 0
2.3740001 -0.39399999 -0.43799999 67 16 0
2.3889999 -0.391 -0.43599999 56 16 0
2.391 -0.38600001 -0.43099999 60 16 0
2.401 -0.38100001 -0.42699999 45 16 0
2.418 -0.37799999 -0.42399999 44 16 0
2.4289999 -0.37400001 -0.41999999 45 16 0
2.4360001 -0.36899999 -0.41600001 46 16 0
2.4430001 -0.36500001 -0.41100001 39 16 0
2.4549999 -0.361 -0.40799999 44 16 0
2.467 -0.35699999 -0.40400001 41 16 0
2.48 -0.35299999 -0.40000001 39 16 0
2.49 -0.34799999 -0.396 42 16 0
2.503 -0.34400001 -0.39199999 32 16 0
2.5139999 -0.34 -0.38800001 33 16 0
2.5250001 -0.336 -0.384 32 16 0
2.5339999 -0.331 -0.37900001 34 16 0
2.5409999 -0.32600001 -0.37400001 32 16 0
2.5610001 -0.32300001 -0.37099999 33 16 0
2.569 -0.31799999 -0.366 32 16 0
2.585 -0.31400001 -0.36199999 32 16 0
2.5929999 -0.30899999 -0.35699999 33 16 0
2.6070001 -0.30399999 -0.35299999 33 16 0
2.6170001 -0.30000001 -0.34799999 32 16 0
2.632 -0.29499999 -0.34400001 33 16 0
2.642 -0.29100001 -0.33899999 31 16 0
2.6570001 -0.28600001 -0.33399999 33 16 0
2.668 -0.28099999 -0.329 32 16 0
2.681 -0.27700001 -0.32499999 33 16 0
2.6949999 -0.27200001 -0.31999999 31 16 0
2.7060001 -0.26699999 -0.315 32 16 0
2.717 -0.26199999 -0.30899999 31 16 0
2.724 -0.257 -0.303 29 16 0
2.7360001 -0.252 -0.29800001 31 16 0
2.7520001 -0.24699999 -0.29300001 31 16 0
2.763 -0.242 -0.28799999 31 16 0
2.7780001 -0.237 -0.28299999 30 16 0
2.789 -0.23199999 -0.27700001 30 16 0
2.8010001 -0.227 -0.271 31 16 0
2.8139999 -0.222 -0.266 30 16 0
2.8340001 -0.21699999 -0.26100001 30 16 0
2.8410001 -0.212 -0.25400001 30 16 0
2.858 -0.207 -0.249 31 16 0
2.869 -0.20100001 -0.243 30 16 0
2.8840001 -0.19599999 -0.237 31 16 0
2.8989999 -0.191 -0.23100001 30 16 0
2.9130001 -0.186 -0.22499999 29 16 0
2.9349999 -0.18099999 -0.22 30 16 0
2.944 -0.175 -0.213 29 16 0
2.9549999 -0.169 -0.207 29 16 0
2.9749999 -0.164 -0.20100001 27 16 0
2.9890001 -0.15899999 -0.19400001 27 16 0
3.003 -0.153 -0.18799999 27 16 0
3.0220001 -0.148 -0.182 28 16 0
3.0439999 -0.14300001 -0.175 29 16 0
3.056 -0.13699999 -0.169 28 16 0
3.0680001 -0.131 -0.162 28 16 0
3.0880001 -0.125 -0.155 28 16 0
3.099 -0.119 -0.148 28 16 0
3.1210001 -0.114 -0.141 29 16 0
3.135 -0.108 -0.134 29 16 0
3.148 -0.101 -0.127 29 16 0
3.1670001 -0.096000001 -0.119 30 16 0
3.1860001 -0.090000004 -0.112 30 16 0
3.198 -0.082999997 -0.105 30 16 0
3.2160001 -0.077 -0.097000003 34 16 0
3.237 -0.071000002 -0.089000002 86 16 0
3.237 -0.064000003 -0.081 150 16 0
3.237 -0.057999998 -0.072999999 150 16 0
3.24 -0.050999999 -0.064999998 150 16 0
3.237 -0.045000002 -0.057 150 16 0
3.243 -0.037999999 -0.048999999 150 16 0
3.2379999 -0.032000002 -0.039999999 150 16 0
3.2379999 -0.025 -0.032000002 150 16 0
3.2390001 -0.018999999 -0.024 62 16 0
3.2409999 -0.012 -0.016000001 28 16 0
3.2620001 -0.0060000001 -0.0070000002 19 16 0
3.279 0 0 19 16 0
3.296 0.0060000001 0.0080000004 20 16 0
3.313 0.013 0.017000001 20 16 0
3.3299999 0.02 0.025 23 16 0
3.3469999 0.026000001 0.034000002 43 16 0
3.3510001 0.033 0.043000001 107 16 0
3.3529999 0.039999999 0.050999999 43 16 0
3.3499999 0.046 0.059999999 11 16 0
3.2939999 0.052000001 0.067000002 7 18 0
3.306 0.057999998 0.075999998 16 16 0
3.3280001 0.064999998 0.085000001 18 16 0
3.329 0.071999997 0.093999997 35 16 0
3.3110001 0.078000002 0.102 34 16 0
3.2880001 0.083999999 0.11 32 16 0
3.2709999 0.090000004 0.118 35 16 0
3.256 0.094999999 0.126 52 16 0
3.2449999 0.101 0.134 150 16 0
3.25 0.108 0.14300001 150 16 0
3.2490001 0.114 0.15099999 150 16 0
3.2479999 0.12 0.15899999 150 16 0
3.25 0.126 0.168 150 16 0
3.253 0.133 0.177 150 16 0
3.253 0.139 0.185 150 16 0
3.2490001 0.145 0.19400001 150 16 0
3.2520001 0.15099999 0.20200001 150 16 0
3.253 0.15700001 0.211 150 16 0
3.2249999 0.162 0.21799999 150 16 0
3.128 0.163 0.22 94 16 0
3.003 0.162 0.219 24 16 0
3.0929999 0.17299999 0.233 76 16 0
3.198 0.185 0.25 150 16 0
3.2539999 0.19400001 0.26300001 150 16 0
3.253 0.2 0.27200001 150 16 0
3.2520001 0.206 0.28 150 16 0
3.256 0.212 0.289 150 16 0
3.2590001 0.21799999 0.29800001 150 16 0
3.2590001 0.22499999 0.30700001 150 16 0
3.2620001 0.23100001 0.31600001 150 16 0
3.2579999 0.236 0.32499999 150 16 0
3.2609999 0.243 0.33399999 150 16 0
3.2639999 0.249 0.34299999 150 16 0
3.263 0.255 0.352 150 16 0
3.2620001 0.25999999 0.361 150 16 0
3.2639999 0.26699999 0.37 150 16 0
3.2620001 0.27200001 0.37799999 150 16 0
3.2639999 0.278 0.38699999 150 16 0
3.257 0.28400001 0.396 74 16 0
3.234 0.287 0.40200001 44 16 0
3.221 0.292 0.40900001 44 16 0
3.2090001 0.29699999 0.41600001 44 16 0
3.191 0.301 0.42300001 45 16 0
3.1760001 0.30500001 0.43000001 43 16 0
3.161 0.30899999 0.43599999 45 16 0
3.1459999 0.31299999 0.44299999 43 16 0
3.131 0.317 0.44999999 45 16 0
3.115 0.32100001 0.456 46 16 0
3.0969999 0.32499999 0.46200001 40 16 0
3.0829999 0.32800001 0.46799999 41 16 0
3.0680001 0.33199999 0.47499999 42 16 0
3.0539999 0.336 0.48100001 41 16 0
3.0420001 0.34 0.48800001 43 16 0
3.029 0.34400001 0.49399999 45 16 0
