# .PCD v0.7 - Point Cloud Data file format
VERSION 0.7
FIELDS x y z intensity tag line
SIZE 4 4 4 4 1 1
TYPE F F F F U U
COUNT 1 1 1 1 1 1
WIDTH 1348
HEIGHT 1
VIEWPOINT 0 0 0 1 0 0 0
POINTS 1348
DATA ascii
2.3139999 1.226 0.792 52 16 0
2.3069999 1.226 0.79500002 61 16 0
2.2980001 1.224 0.79699999 61 16 0
2.296 1.226 0.80199999 59 16 0
2.286 1.224 0.80299997 55 16 0
2.2809999 1.224 0.80699998 52 16 0
2.2720001 1.222 0.80900002 58 16 0
2.2679999 1.222 0.81199998 55 16 0
2.2609999 1.221 0.815 55 16 0
2.257 1.221 0.81800002 52 16 0
2.2490001 1.22 0.82099998 50 16 0
2.2390001 1.217 0.82200003 49 16 0
2.233 1.216 0.82499999 58 16 0
2.23 1.216 0.82800001 56 16 0
2.2190001 1.212 0.829 57 16 0
2.2160001 1.2130001 0.833 60 16 0
2.21 1.211 0.83499998 66 16 0
2.2049999 1.21 0.838 69 16 0
2.1989999 1.209 0.83999997 67 16 0
2.1930001 1.207 0.84200001 67 16 0
2.1860001 1.205 0.84399998 67 16 0
2.1849999 1.205 0.84799999 66 16 0
2.1789999 1.2029999 0.85000002 69 16 0
2.1719999 1.201 0.852 68 16 0
2.171 1.201 0.85500002 72 16 0
2.1630001 1.197 0.85699999 70 16 0
2.1600001 1.197 0.85900003 79 16 0
2.155 1.1950001 0.86199999 69 16 0
2.148 1.191 0.86299998 61 16 0
2.1429999 1.1900001 0.86500001 46 16 0
2.142 1.189 0.86900002 28 16 0
2.138 1.188 0.87099999 20 16 0
2.1300001 1.184 0.87199998 14 16 0
2.122 1.179 0.87199998 9 16 0
2.1110001 1.173 0.87099999 5 16 0
2.105 1.17 0.87199998 5 16 0
2.1029999 1.169 0.875 5 16 0
2.098 1.166 0.87599999 10 16 0
2.1029999 1.168 0.88200003 15 16 0
2.0999999 1.1670001 0.884 21 16 0
2.095 1.163 0.88499999 31 16 0
2.0910001 1.161 0.88700002 42 16 0
2.0899999 1.159 0.88999999 73 16 0
2.082 1.154 0.889 88 19 0
2.082 1.154 0.89300001 93 16 0
2.079 1.151 0.89399999 98 16 0
2.079 1.15 0.89700001 90 16 0
2.073 1.145 0.89700001 86 16 0
2.072 1.1440001 0.89999998 87 16 0
2.069 1.141 0.90100002 83 16 0
2.062 1.135 0.90100002 91 16 0
2.0639999 1.135 0.90399998 94 16 0
2.0599999 1.131 0.90499997 91 16 0
2.0550001 1.127 0.90499997 91 16 0
2.0550001 1.125 0.90700001 95 16 0
2.053 1.123 0.90899998 94 16 0
2.052 1.12 0.91100001 96 16 0
2.0469999 1.1160001 0.91100001 91 16 0
2.043 1.1109999 0.91100001 91 16 0
2.0420001 1.108 0.912 90 16 0
2.0409999 1.1059999 0.91399997 93 16 0
2.04 1.103 0.91500002 92 16 0
2.0380001 1.099 0.91600001 98 16 0
2.0369999 1.096 0.917 100 16 0
2.036 1.0930001 0.91900003 100 16 0
2.0350001 1.09 0.92000002 109 16 0
2.0369999 1.089 0.92199999 105 16 0
2.0280001 1.081 0.91900003 111 19 0
2.0309999 1.08 0.92199999 107 16 0
2.0239999 1.073 0.92000002 106 19 0
2.0239999 1.0700001 0.921 103 16 0
2.0250001 1.068 0.92299998 110 16 0
2.0209999 1.062 0.92199999 110 16 0
2.0220001 1.059 0.92299998 103 16 0
2.02 1.0549999 0.92299998 102 16 0
2.0209999 1.052 0.92400002 105 16 0
2.0220001 1.05 0.92500001 109 16 0
2.0209999 1.045 0.92500001 109 16 0
2.0179999 1.04 0.92500001 113 16 0
2.0179999 1.0369999 0.92500001 107 16 0
2.0190001 1.034 0.926 104 16 0
2.0190001 1.03 0.926 115 16 0
2.0179999 1.026 0.926 105 16 0
2.016 1.02 0.92500001 107 16 0
2.017 1.017 0.926 104 16 0
2.0179999 1.013 0.926 106 16 0
2.02 1.01 0.92699999 115 16 0
2.017 1.005 0.92500001 124 16 0
2.016 1 0.92500001 96 16 0
2.0139999 0.995 0.92400002 95 16 0
2.0179999 0.99299997 0.92500001 93 16 0
2.02 0.98900002 0.92500001 95 16 0
2.02 0.98500001 0.92500001 101 16 0
2.02 0.98000002 0.92400002 101 16 0
2.02 0.97600001 0.92299998 110 16 0
2.0250001 0.97399998 0.92500001 102 16 0
2.023 0.96799999 0.92299998 101 16 0
2.026 0.96499997 0.92299998 104 16 0
2.027 0.96100003 0.92299998 105 16 0
2.027 0.95599997 0.92199999 114 16 0
2.027 0.95099998 0.921 110 16 0
2.03 0.94800001 0.921 108 16 0
2.0309999 0.94300002 0.92000002 112 16 0
2.0320001 0.93900001 0.91900003 112 16 0
2.0369999 0.93599999 0.92000002 120 16 0
2.0339999 0.93000001 0.917 122 16 0
2.039 0.92699999 0.91799998 118 16 0
2.04 0.92199999 0.917 116 16 0
2.043 0.91900003 0.91600001 112 16 0
2.0439999 0.91399997 0.91500002 108 16 0
2.049 0.91100001 0.91500002 122 16 0
2.0510001 0.90700001 0.91399997 124 16 0
2.0469999 0.89999998 0.91100001 117 16 0
2.052 0.89700001 0.91100001 126 16 0
2.0550001 0.89300001 0.91000003 128 16 0
2.056 0.88800001 0.90799999 125 16 0
2.0639999 0.88599998 0.91000003 123 16 0
2.0650001 0.88099998 0.90799999 127 16 0
2.0680001 0.87699997 0.90700001 127 16 0
2.0710001 0.87300003 0.90600002 131 16 0
2.0739999 0.86799997 0.90399998 125 16 0
2.0739999 0.86299998 0.90200001 127 16 0
2.079 0.86000001 0.90100002 132 16 0
2.086 0.85699999 0.90100002 140 16 0
2.082 0.85000002 0.89700001 130 16 0
2.089 0.847 0.89700001 135 16 0
2.092 0.84299999 0.89600003 121 16 0
2.095 0.838 0.89399999 121 16 0
2.098 0.83399999 0.89300001 126 16 0
2.1029999 0.82999998 0.89200002 123 16 0
2.1040001 0.82499999 0.889 115 16 0
2.108 0.82099998 0.88800001 124 16 0
2.112 0.81599998 0.88599998 123 16 0
2.115 0.81199998 0.884 127 16 0
2.122 0.80900002 0.884 126 16 0
2.125 0.80400002 0.88200003 127 16 0
2.128 0.80000001 0.87900001 128 16 0
2.1340001 0.796 0.87800002 124 16 0
2.1340001 0.79000002 0.875 121 16 0
2.1440001 0.78799999 0.875 124 16 0
2.1470001 0.78299999 0.87300003 119 16 0
2.152 0.77999997 0.87099999 121 16 0
2.154 0.77399999 0.86799997 122 16 0
2.1589999 0.76999998 0.866 129 16 0
2.161 0.76499999 0.86400002 120 16 0
2.1670001 0.76099998 0.86199999 125 16 0
2.175 0.75800002 0.861 125 16 0
2.1819999 0.755 0.86000001 132 16 0
2.1830001 0.74900001 0.85600001 125 16 0
2.1849999 0.74400002 0.85299999 128 16 0
2.197 0.74199998 0.85399997 124 16 0
2.198 0.73699999 0.85000002 103 16 0
2.204 0.73299998 0.84799999 125 16 0
2.211 0.72899997 0.84600002 132 16 0
2.214 0.72399998 0.84299999 120 16 0
2.224 0.72100002 0.84299999 131 16 0
2.227 0.71600002 0.83899999 127 16 0
2.234 0.713 0.838 125 16 0
2.24 0.70899999 0.83499998 129 16 0
2.243 0.704 0.83200002 117 16 0
2.2460001 0.699 0.82800001 115 16 0
2.2539999 0.69499999 0.82700002 115 16 0
2.26 0.69099998 0.824 118 16 0
2.263 0.68599999 0.82099998 112 16 0
2.2720001 0.68300003 0.81900001 135 16 0
2.2780001 0.67900002 0.81599998 126 16 0
2.2809999 0.67299998 0.81199998 119 16 0
2.2880001 0.66900003 0.81 125 16 0
2.2950001 0.66600001 0.80800003 119 16 0
2.3010001 0.66100001 0.80500001 118 16 0
2.306 0.65700001 0.80199999 111 16 0
2.3139999 0.653 0.79900002 116 16 0
2.3210001 0.64899999 0.79699999 102 16 0
2.325 0.64399999 0.79299998 112 16 0
2.332 0.63999999 0.79000002 51 16 0
2.3380001 0.63599998 0.787 9 16 0
2.402 0.64700001 0.80299997 2 17 0
2.425 0.64700001 0.80500001 2 16 0
2.4400001 0.64499998 0.80500001 2 16 0
2.4649999 0.64499998 0.80699998 4 16 0
2.4749999 0.64099997 0.80500001 20 16 0
2.4749999 0.63499999 0.79900002 40 16 0
2.48 0.63 0.79500002 14 16 0
2.4349999 0.61299998 0.77499998 4 17 0
2.4089999 0.60000002 0.76099998 13 16 0
2.4189999 0.59600002 0.759 33 16 0
2.4289999 0.59299999 0.75599998 86 16 0
2.4319999 0.588 0.75099999 96 16 0
2.438 0.583 0.74699998 89 16 0
2.447 0.579 0.74400002 93 16 0
2.451 0.574 0.74000001 82 16 0
2.4619999 0.57099998 0.73699999 81 16 0
2.467 0.56599998 0.73299998 88 16 0
2.473 0.56099999 0.72899997 90 16 0
2.4820001 0.55699998 0.72600001 87 16 0
2.493 0.55400002 0.72299999 90 16 0
2.5020001 0.54900002 0.71899998 83 16 0
2.5109999 0.546 0.71600002 84 16 0
2.5179999 0.54100001 0.71200001 80 16 0
2.5239999 0.53600001 0.70700002 76 16 0
2.5369999 0.53299999 0.70499998 85 16 0
2.5409999 0.528 0.69999999 78 16 0
2.559 0.52600002 0.69800001 84 16 0
2.569 0.52200001 0.69499999 77 16 0
2.575 0.51700002 0.69 69 16 0
2.5829999 0.51200002 0.68599999 73 16 0
2.592 0.50800002 0.68199998 70 16 0
2.6029999 0.50400001 0.67799997 73 16 0
2.6099999 0.5 0.67400002 66 16 0
2.6210001 0.49599999 0.67000002 69 16 0
2.628 0.491 0.66500002 56 16 0
2.638 0.48699999 0.66100001 58 16 0
2.645 0.48199999 0.65600002 69 16 0
2.654 0.47799999 0.65200001 66 16 0
2.6630001 0.47299999 0.64700001 63 16 0
2.678 0.47 0.64399999 59 16 0
2.684 0.465 0.639 62 16 0
2.6919999 0.46000001 0.634 57 16 0
2.707 0.45699999 0.63099998 40 16 0
2.721 0.45300001 0.62699997 39 16 0
2.7290001 0.44800001 0.62199998 38 16 0
2.7390001 0.44400001 0.61699998 37 16 0
2.743 0.43900001 0.611 40 16 0
2.757 0.435 0.60699999 38 16 0
2.7690001 0.43099999 0.60299999 40 16 0
2.7850001 0.42699999 0.59899998 38 16 0
2.793 0.42199999 0.59399998 40 16 0
2.8039999 0.41800001 0.58899999 37 16 0
2.819 0.414 0.58499998 37 16 0
2.8239999 0.40900001 0.579 38 16 0
2.8369999 0.405 0.574 35 16 0
2.8540001 0.40099999 0.56999999 36 16 0
2.858 0.396 0.56300002 35 16 0
2.869 0.391 0.55800003 34 16 0
2.8870001 0.38699999 0.55400002 35 16 0
2.898 0.38299999 0.54900002 37 16 0
2.9130001 0.37900001 0.54400003 34 16 0
2.918 0.373 0.537 36 16 0
2.931 0.36899999 0.53200001 34 16 0
2.951 0.36500001 0.528 35 16 0
2.9630001 0.361 0.523 36 16 0
2.9749999 0.35600001 0.51700002 34 16 0
2.99 0.352 0.51200002 34 16 0
3 0.347 0.50599998 34 16 0
3.0139999 0.34200001 0.5 33 16 0
3.029 0.338 0.495 35 16 0
3.0469999 0.33399999 0.49000001 34 16 0
3.052 0.32800001 0.48199999 34 16 0
3.063 0.32300001 0.47600001 33 16 0
3.085 0.31900001 0.47099999 34 16 0
3.098 0.31400001 0.465 34 16 0
3.109 0.30899999 0.45899999 34 16 0
3.1229999 0.30399999 0.45300001 35 16 0
3.1400001 0.30000001 0.447 34 16 0
3.158 0.296 0.44100001 34 16 0
3.174 0.29100001 0.435 36 16 0
3.1819999 0.285 0.42699999 36 16 0
3.1930001 0.28 0.41999999 35 16 0
3.2160001 0.27599999 0.41499999 36 16 0
3.227 0.271 0.40799999 35 16 0
3.2420001 0.266 0.40099999 36 16 0
3.2579999 0.26100001 0.39399999 46 16 0
3.273 0.25600001 0.38800001 149 16 0
3.2690001 0.249 0.37900001 141 16 0
3.273 0.243 0.37 139 16 0
3.2690001 0.237 0.361 111 16 0
3.266 0.23 0.352 112 16 0
3.2720001 0.22400001 0.34400001 114 16 0
3.2679999 0.21799999 0.33500001 104 16 0
3.2639999 0.212 0.32600001 124 16 0
3.2679999 0.206 0.317 141 16 0
3.2620001 0.199 0.308 118 16 0
3.267 0.19400001 0.30000001 131 16 0
3.263 0.18700001 0.29100001 121 16 0
3.26 0.18099999 0.28099999 142 16 0
3.184 0.171 0.266 150 17 0
3.073 0.15899999 0.249 119 18 0
3.0350001 0.152 0.23800001 105 16 0
3.138 0.15099999 0.237 150 16 0
3.2449999 0.15099999 0.236 136 16 0
3.2550001 0.145 0.228 123 16 0
3.256 0.139 0.22 128 16 0
3.257 0.134 0.211 125 16 0
3.2579999 0.12800001 0.20200001 119 16 0
3.2550001 0.122 0.193 120 16 0
3.2539999 0.116 0.184 123 16 0
3.253 0.11 0.175 126 16 0
3.2539999 0.104 0.16599999 119 16 0
3.253 0.098999999 0.15800001 130 16 0
3.2490001 0.093000002 0.148 118 16 0
3.2509999 0.086999997 0.14 133 16 0
3.2509999 0.081 0.131 72 16 0
3.2639999 0.075999998 0.122 35 16 0
3.2820001 0.071000002 0.114 28 16 0
3.3069999 0.066 0.106 29 16 0
3.322 0.059999999 0.097000003 30 16 0
3.3150001 0.054000001 0.088 19 16 0
3.299 0.048 0.079000004 7 16 0
3.348 0.043000001 0.071000002 9 18 0
3.3529999 0.037999999 0.061999999 26 16 0
3.3529999 0.032000002 0.052000001 56 16 0
3.349 0.026000001 0.043000001 46 16 0
3.3399999 0.02 0.034000002 25 16 0
3.316 0.015 0.024 19 16 0
3.302 0.0089999996 0.015 17 16 0
3.2869999 0.003 0.0060000001 17 16 0
3.2739999 -0.001 -0.0020000001 17 16 0
3.253 -0.0070000002 -0.011 16 16 0
3.2390001 -0.012 -0.02 20 16 0
3.23 -0.017000001 -0.028999999 30 16 0
3.2309999 -0.023 -0.037999999 52 16 0
3.2219999 -0.028000001 -0.046999998 87 16 0
3.2219999 -0.033 -0.056000002 109 16 0
3.2260001 -0.039000001 -0.064999998 97 16 0
3.221 -0.044 -0.074000001 105 16 0
3.223 -0.048999999 -0.082999997 106 16 0
3.223 -0.054000001 -0.092 120 16 0
3.2219999 -0.059999999 -0.101 136 16 0
3.22 -0.064999998 -0.11 150 16 0
3.2130001 -0.07 -0.119 93 16 0
3.211 -0.075000003 -0.12800001 43 16 0
3.198 -0.079999998 -0.13600001 27 16 0
3.1789999 -0.085000001 -0.14399999 25 16 0
3.1630001 -0.089000002 -0.153 25 16 0
3.155 -0.093999997 -0.161 25 16 0
3.1389999 -0.097999997 -0.169 25 16 0
3.1229999 -0.103 -0.177 24 16 0
3.1099999 -0.107 -0.185 24 16 0
3.096 -0.112 -0.193 24 16 0
3.0810001 -0.116 -0.20100001 22 16 0
3.0699999 -0.12 -0.20900001 24 16 0
3.0569999 -0.125 -0.21699999 23 16 0
3.0420001 -0.12899999 -0.22400001 24 16 0
3.0350001 -0.133 -0.23199999 24 16 0
3.0190001 -0.13699999 -0.23999999 24 16 0
2.9990001 -0.141 -0.24699999 24 16 0
2.9920001 -0.145 -0.255 24 16 0
2.977 -0.149 -0.26199999 23 16 0
2.9679999 -0.153 -0.27000001 23 16 0
2.9579999 -0.15700001 -0.278 23 16 0
2.944 -0.161 -0.285 23 16 0
2.934 -0.16500001 -0.292 24 16 0
2.9230001 -0.169 -0.30000001 23 16 0
2.9030001 -0.17200001 -0.30599999 24 16 0
2.8929999 -0.176 -0.31299999 23 16 0
2.885 -0.17900001 -0.32100001 25 16 0
2.8759999 -0.183 -0.32800001 24 16 0
2.8659999 -0.18700001 -0.33500001 23 16 0
2.8529999 -0.19 -0.34200001 23 16 0
2.842 -0.19400001 -0.34900001 24 16 0
2.8299999 -0.197 -0.35600001 23 16 0
2.8239999 -0.20100001 -0.36399999 23 16 0
2.809 -0.204 -0.37 23 16 0
2.7969999 -0.207 -0.37599999 24 16 0
2.79 -0.211 -0.384 24 16 0
2.78 -0.214 -0.391 26 16 0
2.7709999 -0.21699999 -0.39700001 26 16 0
2.7609999 -0.22 -0.40400001 26 16 0
2.7509999 -0.223 -0.41100001 25 16 0
2.743 -0.227 -0.41800001 26 16 0
2.7349999 -0.23 -0.42500001 27 16 0
2.7160001 -0.23199999 -0.43000001 26 16 0
2.7130001 -0.236 -0.43799999 27 16 0
2.704 -0.23899999 -0.44400001 26 16 0
2.6960001 -0.242 -0.45100001 27 16 0
2.6930001 -0.245 -0.458 28 16 0
2.6849999 -0.248 -0.465 27 16 0
2.675 -0.25099999 -0.47099999 26 16 0
2.664 -0.25400001 -0.47799999 27 16 0
2.655 -0.257 -0.484 26 16 0
2.6459999 -0.259 -0.49000001 26 16 0
2.6340001 -0.26199999 -0.49599999 26 16 0
2.6329999 -0.26499999 -0.50400001 26 16 0
2.6170001 -0.26699999 -0.509 28 16 0
2.6040001 -0.26899999 -0.514 29 16 0
2.5999999 -0.27200001 -0.52100003 30 16 0
2.5899999 -0.27500001 -0.52700001 28 16 0
2.586 -0.278 -0.53399998 29 16 0
2.5769999 -0.28 -0.54000002 29 16 0
2.569 -0.28299999 -0.546 28 16 0
2.5610001 -0.285 -0.55299997 28 16 0
2.5569999 -0.28799999 -0.56 29 16 0
2.546 -0.28999999 -0.565 28 16 0
2.5369999 -0.292 -0.57099998 29 16 0
2.5320001 -0.29499999 -0.57700002 28 16 0
2.5220001 -0.29699999 -0.583 29 16 0
2.5190001 -0.30000001 -0.58999997 29 16 0
2.51 -0.30199999 -0.59600002 29 16 0
2.497 -0.30399999 -0.60100001 28 16 0
2.49 -0.30599999 -0.60699999 26 16 0
2.4860001 -0.30899999 -0.61299998 29 16 0
2.4779999 -0.31099999 -0.61900002 29 16 0
2.4719999 -0.31299999 -0.625 28 16 0
2.4630001 -0.315 -0.63099998 30 16 0
2.454 -0.31600001 -0.63599998 28 16 0
2.451 -0.31900001 -0.64300001 29 16 0
2.437 -0.31999999 -0.64700001 30 16 0
2.434 -0.32300001 -0.65399998 30 16 0
2.4260001 -0.32499999 -0.66000003 28 16 0
2.421 -0.32699999 -0.66600001 29 16 0
2.415 -0.329 -0.67199999 42 16 0
2.4130001 -0.331 -0.67900002 45 16 0
2.4030001 -0.333 -0.68400002 50 16 0
2.4000001 -0.33500001 -0.69099998 49 16 0
2.3889999 -0.336 -0.69499999 47 16 0
2.3859999 -0.33899999 -0.70200002 49 16 0
2.3770001 -0.34 -0.70700002 47 16 0
2.3699999 -0.34200001 -0.71200001 46 16 0
2.3670001 -0.34400001 -0.71899998 50 16 0
2.3629999 -0.34599999 -0.72600001 52 16 0
2.3559999 -0.347 -0.73100001 48 16 0
2.3529999 -0.34900001 -0.73699999 47 16 0
2.3380001 -0.34999999 -0.74000001 47 16 0
2.339 -0.352 -0.74800003 51 16 0
2.3329999 -0.354 -0.75400001 53 16 0
2.325 -0.35499999 -0.759 54 16 0
2.322 -0.35699999 -0.76599997 56 16 0
2.3139999 -0.35800001 -0.76999998 58 16 0
2.309 -0.36000001 -0.77600002 55 16 0
2.306 -0.361 -0.78299999 58 16 0
2.2939999 -0.36199999 -0.78600001 49 16 0
2.2920001 -0.36399999 -0.79299998 53 16 0
2.289 -0.366 -0.79900002 51 16 0
2.2809999 -0.366 -0.80400002 51 16 0
2.277 -0.368 -0.81 49 16 0
2.2720001 -0.36899999 -0.81599998 49 16 0
2.2639999 -0.37 -0.81999999 57 16 0
2.2590001 -0.37099999 -0.82599998 53 16 0
2.253 -0.37200001 -0.83099997 47 16 0
2.2509999 -0.37400001 -0.838 41 16 0
2.2460001 -0.375 -0.84299999 38 16 0
2.24 -0.37599999 -0.84799999 44 16 0
2.2379999 -0.37799999 -0.85500002 45 16 0
2.23 -0.37799999 -0.85900003 46 16 0
2.2249999 -0.37900001 -0.86500001 44 16 0
2.221 -0.38 -0.87 47 16 0
2.2179999 -0.382 -0.87699997 48 16 0
2.2119999 -0.38299999 -0.88200003 51 16 0
2.2119999 -0.384 -0.889 49 16 0
2.2030001 -0.384 -0.89300001 51 16 0
2.2019999 -0.38600001 -0.89899999 49 16 0
2.1930001 -0.38600001 -0.903 48 16 0
2.191 -0.38699999 -0.90899998 48 16 0
2.1900001 -0.38800001 -0.91600001 57 16 0
2.184 -0.389 -0.921 54 16 0
2.178 -0.389 -0.926 77 16 0
2.175 -0.38999999 -0.93199998 93 16 0
2.168 -0.391 -0.93599999 96 16 0
2.168 -0.39199999 -0.94300002 91 16 0
2.165 -0.39300001 -0.949 96 16 0
2.1589999 -0.39300001 -0.95300001 96 16 0
2.154 -0.39300001 -0.958 86 16 0
2.151 -0.39399999 -0.96399999 94 16 0
2.1429999 -0.39399999 -0.96799999 90 16 0
2.148 -0.396 -0.977 89 16 0
2.142 -0.396 -0.98100001 90 16 0
2.135 -0.396 -0.98500001 83 16 0
2.131 -0.396 -0.99000001 88 16 0
2.128 -0.39700001 -0.99599999 88 16 0
2.1259999 -0.39700001 -1.002 85 16 0
2.1210001 -0.398 -1.006 87 16 0
2.1199999 -0.398 -1.013 82 16 0
2.1170001 -0.39899999 -1.0190001 86 16 0
2.1129999 -0.39899999 -1.023 88 16 0
2.112 -0.39899999 -1.03 88 16 0
2.109 -0.40000001 -1.035 87 16 0
2.105 -0.40000001 -1.04 80 16 0
2.102 -0.40000001 -1.045 86 16 0
2.1010001 -0.40000001 -1.052 81 16 0
2.098 -0.40000001 -1.057 82 16 0
2.0899999 -0.39899999 -1.0599999 82 16 0
2.0929999 -0.40000001 -1.068 81 16 0
2.0940001 -0.40099999 -1.075 85 16 0
2.0899999 -0.40099999 -1.08 82 16 0
2.0829999 -0.40000001 -1.082 79 16 0
2.085 -0.40099999 -1.09 80 16 0
2.0829999 -0.40099999 -1.096 81 16 0
2.082 -0.40099999 -1.102 81 16 0
2.079 -0.40099999 -1.107 82 16 0
2.0769999 -0.40099999 -1.112 75 16 0
2.075 -0.40000001 -1.117 82 16 0
2.0710001 -0.40000001 -1.122 72 16 0
2.0710001 -0.40000001 -1.128 74 16 0
2.0699999 -0.40000001 -1.1339999 84 16 0
2.066 -0.39899999 -1.138 76 16 0
2.0669999 -0.39899999 -1.145 70 16 0
2.066 -0.39899999 -1.15 72 16 0
2.0639999 -0.39899999 -1.155 76 16 0
2.062 -0.398 -1.16 71 16 0
2.062 -0.398 -1.166 67 16 0
2.0569999 -0.39700001 -1.17 73 16 0
2.0599999 -0.39700001 -1.177 65 16 0
2.0569999 -0.396 -1.182 80 16 0
2.0580001 -0.396 -1.188 79 16 0
2.0569999 -0.396 -1.194 80 16 0
2.0569999 -0.39500001 -1.2 83 16 0
2.0550001 -0.39399999 -1.204 78 16 0
2.056 -0.39399999 -1.21 77 16 0
2.0510001 -0.39300001 -1.2130001 75 16 0
2.053 -0.39199999 -1.22 75 16 0
2.053 -0.39199999 -1.226 73 16 0
2.053 -0.391 -1.2309999 71 16 0
2.0510001 -0.38999999 -1.235 66 16 0
2.0480001 -0.389 -1.239 64 16 0
2.0550001 -0.389 -1.249 69 16 0
2.053 -0.38800001 -1.253 67 16 0
2.0539999 -0.38699999 -1.258 72 16 0
2.05 -0.38499999 -1.261 68 16 0
2.052 -0.38499999 -1.267 64 16 0
2.0510001 -0.384 -1.272 64 16 0
2.0510001 -0.382 -1.277 81 16 0
2.05 -0.38100001 -1.281 62 16 0
2.052 -0.38 -1.2869999 73 16 0
2.0539999 -0.37900001 -1.293 79 16 0
2.053 -0.37799999 -1.298 71 16 0
2.0569999 -0.377 -1.3049999 71 16 0
2.056 -0.37599999 -1.309 87 16 0
2.059 -0.375 -1.3150001 87 16 0
2.0569999 -0.373 -1.318 86 16 0
2.0580001 -0.37200001 -1.323 91 16 0
2.059 -0.37 -1.3279999 83 16 0
2.0569999 -0.36899999 -1.331 84 16 0
2.0610001 -0.368 -1.3380001 79 16 0
2.059 -0.366 -1.341 84 16 0
2.0610001 -0.36399999 -1.346 81 16 0
2.069 -0.36399999 -1.355 78 16 0
2.0669999 -0.36199999 -1.357 74 16 0
2.069 -0.36000001 -1.362 72 16 0
2.0699999 -0.35800001 -1.367 73 16 0
2.0710001 -0.35699999 -1.3710001 77 16 0
2.073 -0.35499999 -1.376 79 16 0
2.073 -0.35299999 -1.3789999 72 16 0
2.073 -0.35100001 -1.382 70 16 0
2.079 -0.34999999 -1.39 70 16 0
2.0810001 -0.34799999 -1.3940001 70 16 0
2.0799999 -0.34599999 -1.396 70 16 0
2.082 -0.34400001 -1.4 68 16 0
2.0880001 -0.34200001 -1.4069999 76 16 0
2.0899999 -0.34 -1.411 61 16 0
2.092 -0.338 -1.415 56 16 0
2.0910001 -0.336 -1.4170001 58 16 0
2.098 -0.33500001 -1.424 55 16 0
2.0999999 -0.33199999 -1.428 60 16 0
2.1040001 -0.33000001 -1.432 56 16 0
2.1040001 -0.32800001 -1.434 52 16 0
2.1099999 -0.32600001 -1.441 52 16 0
2.1110001 -0.324 -1.443 53 16 0
2.118 -0.322 -1.449 56 19 0
2.119 -0.31999999 -1.452 59 16 0
2.122 -0.317 -1.455 52 16 0
2.1240001 -0.315 -1.459 51 16 0
2.1270001 -0.31299999 -1.462 48 16 0
2.1300001 -0.31 -1.465 48 16 0
2.131 -0.308 -1.467 46 16 0
2.135 -0.30500001 -1.47 48 16 0
2.1440001 -0.30399999 -1.477 48 16 0
2.1470001 -0.301 -1.48 49 16 0
2.152 -0.29899999 -1.484 47 16 0
2.1570001 -0.29699999 -1.488 50 16 0
2.155 -0.29300001 -1.488 41 16 0
2.1670001 -0.292 -1.4960001 44 18 0
2.168 -0.289 -1.497 42 16 0
2.168 -0.28600001 -1.497 38 16 0
2.178 -0.28400001 -1.5039999 41 19 0
2.187 -0.28200001 -1.51 41 16 0
2.187 -0.27900001 -1.51 40 16 0
2.191 -0.27599999 -1.512 36 16 0
2.198 -0.27399999 -1.516 42 16 0
2.201 -0.271 -1.517 38 16 0
2.207 -0.26800001 -1.52 43 16 0
2.214 -0.266 -1.525 43 16 0
2.217 -0.26300001 -1.526 42 16 0
2.224 -0.25999999 -1.529 42 16 0
2.227 -0.257 -1.53 41 16 0
2.2320001 -0.255 -1.5319999 36 16 0
2.234 -0.25099999 -1.5319999 37 16 0
2.2420001 -0.249 -1.536 37 16 0
2.2479999 -0.24600001 -1.538 38 16 0
2.2509999 -0.243 -1.538 37 16 0
2.257 -0.23999999 -1.54 37 16 0
2.2590001 -0.237 -1.54 39 16 0
2.2720001 -0.235 -1.546 38 19 0
2.277 -0.23199999 -1.5470001 38 16 0
2.2809999 -0.229 -1.548 38 16 0
2.2869999 -0.226 -1.549 38 16 0
2.2880001 -0.222 -1.5470001 36 16 0
2.2950001 -0.22 -1.549 37 16 0
2.3039999 -0.21699999 -1.552 37 16 0
2.3110001 -0.214 -1.554 39 16 0
2.316 -0.211 -1.553 37 16 0
2.3210001 -0.208 -1.553 38 16 0
2.3269999 -0.205 -1.554 41 16 0
2.3340001 -0.20200001 -1.5549999 43 16 0
2.3440001 -0.199 -1.558 40 16 0
2.348 -0.19599999 -1.557 43 16 0
2.3499999 -0.193 -1.5549999 40 16 0
2.359 -0.19 -1.556 40 16 0
2.368 -0.18799999 -1.558 40 16 0
2.372 -0.184 -1.557 40 16 0
2.378 -0.18099999 -1.557 39 16 0
2.3900001 -0.17900001 -1.5599999 40 16 0
2.3929999 -0.175 -1.557 40 16 0
2.4000001 -0.17200001 -1.557 40 16 0
2.408 -0.169 -1.558 41 16 0
2.4130001 -0.16599999 -1.5549999 40 16 0
2.4200001 -0.163 -1.5549999 42 16 0
2.431 -0.161 -1.557 46 16 0
2.4330001 -0.15700001 -1.553 42 16 0
2.4419999 -0.154 -1.554 41 16 0
2.45 -0.152 -1.554 41 16 0
2.4549999 -0.148 -1.551 42 16 0
2.4649999 -0.146 -1.552 42 16 0
2.47 -0.142 -1.549 43 16 0
2.4790001 -0.14 -1.549 41 16 0
2.4849999 -0.13699999 -1.5470001 39 16 0
2.49 -0.134 -1.544 42 16 0
2.4979999 -0.131 -1.543 43 16 0
2.5050001 -0.12800001 -1.541 43 16 0
2.52 -0.125 -1.544 43 16 0
2.5190001 -0.122 -1.5369999 42 16 0
2.53 -0.119 -1.5369999 43 16 0
2.5369999 -0.116 -1.535 44 16 0
2.5420001 -0.113 -1.5319999 42 16 0
2.549 -0.11 -1.529 43 16 0
2.5569999 -0.108 -1.527 44 16 0
2.5650001 -0.105 -1.525 44 16 0
2.5769999 -0.102 -1.525 45 16 0
2.5840001 -0.098999999 -1.522 59 16 0
2.589 -0.096000001 -1.517 94 16 0
2.5999999 -0.093999997 -1.517 150 16 0
2.6040001 -0.090999998 -1.512 150 16 0
2.6040001 -0.088 -1.5039999 150 16 0
2.6070001 -0.085000001 -1.499 150 16 0
2.609 -0.082000002 -1.493 150 16 0
2.6099999 -0.079000004 -1.485 150 16 0
2.612 -0.075999998 -1.479 150 16 0
2.6129999 -0.074000001 -1.472 150 16 0
2.6170001 -0.071000002 -1.466 150 16 0
2.6140001 -0.068000004 -1.457 150 16 0
2.6210001 -0.064999998 -1.4529999 150 16 0
2.619 -0.063000001 -1.444 150 16 0
2.622 -0.059999999 -1.438 150 16 0
2.6210001 -0.057 -1.429 150 16 0
2.625 -0.055 -1.423 150 16 0
2.628 -0.052000001 -1.4170001 150 16 0
2.6199999 -0.050000001 -1.405 150 16 0
2.6199999 -0.046999998 -1.396 150 16 0
2.6229999 -0.045000002 -1.39 150 16 0
2.632 -0.041999999 -1.386 150 16 0
2.635 -0.039999999 -1.38 147 16 0
2.6340001 -0.037999999 -1.3710001 60 16 0
2.645 -0.035999998 -1.368 42 16 0
2.6500001 -0.033 -1.363 35 16 0
2.6559999 -0.030999999 -1.357 31 16 0
2.668 -0.028999999 -1.355 27 16 0
2.6700001 -0.027000001 -1.347 28 16 0
2.678 -0.025 -1.342 29 16 0
2.684 -0.022 -1.337 29 16 0
2.6900001 -0.02 -1.331 28 16 0
2.694 -0.017999999 -1.324 23 16 0
2.701 -0.016000001 -1.319 23 16 0
2.71 -0.014 -1.3150001 24 16 0
2.714 -0.012 -1.307 24 16 0
2.7249999 -0.0099999998 -1.304 24 16 0
2.7290001 -0.0080000004 -1.2970001 24 16 0
2.737 -0.0060000001 -1.2920001 26 16 0
2.7409999 -0.0040000002 -1.285 26 16 0
2.7479999 -0.003 -1.279 28 16 0
2.753 -0.001 -1.272 31 16 0
2.7679999 0 -1.27 37 16 0
2.7750001 0.0020000001 -1.2640001 50 16 0
2.777 0.0040000002 -1.255 93 16 0
2.7869999 0.0049999999 -1.25 127 16 0
2.786 0.0070000002 -1.2410001 150 16 0
2.789 0.0089999996 -1.233 150 16 0
2.7920001 0.0099999998 -1.225 150 16 0
2.796 0.012 -1.217 150 16 0
2.7969999 0.013 -1.2079999 150 16 0
2.8 0.015 -1.2 150 16 0
2.802 0.016000001 -1.191 150 16 0
2.8050001 0.017999999 -1.183 150 16 0
2.803 0.018999999 -1.173 150 16 0
2.8110001 0.021 -1.1670001 150 16 0
2.809 0.022 -1.1569999 150 16 0
2.8139999 0.023 -1.149 150 16 0
2.816 0.025 -1.14 150 16 0
2.8180001 0.026000001 -1.131 150 16 0
2.8239999 0.027000001 -1.124 150 16 0
2.822 0.028999999 -1.114 150 16 0
2.829 0.029999999 -1.107 150 16 0
2.8310001 0.030999999 -1.098 150 16 0
2.8380001 0.032000002 -1.091 150 16 0
2.8399999 0.033 -1.0829999 139 16 0
2.845 0.034000002 -1.075 132 16 0
2.8440001 0.035 -1.0650001 114 16 0
2.8469999 0.035999998 -1.057 104 16 0
2.8570001 0.037 -1.05 107 16 0
2.8559999 0.037999999 -1.041 102 16 0
2.8599999 0.039000001 -1.0319999 95 16 0
2.8659999 0.039999999 -1.025 100 16 0
2.8659999 0.041000001 -1.015 94 16 0
2.875 0.041999999 -1.008 103 16 0
2.8759999 0.043000001 -0.99900001 103 16 0
2.8789999 0.044 -0.99000001 116 16 0
2.882 0.044 -0.98100001 106 16 0
2.8840001 0.045000002 -0.97299999 118 16 0
2.8870001 0.046 -0.96399999 109 16 0
2.8940001 0.046999998 -0.95599997 121 16 0
2.8970001 0.046999998 -0.94700003 130 16 0
2.901 0.048 -0.93900001 129 16 0
2.9030001 0.048999999 -0.93000001 136 16 0
2.9070001 0.048999999 -0.921 137 16 0
2.908 0.050000001 -0.912 137 16 0
2.915 0.050000001 -0.90399998 150 16 0
2.915 0.050999999 -0.89399999 150 16 0
2.9219999 0.050999999 -0.88599998 150 16 0
2.9230001 0.052000001 -0.87699997 150 16 0
2.927 0.052000001 -0.86799997 150 16 0
2.9300001 0.052999999 -0.85900003 150 16 0
2.9319999 0.052999999 -0.85000002 150 16 0
2.9419999 0.052999999 -0.84299999 150 16 0
2.9400001 0.054000001 -0.833 150 16 0
2.9400001 0.054000001 -0.82300001 129 16 0
2.9389999 0.054000001 -0.81199998 110 16 0
2.937 0.054000001 -0.80199999 92 16 0
2.9460001 0.055 -0.79400003 92 16 0
2.9489999 0.055 -0.78500003 134 16 0
2.9519999 0.055 -0.77600002 136 16 0
2.954 0.055 -0.76700002 147 16 0
2.957 0.055 -0.75800002 128 16 0
2.9760001 0.056000002 -0.75300002 150 16 0
2.98 0.056000002 -0.74400002 142 16 0
2.9849999 0.056000002 -0.73500001 143 16 0
2.994 0.056000002 -0.727 137 16 0
2.9920001 0.056000002 -0.71700001 126 16 0
2.9990001 0.056000002 -0.708 134 16 0
3.0020001 0.056000002 -0.699 132 16 0
3.0039999 0.056000002 -0.68900001 133 16 0
3.0090001 0.056000002 -0.68000001 150 16 0
3.0109999 0.056000002 -0.671 125 16 0
3.0179999 0.056000002 -0.66299999 133 16 0
3.0209999 0.056000002 -0.653 129 16 0
3.0220001 0.056000002 -0.64300001 121 16 0
3.033 0.055 -0.63599998 128 16 0
3.0350001 0.055 -0.62599999 121 16 0
3.046 0.055 -0.61799997 112 16 0
3.0439999 0.055 -0.60799998 113 16 0
3.05 0.055 -0.59899998 110 16 0
3.053 0.054000001 -0.58899999 95 16 0
3.056 0.054000001 -0.57999998 96 16 0
3.0610001 0.054000001 -0.56999999 88 16 0
3.0650001 0.052999999 -0.56099999 79 16 0
3.0710001 0.052999999 -0.55199999 89 16 0
3.079 0.052999999 -0.54299998 90 16 0
3.0810001 0.052000001 -0.53399998 79 16 0
3.0829999 0.052000001 -0.52399999 80 16 0
3.0869999 0.050999999 -0.514 85 16 0
3.0910001 0.050999999 -0.505 79 16 0
3.0969999 0.050000001 -0.49599999 76 16 0
3.098 0.050000001 -0.486 86 16 0
3.0999999 0.048999999 -0.47600001 72 16 0
3.1010001 0.048999999 -0.46599999 84 16 0
3.115 0.048 -0.458 88 16 0
3.1170001 0.048 -0.44800001 81 16 0
3.1210001 0.046999998 -0.43799999 88 16 0
3.132 0.046 -0.42899999 82 16 0
3.132 0.046 -0.419 90 16 0
3.1359999 0.045000002 -0.41 99 16 0
3.142 0.044 -0.40000001 123 16 0
3.1429999 0.044 -0.38999999 135 16 0
3.1489999 0.043000001 -0.38 129 16 0
3.1500001 0.041999999 -0.37 150 16 0
3.161 0.041000001 -0.361 150 16 0
3.1619999 0.039999999 -0.35100001 147 16 0
3.1659999 0.039999999 -0.34099999 147 16 0
3.1730001 0.039000001 -0.33199999 136 16 0
3.181 0.037999999 -0.322 140 16 0
3.184 0.037 -0.31200001 132 16 0
3.188 0.035999998 -0.30199999 127 16 0
3.197 0.035 -0.29300001 118 16 0
3.2019999 0.034000002 -0.28299999 123 16 0
3.2090001 0.033 -0.273 117 16 0
3.211 0.032000002 -0.26300001 122 16 0
3.22 0.030999999 -0.25299999 121 16 0
3.2260001 0.029999999 -0.243 117 16 0
3.2290001 0.028999999 -0.233 110 16 0
3.2379999 0.028000001 -0.223 85 16 0
3.2360001 0.027000001 -0.213 70 16 0
3.2420001 0.026000001 -0.20299999 52 16 0
3.2520001 0.025 -0.193 45 16 0
3.2520001 0.024 -0.182 40 16 0
3.26 0.022 -0.17200001 34 16 0
3.2590001 0.021 -0.162 29 16 0
3.257 0.02 -0.15099999 26 16 0
3.256 0.018999999 -0.141 24 16 0
3.2590001 0.017000001 -0.13 23 16 0
3.26 0.016000001 -0.12 22 16 0
3.2590001 0.015 -0.109 21 16 0
3.266 0.013 -0.098999999 21 16 0
3.2590001 0.012 -0.088 20 16 0
3.266 0.0099999998 -0.078000002 20 16 0
3.267 0.0089999996 -0.068000004 20 16 0
3.2650001 0.0080000004 -0.057 18 16 0
3.2690001 0.0060000001 -0.046999998 19 16 0
3.267 0.0049999999 -0.035999998 19 16 0
3.2690001 0.003 -0.026000001 19 16 0
3.2690001 0.0020000001 -0.015 19 16 0
3.276 0 -0.0049999999 19 16 0
3.277 0 0.0049999999 19 16 0
3.2720001 -0.0020000001 0.015 18 16 0
3.276 -0.003 0.026000001 19 16 0
3.2690001 -0.0049999999 0.035999998 20 16 0
3.2750001 -0.0070000002 0.046999998 23 16 0
3.2780001 -0.0080000004 0.057 26 16 0
3.2739999 -0.0099999998 0.068000004 32 16 0
3.2820001 -0.012 0.078000002 38 16 0
3.283 -0.013 0.089000002 49 16 0
3.293 -0.015 0.1 100 16 0
3.2880001 -0.017000001 0.11 140 16 0
3.3 -0.018999999 0.121 150 16 0
3.3050001 -0.02 0.132 150 16 0
3.3099999 -0.022 0.14300001 150 16 0
3.316 -0.024 0.154 150 16 0
3.3239999 -0.026000001 0.164 150 16 0
3.329 -0.028000001 0.175 150 16 0
3.3340001 -0.029999999 0.186 150 16 0
3.3380001 -0.032000002 0.197 142 16 0
3.346 -0.034000002 0.208 139 16 0
3.352 -0.035999998 0.219 145 16 0
3.362 -0.037999999 0.23100001 147 16 0
3.3670001 -0.039999999 0.242 142 16 0
3.372 -0.041999999 0.25299999 150 16 0
3.3759999 -0.044 0.264 146 16 0
3.382 -0.046 0.27500001 149 16 0
3.391 -0.048999999 0.287 150 16 0
3.391 -0.050999999 0.29800001 150 16 0
3.4030001 -0.052999999 0.31 150 16 0
3.4070001 -0.055 0.32100001 150 16 0
3.4070001 -0.057 0.33199999 150 16 0
3.3889999 -0.059 0.34099999 41 16 0
3.372 -0.061000001 0.34999999 36 16 0
3.3499999 -0.063000001 0.35800001 35 16 0
3.329 -0.064999998 0.36700001 34 16 0
3.3180001 -0.067000002 0.37599999 35 16 0
3.2939999 -0.068999998 0.384 34 16 0
3.2750001 -0.07 0.39199999 35 16 0
3.2579999 -0.071999997 0.40000001 36 16 0
3.2379999 -0.074000001 0.40799999 36 16 0
3.224 -0.075999998 0.417 34 16 0
3.2060001 -0.078000002 0.42500001 36 16 0
3.1830001 -0.079999998 0.43200001 35 16 0
3.1670001 -0.082000002 0.44 35 16 0
3.1530001 -0.082999997 0.44800001 34 16 0
3.1300001 -0.085000001 0.45500001 33 16 0
3.1129999 -0.086999997 0.46200001 33 16 0
3.096 -0.089000002 0.46900001 33 16 0
3.0739999 -0.090999998 0.47600001 33 16 0
3.063 -0.093000002 0.484 37 16 0
3.0439999 -0.093999997 0.491 39 16 0
3.027 -0.096000001 0.498 38 16 0
3.017 -0.097999997 0.50599998 38 16 0
3.0009999 -0.1 0.51300001 39 16 0
2.9849999 -0.102 0.51899999 37 16 0
2.967 -0.104 0.52600002 38 16 0
2.9590001 -0.106 0.53399998 39 16 0
2.9389999 -0.108 0.54000002 39 16 0
2.927 -0.109 0.54699999 37 16 0
2.911 -0.111 0.55299997 39 16 0
2.8929999 -0.113 0.55900002 37 16 0
2.882 -0.115 0.56599998 39 16 0
2.8699999 -0.117 0.57300001 38 16 0
2.8529999 -0.119 0.579 40 16 0
2.839 -0.121 0.58499998 38 16 0
2.823 -0.122 0.59100002 41 16 0
2.8099999 -0.124 0.597 58 16 0
2.799 -0.126 0.60399997 65 16 0
2.7809999 -0.12800001 0.60799998 70 16 0
2.7709999 -0.13 0.61500001 69 16 0
2.757 -0.132 0.62099999 69 16 0
2.7449999 -0.134 0.62699997 80 16 0
2.7290001 -0.13600001 0.63200003 73 16 0
2.72 -0.138 0.639 70 16 0
2.7060001 -0.14 0.64399999 66 16 0
2.688 -0.141 0.648 53 16 0
2.6800001 -0.14399999 0.65499997 38 16 0
2.6659999 -0.145 0.66000003 37 16 0
2.651 -0.147 0.66500002 63 16 0
2.6389999 -0.149 0.67000002 105 16 0
2.628 -0.15099999 0.676 120 16 0
2.612 -0.153 0.68000001 114 16 0
2.598 -0.155 0.685 101 16 0
2.5880001 -0.15700001 0.69099998 124 16 0
2.5810001 -0.15899999 0.69700003 141 16 0
2.569 -0.161 0.70200002 116 16 0
2.5580001 -0.163 0.70700002 123 16 0
2.546 -0.16500001 0.71200001 120 16 0
2.536 -0.167 0.71700001 117 16 0
2.527 -0.169 0.72299999 119 16 0
2.5150001 -0.171 0.727 114 16 0
2.5039999 -0.17299999 0.73199999 116 16 0
2.4949999 -0.175 0.73699999 106 16 0
2.483 -0.177 0.74199998 116 16 0
2.4749999 -0.17900001 0.74699998 122 16 0
2.4679999 -0.18099999 0.75300002 142 16 0
2.4530001 -0.183 0.75599998 129 16 0
2.4430001 -0.185 0.76099998 130 16 0
2.4330001 -0.18700001 0.76599997 126 16 0
2.424 -0.189 0.77100003 131 16 0
2.4159999 -0.192 0.77600002 127 16 0
2.408 -0.19400001 0.78100002 129 16 0
2.4000001 -0.19599999 0.78600001 135 16 0
2.3889999 -0.198 0.79000002 120 16 0
2.3789999 -0.2 0.79400003 141 16 0
2.3710001 -0.20200001 0.79900002 137 16 0
2.359 -0.204 0.80199999 130 16 0
2.352 -0.206 0.80699998 143 16 0
2.3399999 -0.208 0.81099999 127 16 0
2.332 -0.211 0.815 146 16 0
2.3239999 -0.213 0.81999999 137 16 0
2.3150001 -0.215 0.824 139 16 0
2.3010001 -0.21699999 0.82599998 134 16 0
2.296 -0.219 0.83099997 138 16 0
2.2850001 -0.221 0.83499998 137 16 0
2.2739999 -0.223 0.838 145 16 0
2.2690001 -0.226 0.84299999 150 16 0
2.2579999 -0.228 0.84600002 150 16 0
2.2449999 -0.229 0.84899998 150 16 0
2.2420001 -0.23199999 0.85399997 150 16 0
2.2309999 -0.234 0.85699999 150 16 0
2.224 -0.236 0.861 150 16 0
2.2160001 -0.23899999 0.86500001 143 16 0
2.2079999 -0.241 0.86900002 133 16 0
2.2 -0.243 0.87300003 146 16 0
2.188 -0.245 0.875 150 16 0
2.181 -0.24699999 0.87800002 150 16 0
2.174 -0.25 0.88200003 150 16 0
2.1659999 -0.252 0.88599998 150 16 0
2.152 -0.25299999 0.88700002 134 16 0
2.1489999 -0.25600001 0.89200002 150 16 0
2.1440001 -0.259 0.89600003 150 16 0
2.132 -0.26100001 0.898 150 16 0
2.1210001 -0.26300001 0.89999998 150 16 0
2.118 -0.26499999 0.90499997 150 16 0
2.112 -0.26800001 0.90799999 150 16 0
2.1040001 -0.27000001 0.912 150 16 0
2.0999999 -0.273 0.91600001 150 16 0
2.089 -0.27500001 0.91799998 150 16 0
2.082 -0.27700001 0.921 150 16 0
2.075 -0.28 0.92400002 150 16 0
2.066 -0.28200001 0.926 150 16 0
2.059 -0.28400001 0.92900002 150 16 0
2.056 -0.287 0.93400002 150 16 0
2.0510001 -0.28999999 0.93699998 150 16 0
2.043 -0.292 0.94 150 16 0
2.036 -0.294 0.94300002 150 16 0
2.0280001 -0.296 0.94400001 150 16 0
2.0250001 -0.29899999 0.949 150 16 0
2.0209999 -0.30199999 0.95300001 150 16 0
2.0090001 -0.30399999 0.95300001 150 16 0
2.0009999 -0.30599999 0.95499998 150 16 0
1.995 -0.308 0.958 150 16 0
1.99 -0.31099999 0.96100003 150 16 0
1.9809999 -0.31299999 0.96200001 150 16 0
1.982 -0.317 0.96799999 150 16 0
1.962 -0.317 0.96399999 150 19 0
1.966 -0.32100001 0.972 150 16 0
1.954 -0.32300001 0.97100002 150 16 0
1.951 -0.32499999 0.97500002 150 16 0
1.941 -0.32699999 0.97500002 150 16 0
1.937 -0.33000001 0.97899997 150 16 0
1.933 -0.333 0.98199999 150 16 0
1.929 -0.336 0.98500001 150 16 0
1.926 -0.33899999 0.98799998 150 16 0
1.916 -0.34 0.98799998 150 16 0
1.913 -0.34400001 0.99199998 150 16 0
1.9069999 -0.34599999 0.99400002 150 16 0
1.9 -0.34799999 0.995 150 16 0
1.897 -0.35100001 0.99800003 150 16 0
1.8940001 -0.354 1.001 150 16 0
1.8839999 -0.35600001 1.001 150 16 0
1.885 -0.359 1.006 150 16 0
1.874 -0.361 1.005 150 16 0
1.869 -0.36399999 1.007 150 16 0
1.868 -0.36700001 1.011 150 16 0
1.863 -0.36899999 1.012 150 16 0
1.86 -0.37200001 1.015 150 16 0
1.854 -0.375 1.016 150 16 0
1.85 -0.37799999 1.018 150 16 0
1.8430001 -0.38 1.0190001 150 16 0
1.841 -0.38299999 1.022 150 16 0
1.8380001 -0.38600001 1.024 150 16 0
1.836 -0.389 1.027 150 16 0
1.83 -0.391 1.028 150 16 0
1.8200001 -0.39300001 1.027 150 16 0
1.818 -0.396 1.029 150 16 0
1.816 -0.39899999 1.0319999 150 16 0
1.814 -0.40200001 1.034 150 16 0
1.806 -0.40400001 1.034 150 16 0
1.8049999 -0.40700001 1.0369999 150 16 0
1.801 -0.41 1.038 150 16 0
1.799 -0.41299999 1.04 150 16 0
1.796 -0.41600001 1.0420001 150 16 0
1.793 -0.419 1.044 150 16 0
1.796 -0.42300001 1.049 150 16 0
1.794 -0.426 1.051 150 16 0
1.7819999 -0.42699999 1.0470001 150 19 0
1.777 -0.42899999 1.0470001 150 16 0
1.776 -0.43200001 1.049 150 16 0
1.774 -0.435 1.051 150 16 0
1.7690001 -0.43799999 1.052 150 16 0
1.767 -0.44100001 1.053 150 16 0
1.762 -0.44299999 1.053 150 16 0
1.7640001 -0.447 1.057 150 16 0
1.762 -0.44999999 1.058 150 16 0
1.755 -0.45100001 1.056 150 16 0
1.7589999 -0.456 1.061 150 16 0
1.752 -0.45699999 1.0599999 150 16 0
1.751 -0.46000001 1.061 150 16 0
1.749 -0.463 1.062 150 16 0
1.748 -0.46599999 1.064 150 16 0
1.744 -0.46900001 1.063 150 16 0
1.744 -0.472 1.0650001 150 16 0
1.74 -0.47400001 1.0650001 150 16 0
1.74 -0.477 1.067 150 16 0
1.739 -0.47999999 1.068 150 16 0
1.729 -0.48100001 1.064 150 19 0
1.729 -0.484 1.0650001 150 16 0
1.728 -0.48699999 1.066 150 16 0
1.73 -0.491 1.069 150 16 0
1.7309999 -0.49399999 1.071 150 16 0
1.725 -0.49599999 1.068 150 16 0
1.728 -0.5 1.072 150 16 0
1.727 -0.50300002 1.072 150 16 0
1.724 -0.505 1.071 150 16 0
1.727 -0.509 1.074 150 16 0
1.728 -0.51200002 1.076 150 16 0
1.7309999 -0.51599997 1.0779999 150 16 0
1.732 -0.51899999 1.08 122 16 0
1.7359999 -0.523 1.0829999 103 16 0
1.737 -0.52600002 1.084 81 16 0
1.743 -0.53100002 1.0880001 71 19 0
1.75 -0.53600001 1.0930001 65 16 0
1.749 -0.53899997 1.092 60 16 0
1.758 -0.54400003 1.098 63 18 0
1.756 -0.546 1.097 60 16 0
1.758 -0.55000001 1.098 59 16 0
1.762 -0.55400002 1.101 59 16 0
1.7640001 -0.55699998 1.102 59 16 0
1.766 -0.56099999 1.103 56 16 0
1.773 -0.565 1.107 62 19 0
1.773 -0.56800002 1.107 58 16 0
1.776 -0.57200003 1.108 62 16 0
1.778 -0.57499999 1.109 57 16 0
1.778 -0.57700002 1.108 57 16 0
1.778 -0.57999998 1.107 51 16 0
1.7819999 -0.583 1.109 53 16 0
1.7819999 -0.58600003 1.108 49 16 0
1.7819999 -0.588 1.107 49 16 0
1.783 -0.59100002 1.107 50 16 0
1.783 -0.59299999 1.1059999 48 16 0
1.783 -0.59500003 1.104 43 16 0
1.788 -0.59899998 1.1059999 40 16 0
1.791 -0.602 1.1059999 46 16 0
1.791 -0.60399997 1.105 44 16 0
1.793 -0.60699999 1.104 48 16 0
1.796 -0.61000001 1.105 47 16 0
1.793 -0.611 1.101 46 16 0
1.794 -0.61299998 1.099 45 16 0
1.794 -0.61500001 1.098 47 16 0
1.795 -0.616 1.096 44 16 0
1.795 -0.61799997 1.094 45 16 0
1.791 -0.61799997 1.089 47 16 0
1.7869999 -0.61900002 1.085 46 16 0
1.7920001 -0.62199998 1.085 49 16 0
1.79 -0.62300003 1.082 52 16 0
1.788 -0.62400001 1.0779999 52 16 0
1.788 -0.625 1.075 54 16 0
1.7869999 -0.62599999 1.072 58 16 0
1.7869999 -0.62699997 1.069 62 16 0
1.785 -0.62699997 1.0650001 74 16 0
1.786 -0.62900001 1.063 96 16 0
1.783 -0.62900001 1.058 123 16 0
1.788 -0.63200003 1.058 145 16 0
1.784 -0.63099998 1.052 150 16 0
1.7869999 -0.63300002 1.051 150 16 0
1.79 -0.63499999 1.05 150 16 0
1.794 -0.63700002 1.048 150 16 0
1.796 -0.639 1.046 150 16 0
1.7970001 -0.63999999 1.043 150 16 0
1.8 -0.64200002 1.041 150 16 0
1.809 -0.64499998 1.043 150 16 0
1.814 -0.648 1.0420001 150 16 0
1.813 -0.648 1.038 150 16 0
1.818 -0.64999998 1.0369999 150 16 0
1.821 -0.65100002 1.035 150 16 0
1.826 -0.653 1.034 150 16 0
1.827 -0.65399998 1.03 150 16 0
1.836 -0.65700001 1.031 150 16 0
1.836 -0.65799999 1.027 150 16 0
1.839 -0.65899998 1.025 150 16 0
1.8430001 -0.66000003 1.022 150 16 0
1.849 -0.662 1.022 150 16 0
1.851 -0.66299999 1.018 150 16 0
1.86 -0.66600001 1.0190001 150 16 0
1.868 -0.66799998 1.018 150 16 0
1.874 -0.67000002 1.017 150 16 0
1.88 -0.67199999 1.016 150 16 0
1.882 -0.67199999 1.012 150 16 0
1.8839999 -0.67299998 1.008 150 16 0
1.8940001 -0.676 1.0089999 150 16 0
1.905 -0.67900002 1.01 148 16 0
1.91 -0.68000001 1.008 104 16 0
1.9170001 -0.68199998 1.006 90 16 0
1.919 -0.68199998 1.002 120 16 0
1.919 -0.68099999 0.99699998 150 16 0
1.926 -0.68300003 0.99599999 150 16 0
1.928 -0.68300003 0.99199998 150 16 0
1.9349999 -0.68400002 0.99000001 150 16 0
1.9450001 -0.68599999 0.98900002 150 16 0
1.949 -0.68699998 0.986 150 16 0
1.956 -0.68800002 0.98400003 150 16 0
1.962 -0.68900001 0.98199999 150 16 0
1.9680001 -0.69 0.97899997 150 16 0
1.971 -0.69 0.97600001 150 16 0
1.976 -0.69 0.972 150 16 0
1.9809999 -0.69 0.96899998 150 16 0
1.989 -0.69199997 0.96700001 150 16 0
1.994 -0.69199997 0.96399999 150 16 0
2.0039999 -0.69400001 0.963 150 16 0
2.01 -0.69400001 0.95999998 150 16 0
2.017 -0.69499999 0.958 150 16 0
2.023 -0.69499999 0.95499998 150 16 0
2.0309999 -0.69599998 0.95300001 145 16 0
2.036 -0.69599998 0.949 133 16 0
2.046 -0.69700003 0.94800001 145 16 0
2.05 -0.69700003 0.94300002 134 16 0
2.0599999 -0.69800001 0.94199997 148 16 0
2.0639999 -0.69700003 0.93800002 136 16 0
2.0699999 -0.69700003 0.935 129 16 0
2.0769999 -0.69800001 0.93199998 131 16 0
2.0829999 -0.69700003 0.92799997 127 16 0
2.092 -0.69800001 0.926 126 16 0
2.0999999 -0.69800001 0.92299998 125 16 0
2.1070001 -0.69800001 0.92000002 118 16 0
2.1159999 -0.69800001 0.917 116 16 0
2.1240001 -0.699 0.91500002 136 16 0
2.135 -0.69999999 0.91299999 136 16 0
2.138 -0.69800001 0.90799999 130 16 0
2.145 -0.69800001 0.90399998 130 16 0
2.1559999 -0.699 0.90200001 135 16 0
2.1630001 -0.69800001 0.89899999 130 16 0
2.1670001 -0.69700003 0.89399999 127 16 0
2.178 -0.69800001 0.89200002 142 16 0
2.1849999 -0.69700003 0.88800001 150 16 0
2.194 -0.69700003 0.88499999 150 16 0
2.1989999 -0.69499999 0.88099998 150 16 0
2.207 -0.69499999 0.87699997 150 16 0
2.2079999 -0.69199997 0.87099999 150 16 0
2.2149999 -0.69099998 0.86699998 127 16 0
2.2190001 -0.68900001 0.86199999 108 16 0
2.2219999 -0.68699998 0.85600001 75 16 0
2.2249999 -0.68400002 0.85100001 71 16 0
2.23 -0.68300003 0.84600002 66 16 0
2.2320001 -0.68000001 0.83999997 59 16 0
2.2360001 -0.67799997 0.83499998 64 16 0
2.2349999 -0.67400002 0.82800001 59 16 0
2.244 -0.67299998 0.824 65 16 0
2.25 -0.671 0.81999999 64 16 0
2.2490001 -0.66799998 0.81300002 65 16 0
2.2520001 -0.66500002 0.80800003 63 16 0
2.26 -0.66399997 0.80299997 65 16 0
2.2590001 -0.66000003 0.796 67 16 0
2.267 -0.65799999 0.79299998 64 16 0
2.27 -0.65499997 0.787 61 16 0
2.273 -0.653 0.78100002 65 16 0
2.277 -0.64999998 0.77600002 64 16 0
2.2809999 -0.64700001 0.76999998 69 16 0
2.2839999 -0.64399999 0.76499999 38 16 0
2.29 -0.64200002 0.75999999 40 16 0
2.293 -0.639 0.75400001 44 16 0
2.296 -0.63599998 0.74800003 35 16 0
2.299 -0.63300002 0.74299997 40 16 0
2.302 -0.62900001 0.73699999 35 16 0
2.3050001 -0.62599999 0.73100001 42 16 0
2.3080001 -0.62300003 0.72500002 34 16 0
2.3210001 -0.62199998 0.72299999 44 16 0
2.319 -0.61799997 0.71499997 40 16 0
2.3269999 -0.616 0.71100003 40 16 0
2.329 -0.61199999 0.70499998 37 16 0
2.3369999 -0.61000001 0.70099998 33 16 0
2.3399999 -0.60600001 0.69499999 32 16 0
2.3469999 -0.60399997 0.69 36 16 0
2.349 -0.60000002 0.68400002 38 16 0
2.3559999 -0.597 0.67900002 38 16 0
2.3599999 -0.59399998 0.67400002 37 16 0
2.3629999 -0.58999997 0.66799998 35 16 0
2.369 -0.58700001 0.66299999 36 16 0
2.3770001 -0.58499998 0.65799999 37 16 0
2.3800001 -0.58099997 0.65200001 32 16 0
2.3829999 -0.57700002 0.64600003 32 16 0
2.3900001 -0.574 0.64200002 34 16 0
2.3940001 -0.57099998 0.63599998 31 16 0
2.404 -0.56800002 0.63200003 32 16 0
2.404 -0.56400001 0.625 31 16 0
2.4130001 -0.56099999 0.62099999 32 16 0
2.418 -0.55699998 0.61500001 32 16 0
2.4260001 -0.55400002 0.611 33 16 0
2.428 -0.55000001 0.60500002 31 16 0
2.4360001 -0.54699999 0.60000002 33 16 0
2.444 -0.54400003 0.59500003 32 16 0
2.4489999 -0.54000002 0.58999997 31 16 0
2.4530001 -0.53600001 0.58399999 30 16 0
2.4590001 -0.53299999 0.579 31 16 0
2.4660001 -0.52899998 0.57300001 32 16 0
2.4679999 -0.52499998 0.56699997 32 16 0
2.4820001 -0.523 0.56400001 32 16 0
2.4809999 -0.51700002 0.55699998 32 16 0
2.4890001 -0.514 0.55199999 30 16 0
2.503 -0.51200002 0.54799998 32 16 0
2.503 -0.50599998 0.542 31 16 0
2.5109999 -0.50300002 0.537 32 16 0
2.517 -0.49900001 0.53100002 30 16 0
2.5280001 -0.49599999 0.52700001 30 16 0
2.536 -0.49200001 0.52200001 29 16 0
2.5350001 -0.48699999 0.51499999 29 16 0
2.5439999 -0.48300001 0.50999999 27 16 0
2.549 -0.479 0.50400001 28 16 0
2.5610001 -0.47600001 0.5 29 16 0
2.563 -0.47099999 0.493 28 16 0
2.573 -0.46700001 0.48899999 27 16 0
2.5780001 -0.463 0.48300001 28 16 0
2.5880001 -0.45899999 0.47799999 24 16 0
2.5929999 -0.454 0.472 25 16 0
2.6070001 -0.45100001 0.46799999 24 16 0
2.6140001 -0.447 0.463 24 16 0
2.619 -0.442 0.45699999 24 16 0
2.6240001 -0.43700001 0.45100001 25 16 0
2.631 -0.433 0.44499999 25 16 0
2.6389999 -0.428 0.44 24 16 0
2.6489999 -0.42399999 0.435 24 16 0
2.658 -0.41999999 0.43000001 24 16 0
2.665 -0.41499999 0.42399999 24 16 0
2.6760001 -0.41100001 0.419 25 16 0
2.681 -0.40599999 0.41299999 24 16 0
2.6860001 -0.40099999 0.40700001 23 16 0
2.6919999 -0.396 0.40099999 24 16 0
2.697 -0.391 0.39500001 24 16 0
2.714 -0.38800001 0.391 24 16 0
2.7179999 -0.382 0.38499999 24 16 0
2.7260001 -0.377 0.37900001 24 16 0
2.737 -0.373 0.37400001 24 16 0
2.744 -0.368 0.368 24 16 0
2.7539999 -0.36300001 0.36300001 24 16 0
2.7609999 -0.35800001 0.35699999 23 16 0
2.7679999 -0.35299999 0.35100001 24 16 0
2.776 -0.34799999 0.345 24 16 0
2.7850001 -0.34299999 0.34 24 16 0
2.793 -0.33700001 0.33399999 24 16 0
2.8010001 -0.33199999 0.32800001 24 16 0
2.8150001 -0.32699999 0.32300001 23 16 0
2.822 -0.322 0.317 24 16 0
2.832 -0.317 0.31099999 24 16 0
2.8429999 -0.31200001 0.30500001 23 16 0
2.8540001 -0.30599999 0.30000001 24 16 0
2.862 -0.301 0.294 24 16 0
2.8729999 -0.29499999 0.28799999 24 16 0
2.885 -0.28999999 0.28200001 25 16 0
2.891 -0.28400001 0.27599999 24 16 0
2.902 -0.27900001 0.27000001 24 16 0
2.9059999 -0.273 0.264 23 16 0
2.9219999 -0.26699999 0.25799999 24 16 0
2.9349999 -0.26199999 0.25299999 23 16 0
2.944 -0.25600001 0.24600001 23 16 0
2.954 -0.25 0.23999999 23 16 0
2.9630001 -0.244 0.234 23 16 0
2.9790001 -0.23899999 0.228 24 16 0
2.987 -0.233 0.222 23 16 0
2.9949999 -0.226 0.21600001 23 16 0
3.0139999 -0.221 0.20999999 24 16 0
3.0220001 -0.214 0.204 22 16 0
3.0339999 -0.208 0.198 22 16 0
3.0510001 -0.20200001 0.192 23 16 0
3.0580001 -0.19599999 0.185 24 16 0
3.0769999 -0.19 0.17900001 23 16 0
3.085 -0.183 0.17299999 24 16 0
3.0899999 -0.176 0.16599999 22 16 0
3.1110001 -0.17 0.16 23 16 0
3.1199999 -0.164 0.153 24 16 0
3.1300001 -0.15700001 0.147 24 16 0
3.1500001 -0.15099999 0.141 24 16 0
3.1630001 -0.14399999 0.134 24 16 0
3.1719999 -0.13699999 0.127 23 16 0
3.187 -0.13 0.121 24 16 0
3.207 -0.123 0.114 24 16 0
3.2079999 -0.116 0.107 23 16 0
3.227 -0.109 0.101 23 16 0
3.24 -0.102 0.093999997 25 16 0
3.25 -0.093999997 0.086999997 24 16 0
3.2679999 -0.086999997 0.079999998 24 16 0
3.279 -0.079999998 0.072999999 24 16 0
3.2920001 -0.071999997 0.066 35 16 0
3.2939999 -0.064000003 0.059 99 16 0
3.2909999 -0.057 0.052000001 84 16 0
3.2820001 -0.048999999 0.044 60 16 0
3.2720001 -0.041000001 0.037 72 16 0
3.2650001 -0.033 0.029999999 65 16 0
3.257 -0.025 0.022 65 16 0
3.2539999 -0.017000001 0.015 28 16 0
3.26 -0.0089999996 0.0080000004 15 16 0
3.2780001 -0.001 0.001 15 16 0
3.286 0.0060000001 -0.0049999999 15 16 0
3.3080001 0.014 -0.012 16 16 0
3.3180001 0.022 -0.018999999 24 16 0
3.312 0.029999999 -0.026000001 40 16 0
3.309 0.037999999 -0.034000002 50 16 0
3.3010001 0.046 -0.041000001 46 16 0
3.2950001 0.052999999 -0.048 36 16 0
3.289 0.061000001 -0.054000001 41 16 0
3.283 0.068999998 -0.061000001 49 16 0
3.276 0.077 -0.068000004 50 16 0
3.27 0.085000001 -0.075000003 52 16 0
3.257 0.093000002 -0.082000002 51 16 0
3.257 0.101 -0.089000002 52 16 0
3.2449999 0.108 -0.094999999 52 16 0
3.2390001 0.116 -0.102 52 16 0
3.2349999 0.124 -0.108 54 16 0
3.227 0.131 -0.115 52 16 0
3.217 0.139 -0.121 51 16 0
3.2119999 0.147 -0.12800001 55 16 0
3.207 0.154 -0.134 56 16 0
3.198 0.162 -0.141 57 16 0
3.1919999 0.17 -0.147 52 16 0
3.1819999 0.177 -0.153 65 16 0
3.1789999 0.185 -0.16 51 16 0
3.1659999 0.192 -0.16599999 56 16 0
3.1619999 0.2 -0.17200001 64 16 0
3.1530001 0.207 -0.178 49 16 0
3.1489999 0.215 -0.184 49 16 0
3.145 0.222 -0.19 54 16 0
3.132 0.229 -0.19599999 56 16 0
3.1210001 0.236 -0.20200001 60 16 0
3.1199999 0.244 -0.208 60 16 0
3.115 0.252 -0.214 50 16 0
3.109 0.259 -0.22 58 16 0
3.1070001 0.26699999 -0.226 51 16 0
3.0929999 0.27399999 -0.23100001 71 16 0
3.0869999 0.28099999 -0.237 62 16 0
3.082 0.28799999 -0.243 72 16 0
