# .PCD v0.7 - Point Cloud Data file format
VERSION 0.7
FIELDS x y z intensity tag line
SIZE 4 4 4 4 1 1
TYPE F F F F U U
COUNT 1 1 1 1 1 1
WIDTH 1366
HEIGHT 1
VIEWPOINT 0 0 0 1 0 0 0
POINTS 1366
DATA ascii
2.484 -0.433 0.092 67 16 0
2.4679999 -0.43900001 0.093000002 66 16 0
2.46 -0.44499999 0.093999997 67 16 0
2.448 -0.45100001 0.093999997 77 16 0
2.437 -0.45699999 0.094999999 62 16 0
2.424 -0.463 0.096000001 62 16 0
2.4089999 -0.46700001 0.096000001 67 16 0
2.3959999 -0.47299999 0.097000003 66 16 0
2.3840001 -0.47799999 0.097999997 67 16 0
2.375 -0.484 0.097999997 69 16 0
2.359 -0.48899999 0.098999999 76 16 0
2.349 -0.49399999 0.098999999 66 16 0
2.335 -0.49900001 0.1 77 16 0
2.323 -0.50400001 0.1 73 16 0
2.3150001 -0.50999999 0.101 70 16 0
2.3010001 -0.51499999 0.101 80 16 0
2.2880001 -0.51899999 0.102 78 16 0
2.2780001 -0.52499998 0.102 82 16 0
2.27 -0.52999997 0.103 77 16 0
2.253 -0.53399998 0.103 80 16 0
2.2449999 -0.53899997 0.103 81 16 0
2.234 -0.54400003 0.104 89 16 0
2.221 -0.54799998 0.104 83 16 0
2.21 -0.55299997 0.104 95 16 0
2.1989999 -0.55800003 0.105 85 16 0
2.191 -0.56300002 0.105 98 16 0
2.1819999 -0.56800002 0.105 101 16 0
2.171 -0.57200003 0.105 110 16 0
2.1630001 -0.57700002 0.106 111 16 0
2.142 -0.579 0.105 111 19 0
2.1370001 -0.58499998 0.106 111 16 0
2.131 -0.58999997 0.106 114 16 0
2.1170001 -0.59299999 0.106 116 16 0
2.1070001 -0.59799999 0.106 121 16 0
2.096 -0.602 0.106 123 16 0
2.0910001 -0.60699999 0.106 129 16 0
2.0799999 -0.611 0.106 136 16 0
2.076 -0.61699998 0.107 150 16 0
2.0639999 -0.62 0.107 148 16 0
2.053 -0.62400001 0.106 150 16 0
2.039 -0.62599999 0.106 150 16 0
2.0309999 -0.63099998 0.106 148 16 0
2.0250001 -0.63599998 0.106 150 16 0
2.0139999 -0.639 0.106 150 16 0
2.006 -0.64300001 0.106 150 16 0
1.9960001 -0.64700001 0.106 150 16 0
1.99 -0.65200001 0.106 150 16 0
1.98 -0.65499997 0.106 150 16 0
1.97 -0.65799999 0.105 150 16 0
1.9630001 -0.66299999 0.105 150 16 0
1.956 -0.667 0.105 150 16 0
1.9349999 -0.66600001 0.104 150 19 0
1.9299999 -0.671 0.104 150 16 0
1.924 -0.676 0.104 150 16 0
1.918 -0.68000001 0.104 150 16 0
1.911 -0.68400002 0.104 150 16 0
1.903 -0.68800002 0.103 150 16 0
1.891 -0.69 0.103 150 16 0
1.887 -0.69499999 0.103 150 16 0
1.881 -0.699 0.102 150 16 0
1.87 -0.70200002 0.102 150 16 0
1.862 -0.70499998 0.101 150 16 0
1.855 -0.708 0.101 150 16 0
1.847 -0.71200001 0.101 150 16 0
1.841 -0.71600002 0.1 150 16 0
1.8329999 -0.71899998 0.1 3 0 0
1.827 -0.72299999 0.098999999 3 0 0
1.819 -0.72600001 0.098999999 3 0 0
1.807 -0.727 0.097999997 150 16 0
1.802 -0.73100001 0.097999997 4 0 0
1.7970001 -0.73500001 0.097000003 5 0 0
1.788 -0.73799998 0.096000001 3 0 0
1.78 -0.741 0.096000001 3 0 0
1.774 -0.74400002 0.094999999 150 16 0
1.771 -0.74900001 0.094999999 4 0 0
1.7589999 -0.75 0.093999997 4 0 0
1.752 -0.75300002 0.093000002 150 16 0
1.745 -0.75599998 0.093000002 4 0 0
1.739 -0.759 0.092 150 16 0
1.733 -0.76200002 0.090999998 150 16 0
1.726 -0.76499999 0.090999998 150 16 0
1.722 -0.76899999 0.090000004 150 16 0
1.716 -0.77200001 0.089000002 150 16 0
1.704 -0.773 0.088 150 16 0
1.698 -0.77499998 0.088 56 0 0
1.6900001 -0.77700001 0.086999997 84 0 0
1.6849999 -0.78100002 0.086000003 71 0 0
1.681 -0.78500003 0.085000001 78 0 0
1.673 -0.78600001 0.083999999 150 16 0
1.665 -0.78799999 0.082999997 125 0 0
1.659 -0.79100001 0.082000002 71 0 0
1.652 -0.79299998 0.081 117 0 0
1.6440001 -0.79500002 0.079999998 66 0 0
1.642 -0.80000001 0.079999998 86 0 0
1.635 -0.801 0.079000004 102 0 0
1.63 -0.80400002 0.078000002 103 0 0
1.619 -0.80400002 0.077 125 0 0
1.6160001 -0.80800003 0.075999998 87 0 0
1.612 -0.81099999 0.075000003 132 0 0
1.599 -0.81 0.072999999 134 0 0
1.596 -0.81400001 0.071999997 118 0 0
1.592 -0.81699997 0.071000002 139 0 0
1.587 -0.81900001 0.07 97 0 0
1.584 -0.82300001 0.068999998 116 0 0
1.577 -0.82499999 0.068000004 86 0 0
1.573 -0.82700002 0.067000002 82 0 0
1.567 -0.829 0.066 67 0 0
1.563 -0.83200002 0.064999998 90 0 0
1.5599999 -0.83600003 0.064000003 125 0 0
1.553 -0.83700001 0.063000001 139 0 0
1.546 -0.838 0.061000001 112 0 0
1.54 -0.83999997 0.059999999 137 0 0
1.534 -0.84100002 0.059 113 0 0
1.53 -0.84399998 0.057999998 108 0 0
1.524 -0.84500003 0.056000002 150 0 0
1.522 -0.84899998 0.055 111 0 0
1.517 -0.85100001 0.054000001 150 0 0
1.515 -0.85399997 0.052999999 129 0 0
1.5039999 -0.852 0.050999999 127 0 0
1.5 -0.85500002 0.050000001 145 0 0
1.4960001 -0.85699999 0.048999999 150 0 0
1.493 -0.85900003 0.046999998 115 0 0
1.488 -0.861 0.046 107 0 0
1.4809999 -0.86199999 0.045000002 150 0 0
1.48 -0.86500001 0.043000001 127 0 0
1.473 -0.86500001 0.041999999 118 0 0
1.47 -0.86799997 0.039999999 135 0 0
1.464 -0.86799997 0.039000001 141 0 0
1.462 -0.87099999 0.037999999 150 0 0
1.459 -0.87400001 0.035999998 133 0 0
1.4529999 -0.87400001 0.035 121 0 0
1.452 -0.87699997 0.033 99 0 0
1.444 -0.87599999 0.032000002 139 0 0
1.441 -0.87900001 0.029999999 137 0 0
1.4400001 -0.88200003 0.028999999 147 0 0
1.4299999 -0.88 0.027000001 140 0 0
1.429 -0.88200003 0.026000001 122 0 0
1.427 -0.88499999 0.024 139 0 0
1.423 -0.88599998 0.023 130 0 0
1.419 -0.88800001 0.021 137 0 0
1.414 -0.88800001 0.018999999 148 0 0
1.41 -0.88800001 0.017999999 126 0 0
1.408 -0.89099997 0.016000001 150 0 0
1.4069999 -0.89399999 0.015 143 0 0
1.4 -0.89300001 0.013 140 0 0
1.397 -0.89399999 0.011 145 0 0
1.393 -0.89399999 0.0099999998 120 0 0
1.391 -0.89600003 0.0080000004 108 0 0
1.3890001 -0.898 0.0060000001 137 0 0
1.385 -0.89899999 0.0049999999 128 0 0
1.382 -0.89999998 0.003 120 0 0
1.378 -0.89999998 0.001 119 0 0
1.378 -0.903 0 139 0 0
1.377 -0.90499997 -0.001 112 0 0
1.374 -0.90600002 -0.003 144 0 0
1.37 -0.90600002 -0.0049999999 119 0 0
1.369 -0.90799999 -0.0060000001 119 0 0
1.367 -0.90899998 -0.0080000004 131 0 0
1.365 -0.91100001 -0.0099999998 150 0 0
1.364 -0.912 -0.012 135 0 0
1.363 -0.91399997 -0.013 127 0 0
1.36 -0.91500002 -0.015 134 0 0
1.354 -0.91299999 -0.017000001 136 0 0
1.353 -0.91399997 -0.018999999 119 0 0
1.352 -0.91600001 -0.02 111 0 0
1.347 -0.91399997 -0.022 104 0 0
1.348 -0.917 -0.024 150 0 0
1.341 -0.91399997 -0.026000001 120 3 0
1.34 -0.91500002 -0.027000001 139 0 0
1.339 -0.91600001 -0.028999999 135 0 0
1.339 -0.91799998 -0.030999999 138 0 0
1.3380001 -0.91900003 -0.033 117 0 0
1.336 -0.91900003 -0.035 137 0 0
1.334 -0.91900003 -0.037 150 0 0
1.335 -0.921 -0.039000001 113 0 0
1.329 -0.91900003 -0.039999999 138 0 0
1.3279999 -0.92000002 -0.041999999 140 0 0
1.3279999 -0.921 -0.044 96 0 0
1.314 -0.912 -0.046 90 1 0
1.327 -0.92299998 -0.048 140 3 0
1.324 -0.921 -0.050000001 113 0 0
1.323 -0.92199999 -0.052000001 142 0 0
1.312 -0.91500002 -0.052999999 104 1 0
1.3099999 -0.91399997 -0.055 107 0 0
1.324 -0.92500001 -0.057 137 1 0
1.311 -0.91600001 -0.059 109 3 0
1.322 -0.92500001 -0.061000001 139 3 0
1.3099999 -0.917 -0.061999999 98 3 0
1.308 -0.91600001 -0.064000003 100 0 0
1.308 -0.91600001 -0.066 130 0 0
1.307 -0.91600001 -0.068000004 94 0 0
1.307 -0.91600001 -0.07 122 0 0
1.3049999 -0.91500002 -0.071000002 121 0 0
1.306 -0.91600001 -0.072999999 124 0 0
1.304 -0.91399997 -0.075000003 144 0 0
1.3049999 -0.91500002 -0.077 83 0 0
1.3049999 -0.91500002 -0.079000004 128 0 0
1.306 -0.91600001 -0.081 143 0 0
1.304 -0.91399997 -0.082000002 134 0 0
1.304 -0.91299999 -0.083999999 118 0 0
1.307 -0.91500002 -0.086000003 149 0 0
1.303 -0.91100001 -0.088 122 0 0
1.304 -0.912 -0.090000004 112 0 0
1.303 -0.91100001 -0.090999998 115 0 0
1.3049999 -0.91100001 -0.093000002 150 0 0
1.306 -0.91100001 -0.094999999 134 0 0
1.319 -0.91900003 -0.097999997 149 1 0
1.306 -0.90899998 -0.098999999 150 3 0
1.306 -0.90899998 -0.1 133 0 0
1.3200001 -0.917 -0.103 132 1 0
1.321 -0.917 -0.105 148 0 0
1.3099999 -0.90799999 -0.106 120 1 0
1.3099999 -0.90700001 -0.108 122 0 0
1.322 -0.91299999 -0.11 150 1 0
1.323 -0.91299999 -0.112 144 0 0
1.3099999 -0.903 -0.113 133 1 0
1.326 -0.912 -0.116 133 3 0
1.326 -0.91100001 -0.117 150 0 0
1.3279999 -0.91000003 -0.119 147 0 0
1.325 -0.90700001 -0.12 123 0 0
1.329 -0.90700001 -0.122 150 0 0
1.329 -0.90600002 -0.124 137 0 0
1.317 -0.89499998 -0.124 96 1 0
1.331 -0.903 -0.127 150 0 0
1.3329999 -0.90200001 -0.12899999 150 0 0
1.3329999 -0.89999998 -0.13 150 0 0
1.334 -0.89899999 -0.132 150 0 0
1.335 -0.89700001 -0.133 150 0 0
1.339 -0.89700001 -0.13500001 150 0 0
1.34 -0.89499998 -0.13699999 150 0 0
1.341 -0.89399999 -0.138 150 0 0
1.342 -0.89200002 -0.14 150 0 0
1.346 -0.89200002 -0.142 150 0 0
1.349 -0.89099997 -0.14300001 150 0 0
1.345 -0.88599998 -0.14399999 150 0 0
1.355 -0.88999999 -0.146 150 0 0
1.358 -0.889 -0.148 150 0 0
1.362 -0.889 -0.15000001 150 0 0
1.363 -0.88700002 -0.15099999 150 0 0
1.36 -0.88099998 -0.152 150 0 0
1.368 -0.884 -0.154 150 0 0
1.37 -0.88200003 -0.155 150 0 0
1.368 -0.87800002 -0.156 150 0 0
1.377 -0.88 -0.15800001 150 0 0
1.376 -0.87599999 -0.16 150 0 0
1.3789999 -0.875 -0.161 136 0 0
1.381 -0.87199998 -0.162 150 0 0
1.385 -0.87099999 -0.164 143 0 0
1.387 -0.86900002 -0.16500001 150 0 0
1.388 -0.86699998 -0.16599999 150 0 0
1.391 -0.86500001 -0.167 150 0 0
1.397 -0.86500001 -0.169 150 0 0
1.396 -0.86000001 -0.17 150 0 0
1.4 -0.85900003 -0.171 150 0 0
1.4 -0.85500002 -0.17200001 150 0 0
1.405 -0.85500002 -0.17399999 150 0 0
1.41 -0.85399997 -0.175 134 0 0
1.415 -0.85399997 -0.177 150 0 0
1.415 -0.85000002 -0.177 150 0 0
1.419 -0.84799999 -0.178 150 0 0
1.426 -0.84799999 -0.18000001 150 0 0
1.425 -0.84299999 -0.18099999 150 0 0
1.433 -0.84399998 -0.182 150 0 0
1.4349999 -0.84100002 -0.183 150 0 0
1.437 -0.838 -0.184 150 0 0
1.4450001 -0.838 -0.186 150 0 0
1.45 -0.83700001 -0.18700001 148 0 0
1.455 -0.83499998 -0.18799999 150 0 0
1.4579999 -0.833 -0.189 150 0 0
1.4579999 -0.82800001 -0.189 150 0 0
1.462 -0.82599998 -0.19 150 0 0
1.4680001 -0.82499999 -0.192 137 0 0
1.474 -0.824 -0.193 140 0 0
1.478 -0.82200003 -0.19400001 150 0 0
1.485 -0.82099998 -0.19499999 141 0 0
1.4910001 -0.81900001 -0.19599999 150 0 0
1.493 -0.81599998 -0.197 150 0 0
1.499 -0.815 -0.198 136 0 0
1.501 -0.81099999 -0.198 146 0 0
1.506 -0.80900002 -0.199 150 0 0
1.516 -0.80900002 -0.20100001 150 0 0
1.518 -0.80599999 -0.20100001 125 0 0
1.516 -0.80000001 -0.20100001 129 0 0
1.527 -0.801 -0.20299999 150 0 0
1.533 -0.79900002 -0.204 150 0 0
1.539 -0.79699999 -0.204 120 0 0
1.541 -0.79299998 -0.205 134 0 0
1.549 -0.792 -0.206 150 0 0
1.548 -0.78600001 -0.206 108 0 0
1.557 -0.78600001 -0.207 134 0 0
1.567 -0.78600001 -0.208 142 0 0
1.569 -0.78200001 -0.208 137 0 0
1.575 -0.77899998 -0.20900001 150 0 0
1.581 -0.77700001 -0.20999999 146 0 0
1.589 -0.77600002 -0.211 134 0 0
1.591 -0.77200001 -0.211 135 0 0
1.598 -0.76999998 -0.211 150 0 0
1.6 -0.76499999 -0.211 127 0 0
1.607 -0.76300001 -0.212 150 0 0
1.6109999 -0.75999999 -0.212 114 0 0
1.615 -0.75599998 -0.213 117 0 0
1.625 -0.75599998 -0.214 140 0 0
1.631 -0.75300002 -0.214 129 0 0
1.637 -0.75 -0.214 117 0 0
1.641 -0.74599999 -0.215 103 0 0
1.646 -0.74299997 -0.215 147 0 0
1.651 -0.74000001 -0.215 128 0 0
1.6619999 -0.73900002 -0.21600001 150 16 0
1.666 -0.736 -0.21600001 150 16 0
1.674 -0.73299998 -0.21600001 150 16 0
1.682 -0.73100001 -0.21699999 150 16 0
1.687 -0.72799999 -0.21699999 150 16 0
1.691 -0.72399998 -0.21699999 150 16 0
1.699 -0.72100002 -0.21699999 150 16 0
1.7079999 -0.71899998 -0.21799999 150 16 0
1.717 -0.71700001 -0.21799999 150 16 0
1.723 -0.71399999 -0.21799999 150 16 0
1.7309999 -0.71200001 -0.219 150 16 0
1.738 -0.708 -0.219 150 16 0
1.742 -0.704 -0.21799999 150 16 0
1.747 -0.70099998 -0.21799999 150 16 0
1.752 -0.69700003 -0.21799999 150 16 0
1.76 -0.69400001 -0.21799999 57 0 0
1.771 -0.69199997 -0.219 150 16 0
1.779 -0.68900001 -0.219 59 0 0
1.788 -0.68599999 -0.219 53 0 0
1.7920001 -0.68199998 -0.219 45 0 0
1.799 -0.67900002 -0.21799999 44 0 0
1.808 -0.676 -0.219 1 0 0
1.8150001 -0.67299998 -0.21799999 1 0 0
1.8200001 -0.66799998 -0.21799999 2 0 0
1.822 -0.66299999 -0.21699999 2 0 0
1.839 -0.66299999 -0.21799999 1 3 0
1.842 -0.65799999 -0.21699999 150 16 0
1.857 -0.65700001 -0.21799999 150 16 0
1.862 -0.653 -0.21699999 146 16 0
1.868 -0.648 -0.21699999 147 16 0
1.881 -0.64600003 -0.21699999 150 16 0
1.887 -0.64200002 -0.21699999 150 16 0
1.9 -0.63999999 -0.21699999 150 16 0
1.908 -0.63700002 -0.21600001 37 0 0
1.913 -0.63200003 -0.21600001 146 16 0
1.9220001 -0.62900001 -0.215 150 16 0
1.925 -0.62300003 -0.214 145 16 0
1.933 -0.61900002 -0.214 150 16 0
1.939 -0.61500001 -0.213 129 16 0
1.957 -0.61400002 -0.214 127 19 0
1.964 -0.61000001 -0.213 121 16 0
1.972 -0.60600001 -0.212 125 16 0
1.982 -0.602 -0.212 121 16 0
1.9910001 -0.59799999 -0.211 127 16 0
1.999 -0.59399998 -0.20999999 125 16 0
2.0079999 -0.58999997 -0.20999999 113 16 0
2.016 -0.58600003 -0.20900001 126 16 0
2.03 -0.583 -0.20900001 111 16 0
2.0369999 -0.579 -0.208 106 16 0
2.0450001 -0.574 -0.207 107 16 0
2.0539999 -0.56999999 -0.206 106 16 0
2.0639999 -0.56599998 -0.206 108 16 0
2.0739999 -0.56199998 -0.205 107 16 0
2.0829999 -0.55800003 -0.204 114 16 0
2.0969999 -0.55500001 -0.20299999 101 16 0
2.0999999 -0.54900002 -0.20200001 101 16 0
2.1129999 -0.54500002 -0.20100001 101 16 0
2.1259999 -0.542 -0.20100001 97 16 0
2.1300001 -0.53600001 -0.199 90 16 0
2.1440001 -0.53200001 -0.198 97 16 0
2.152 -0.52700001 -0.197 87 16 0
2.161 -0.523 -0.19599999 93 16 0
2.1830001 -0.52100003 -0.19599999 97 19 0
2.191 -0.51599997 -0.19499999 88 16 0
2.2019999 -0.51099998 -0.19400001 83 16 0
2.2179999 -0.50800002 -0.193 83 16 0
2.2219999 -0.50199997 -0.191 75 16 0
2.2379999 -0.498 -0.19 78 16 0
2.2449999 -0.493 -0.189 74 16 0
2.2620001 -0.48899999 -0.18799999 72 16 0
2.27 -0.484 -0.18700001 73 16 0
2.277 -0.47799999 -0.185 75 16 0
2.289 -0.47299999 -0.184 71 16 0
2.303 -0.46900001 -0.182 74 16 0
2.322 -0.465 -0.182 72 16 0
2.3269999 -0.45899999 -0.18000001 69 16 0
2.335 -0.45300001 -0.178 65 16 0
2.349 -0.44800001 -0.177 66 16 0
2.369 -0.44499999 -0.176 60 16 0
2.3759999 -0.43900001 -0.17399999 54 16 0
2.391 -0.43399999 -0.17200001 65 16 0
2.401 -0.428 -0.17 62 16 0
2.414 -0.42300001 -0.169 63 16 0
2.427 -0.41800001 -0.167 69 16 0
2.444 -0.41299999 -0.16599999 56 16 0
2.454 -0.40700001 -0.164 45 16 0
2.467 -0.40099999 -0.162 32 16 0
2.483 -0.396 -0.16 31 16 0
2.4960001 -0.391 -0.15899999 32 16 0
2.5050001 -0.384 -0.156 32 16 0
2.5179999 -0.37799999 -0.154 30 16 0
2.53 -0.37200001 -0.152 31 16 0
2.546 -0.36700001 -0.15000001 31 16 0
2.5599999 -0.361 -0.148 31 16 0
2.576 -0.35499999 -0.146 30 16 0
2.589 -0.34900001 -0.14399999 30 16 0
2.6029999 -0.34299999 -0.142 30 16 0
2.6229999 -0.338 -0.14 30 16 0
2.6329999 -0.331 -0.138 31 16 0
2.645 -0.324 -0.13500001 29 16 0
2.6619999 -0.31799999 -0.133 29 16 0
2.677 -0.31200001 -0.131 29 16 0
2.698 -0.30599999 -0.12899999 30 16 0
2.714 -0.29899999 -0.126 29 16 0
2.7260001 -0.292 -0.124 29 16 0
2.7349999 -0.285 -0.121 28 16 0
2.7550001 -0.27900001 -0.118 28 16 0
2.77 -0.27200001 -0.116 29 16 0
2.7839999 -0.26499999 -0.113 27 16 0
2.8050001 -0.25799999 -0.111 28 16 0
2.8150001 -0.25099999 -0.108 27 16 0
2.839 -0.244 -0.105 27 16 0
2.8529999 -0.237 -0.102 26 16 0
2.872 -0.23 -0.098999999 26 16 0
2.885 -0.222 -0.096000001 27 16 0
2.8989999 -0.214 -0.093000002 27 16 0
2.9200001 -0.207 -0.090000004 27 16 0
2.9419999 -0.2 -0.086999997 26 16 0
2.961 -0.192 -0.083999999 26 16 0
2.9760001 -0.184 -0.081 26 16 0
2.997 -0.177 -0.078000002 25 16 0
3.0120001 -0.169 -0.074000001 25 16 0
3.04 -0.161 -0.071000002 26 16 0
3.0569999 -0.153 -0.068000004 26 16 0
3.0840001 -0.145 -0.064000003 26 16 0
3.098 -0.13600001 -0.061000001 25 16 0
3.118 -0.12800001 -0.057 26 16 0
3.138 -0.119 -0.052999999 27 16 0
3.1630001 -0.111 -0.050000001 27 16 0
3.184 -0.102 -0.046 27 16 0
3.2079999 -0.093999997 -0.041999999 27 16 0
3.2249999 -0.085000001 -0.037999999 27 16 0
3.2479999 -0.075000003 -0.034000002 34 16 0
3.263 -0.066 -0.029999999 146 16 0
3.2590001 -0.057 -0.025 150 16 0
3.2539999 -0.046999998 -0.021 121 16 0
3.253 -0.037 -0.017000001 124 16 0
3.25 -0.027000001 -0.012 120 16 0
3.2479999 -0.017999999 -0.0080000004 42 16 0
3.2550001 -0.0080000004 -0.0040000002 19 16 0
3.2780001 0 0 17 16 0
3.302 0.0099999998 0.0040000002 18 16 0
3.3299999 0.02 0.0089999996 22 16 0
3.339 0.029999999 0.013 47 16 0
3.3280001 0.039000001 0.017999999 66 16 0
3.325 0.048999999 0.023 54 16 0
3.3310001 0.059 0.027000001 41 16 0
3.3210001 0.068000004 0.032000002 58 16 0
3.3199999 0.078000002 0.035999998 59 16 0
3.3199999 0.088 0.041000001 43 16 0
3.3199999 0.097000003 0.046 51 16 0
3.313 0.107 0.050000001 55 16 0
3.309 0.116 0.055 53 16 0
3.2909999 0.125 0.059 54 16 0
3.2490001 0.133 0.063000001 95 16 0
3.237 0.142 0.068000004 109 16 0
3.2290001 0.15099999 0.071999997 92 16 0
3.2290001 0.16 0.077 92 16 0
3.2279999 0.17 0.081 93 16 0
3.2279999 0.17900001 0.086000003 115 16 0
3.2309999 0.189 0.090999998 106 16 0
3.244 0.199 0.096000001 126 16 0
3.247 0.208 0.101 73 16 0
3.2219999 0.21600001 0.105 41 16 0
3.221 0.22499999 0.109 43 16 0
3.233 0.236 0.115 45 16 0
3.2620001 0.24699999 0.121 45 16 0
3.253 0.25600001 0.125 37 16 0
3.2119999 0.26199999 0.12899999 27 19 0
3.2119999 0.271 0.133 27 16 0
3.217 0.28099999 0.138 36 16 0
3.21 0.28999999 0.14300001 34 16 0
3.1949999 0.29699999 0.147 32 16 0
3.187 0.30599999 0.152 31 16 0
3.1730001 0.31400001 0.156 32 16 0
3.1630001 0.322 0.16 37 16 0
3.158 0.33000001 0.16500001 44 16 0
3.1440001 0.338 0.169 51 16 0
3.1370001 0.34599999 0.17399999 98 16 0
3.131 0.354 0.178 150 16 0
3.1240001 0.36300001 0.183 150 16 0
3.1270001 0.37200001 0.18799999 150 16 0
3.1210001 0.38 0.192 150 16 0
3.119 0.389 0.197 150 16 0
3.119 0.398 0.20200001 150 16 0
3.1140001 0.40599999 0.207 150 16 0
3.109 0.414 0.212 150 16 0
3.1110001 0.42300001 0.21699999 150 16 0
3.1099999 0.43200001 0.222 150 16 0
3.1070001 0.44100001 0.227 150 16 0
3.102 0.449 0.23100001 150 16 0
3.105 0.458 0.237 150 16 0
3.098 0.46599999 0.241 150 16 0
3.0969999 0.47400001 0.24600001 150 16 0
3.095 0.48300001 0.25099999 150 16 0
3.0929999 0.491 0.25600001 150 16 0
3.0910001 0.5 0.26100001 150 16 0
3.0899999 0.50800002 0.266 150 16 0
3.0899999 0.51700002 0.27200001 150 16 0
3.086 0.52499998 0.27700001 150 16 0
3.0840001 0.53399998 0.28200001 150 16 0
3.082 0.542 0.287 150 16 0
3.0780001 0.55000001 0.292 150 16 0
3.0780001 0.55900002 0.29699999 150 16 0
3.076 0.56699997 0.30199999 150 16 0
3.0739999 0.57499999 0.30700001 150 16 0
3.075 0.58399999 0.31299999 150 16 0
3.0699999 0.59200001 0.31799999 150 16 0
3.0680001 0.60000002 0.32300001 150 16 0
3.0669999 0.60900003 0.32800001 150 16 0
3.063 0.616 0.333 150 16 0
3.0610001 0.625 0.33899999 150 16 0
3.0610001 0.63300002 0.34400001 150 16 0
3.0580001 0.64099997 0.34900001 150 16 0
3.056 0.64899999 0.35499999 150 16 0
3.053 0.65700001 0.36000001 150 16 0
3.049 0.66500002 0.36500001 150 16 0
3.0480001 0.67299998 0.37 150 16 0
3.0480001 0.68199998 0.37599999 150 16 0
3.0420001 0.68900001 0.38100001 150 16 0
3.0450001 0.69800001 0.38699999 150 16 0
3.04 0.70499998 0.39199999 150 16 0
3.0420001 0.71399999 0.398 150 16 0
3.039 0.722 0.403 150 16 0
3.0369999 0.73000002 0.40900001 150 16 0
3.0350001 0.73799998 0.414 150 16 0
3.0369999 0.74699998 0.41999999 150 16 0
3.03 0.75400001 0.42500001 150 16 0
3.027 0.76099998 0.43000001 150 16 0
3.029 0.76999998 0.43700001 150 16 0
3.0209999 0.77600002 0.44100001 150 16 0
3.0239999 0.78500003 0.44800001 150 16 0
3.023 0.79299998 0.45300001 150 16 0
3.0280001 0.80299997 0.46000001 150 16 0
3.02 0.80900002 0.465 150 16 0
3.0239999 0.81900001 0.472 150 16 0
3.0220001 0.82599998 0.477 150 16 0
3.0139999 0.83200002 0.48199999 150 16 0
3.0150001 0.84100002 0.48800001 150 16 0
3.0120001 0.84799999 0.49399999 122 16 0
2.9979999 0.852 0.49700001 49 16 0
2.99 0.85799998 0.50199997 44 16 0
2.9809999 0.86400002 0.50700003 43 16 0
2.9660001 0.86799997 0.50999999 41 16 0
2.957 0.87300003 0.51499999 43 16 0
2.944 0.87699997 0.51899999 42 16 0
2.9360001 0.88300002 0.523 43 16 0
2.925 0.88700002 0.52700001 41 16 0
2.921 0.89399999 0.53299999 43 16 0
2.908 0.898 0.537 41 16 0
2.8989999 0.903 0.54100001 44 16 0
2.8940001 0.90899998 0.546 43 16 0
2.8729999 0.91000003 0.54900002 41 16 0
2.865 0.91500002 0.55299997 42 16 0
2.8540001 0.91900003 0.55699998 43 16 0
2.848 0.92400002 0.56199998 43 16 0
2.836 0.92799997 0.56599998 42 16 0
2.8269999 0.93199998 0.56999999 44 16 0
2.819 0.93699998 0.57499999 43 16 0
2.8 0.93800002 0.57700002 43 16 0
2.7909999 0.94199997 0.58099997 44 16 0
2.7839999 0.94700003 0.58600003 45 16 0
2.776 0.95200002 0.58999997 42 16 0
2.77 0.95700002 0.59500003 44 16 0
2.7550001 0.95899999 0.59799999 42 16 0
2.7479999 0.963 0.60299999 44 16 0
2.7390001 0.96700001 0.60699999 44 16 0
2.73 0.97100002 0.611 60 16 0
2.72 0.97399998 0.61500001 62 16 0
2.71 0.977 0.61900002 63 16 0
2.6989999 0.98000002 0.62300003 64 16 0
2.6960001 0.986 0.62800002 69 16 0
2.681 0.98699999 0.63099998 67 16 0
2.6700001 0.99000001 0.63499999 64 16 0
2.664 0.99400002 0.639 62 16 0
2.655 0.99800003 0.64300001 71 16 0
2.645 1 0.64700001 67 16 0
2.6329999 1.002 0.64999998 61 16 0
2.625 1.006 0.65499997 63 16 0
2.615 1.008 0.65799999 63 16 0
2.6059999 1.011 0.662 65 16 0
2.5999999 1.015 0.667 71 16 0
2.5880001 1.016 0.67000002 66 16 0
2.5799999 1.0190001 0.67400002 62 16 0
2.573 1.023 0.67799997 69 16 0
2.5650001 1.025 0.68199998 73 16 0
2.5569999 1.028 0.68599999 80 16 0
2.5439999 1.029 0.68900001 68 16 0
2.5339999 1.031 0.69199997 70 16 0
2.526 1.033 0.69599998 68 16 0
2.5209999 1.0369999 0.70099998 71 16 0
2.5109999 1.039 0.704 72 16 0
2.5009999 1.04 0.708 65 16 0
2.4960001 1.044 0.71200001 76 16 0
2.4820001 1.043 0.71399999 71 16 0
2.4749999 1.046 0.71899998 67 16 0
2.4719999 1.05 0.72399998 72 16 0
2.4630001 1.052 0.727 73 16 0
2.451 1.052 0.73000002 72 16 0
2.4419999 1.053 0.73299998 69 16 0
2.434 1.0549999 0.73699999 58 16 0
2.428 1.057 0.741 64 16 0
2.4219999 1.0599999 0.745 66 16 0
2.4130001 1.061 0.74800003 63 16 0
2.4070001 1.063 0.75300002 68 16 0
2.398 1.064 0.75599998 70 16 0
2.391 1.0650001 0.759 71 16 0
2.381 1.066 0.76200002 77 16 0
2.3759999 1.068 0.76599997 70 16 0
2.3670001 1.068 0.76999998 70 16 0
2.359 1.0700001 0.773 62 16 0
2.352 1.071 0.77600002 63 16 0
2.3440001 1.072 0.77999997 77 16 0
2.336 1.072 0.78299999 83 16 0
2.3299999 1.074 0.787 82 16 0
2.3180001 1.073 0.78899997 85 16 0
2.3080001 1.072 0.79100001 78 16 0
2.303 1.074 0.79500002 78 16 0
2.299 1.076 0.80000001 77 16 0
2.2909999 1.076 0.80299997 72 16 0
2.2850001 1.077 0.80599999 81 16 0
2.28 1.0779999 0.81 84 16 0
2.266 1.075 0.81099999 86 16 0
2.266 1.079 0.81599998 84 16 0
2.2550001 1.077 0.81800002 82 16 0
2.2449999 1.076 0.81999999 88 16 0
2.2420001 1.0779999 0.82499999 83 16 0
2.237 1.079 0.82800001 84 16 0
2.2279999 1.0779999 0.82999998 77 16 0
2.22 1.077 0.833 79 16 0
2.217 1.0779999 0.83700001 77 16 0
2.21 1.0779999 0.83999997 75 16 0
2.2 1.076 0.84100002 79 16 0
2.194 1.076 0.84500003 72 16 0
2.1860001 1.075 0.847 72 16 0
2.181 1.075 0.85000002 78 16 0
2.175 1.075 0.85299999 75 16 0
2.1689999 1.074 0.85600001 79 16 0
2.1630001 1.074 0.85900003 79 16 0
2.1570001 1.074 0.86199999 75 16 0
2.1530001 1.074 0.86500001 74 16 0
2.1429999 1.071 0.866 85 16 0
2.138 1.071 0.86900002 78 16 0
2.132 1.0700001 0.87199998 87 16 0
2.1259999 1.069 0.87400001 84 16 0
2.119 1.067 0.87599999 81 16 0
2.119 1.069 0.88099998 77 16 0
2.1099999 1.066 0.88200003 83 16 0
2.1040001 1.0650001 0.884 85 16 0
2.0999999 1.064 0.88700002 87 16 0
2.095 1.063 0.88999999 88 16 0
2.089 1.061 0.89200002 85 16 0
2.082 1.059 0.89399999 80 16 0
2.0780001 1.058 0.89600003 83 16 0
2.075 1.058 0.89899999 79 16 0
2.073 1.058 0.903 83 16 0
2.066 1.056 0.90399998 86 16 0
2.0569999 1.052 0.90499997 84 16 0
2.056 1.052 0.90799999 102 16 0
2.052 1.05 0.91100001 110 16 0
2.0469999 1.049 0.91299999 107 16 0
2.04 1.046 0.91399997 109 16 0
2.036 1.044 0.91600001 103 16 0
2.033 1.043 0.91900003 117 16 0
2.026 1.04 0.91900003 101 16 0
2.0239999 1.039 0.92199999 99 16 0
2.0209999 1.0369999 0.92400002 102 16 0
2.0150001 1.034 0.92500001 95 16 0
2.013 1.033 0.92799997 98 16 0
2.007 1.03 0.92900002 100 16 0
2.003 1.028 0.93099999 106 16 0
1.998 1.025 0.93199998 101 16 0
1.992 1.022 0.93199998 89 16 0
1.994 1.022 0.93699998 82 16 0
1.99 1.0190001 0.93800002 82 16 0
1.9809999 1.0140001 0.93699998 84 16 0
1.9809999 1.013 0.94 89 16 0
1.98 1.012 0.94300002 83 16 0
1.977 1.01 0.94400001 87 16 0
1.972 1.006 0.94499999 100 16 0
1.971 1.005 0.94700003 100 16 0
1.967 1.002 0.94800001 94 16 0
1.967 1 0.94999999 101 16 0
1.9630001 0.99699998 0.95099998 95 16 0
1.957 0.99299997 0.95099998 107 16 0
1.951 0.98799998 0.94999999 99 16 0
1.95 0.986 0.95200002 92 16 0
1.948 0.98299998 0.95300001 90 16 0
1.948 0.98199999 0.95499998 93 16 0
1.947 0.97899997 0.95700002 94 16 0
1.944 0.97600001 0.958 97 16 0
1.944 0.97500002 0.95999998 99 16 0
1.939 0.97000003 0.95899999 99 16 0
1.937 0.96700001 0.95999998 103 16 0
1.9349999 0.96399999 0.96100003 103 16 0
1.936 0.96200001 0.963 105 16 0
1.933 0.958 0.963 104 16 0
1.932 0.95499998 0.96399999 108 16 0
1.929 0.95200002 0.96399999 104 16 0
1.926 0.94800001 0.96399999 107 16 0
1.927 0.94499999 0.96600002 107 16 0
1.926 0.94199997 0.96700001 109 16 0
1.924 0.93900001 0.96700001 108 16 0
1.925 0.93599999 0.96799999 108 16 0
1.921 0.93199998 0.96700001 106 16 0
1.915 0.926 0.96499997 107 16 0
1.918 0.92400002 0.96700001 109 16 0
1.915 0.92000002 0.96600002 111 16 0
1.9170001 0.91799998 0.96799999 110 16 0
1.918 0.91500002 0.96899998 114 16 0
1.916 0.91100001 0.96899998 117 16 0
1.916 0.90799999 0.96899998 110 16 0
1.918 0.90499997 0.97000003 115 16 0
1.919 0.903 0.97100002 109 16 0
1.9170001 0.898 0.97000003 115 16 0
1.916 0.89399999 0.97000003 122 16 0
1.915 0.88999999 0.96899998 115 16 0
1.92 0.889 0.972 119 16 0
1.919 0.88499999 0.97100002 114 16 0
1.916 0.88 0.96899998 116 16 0
1.915 0.875 0.96799999 120 16 0
1.92 0.87400001 0.97100002 120 16 0
1.9170001 0.86900002 0.96899998 118 16 0
1.92 0.866 0.97000003 123 16 0
1.92 0.86199999 0.96899998 128 16 0
1.9220001 0.85900003 0.96899998 135 16 0
1.923 0.85600001 0.96899998 126 16 0
1.924 0.852 0.96799999 125 16 0
1.925 0.84899998 0.96799999 130 16 0
1.9220001 0.84299999 0.96600002 138 16 0
1.929 0.84200001 0.96799999 134 16 0
1.9299999 0.838 0.96700001 132 16 0
1.926 0.83200002 0.96399999 133 16 0
1.926 0.82800001 0.963 134 16 0
1.931 0.82599998 0.96399999 140 16 0
1.9299999 0.82099998 0.96200001 137 16 0
1.933 0.81800002 0.96200001 135 16 0
1.9349999 0.81400001 0.96100003 139 16 0
1.939 0.81099999 0.96200001 138 16 0
1.941 0.80699998 0.96100003 141 16 0
1.941 0.80299997 0.95899999 149 16 0
1.9450001 0.80000001 0.95899999 150 16 0
1.943 0.79500002 0.95599997 148 16 0
1.949 0.792 0.95700002 136 16 0
1.949 0.78799999 0.95499998 129 16 0
1.955 0.78500003 0.95599997 140 16 0
1.955 0.77999997 0.954 125 16 0
1.957 0.77700001 0.95200002 131 16 0
1.96 0.773 0.95099998 125 16 0
1.962 0.76899999 0.94999999 116 16 0
1.964 0.76499999 0.94800001 111 16 0
1.966 0.76099998 0.94700003 105 16 0
1.971 0.75800002 0.94700003 120 16 0
1.979 0.75599998 0.94800001 125 16 0
1.98 0.75099999 0.94499999 126 16 0
1.979 0.74599999 0.94199997 127 16 0
1.98 0.74199998 0.94 124 16 0
1.989 0.74000001 0.94099998 125 16 0
1.992 0.736 0.94 125 16 0
1.994 0.73100001 0.93699998 127 16 0
1.997 0.72799999 0.93599999 132 16 0
2.0020001 0.72399998 0.935 133 16 0
2.0020001 0.71899998 0.93199998 125 16 0
2.007 0.71600002 0.93099999 139 16 0
2.0090001 0.71200001 0.92799997 142 16 0
2.016 0.70899999 0.92799997 131 16 0
2.023 0.70599997 0.92799997 140 16 0
2.026 0.70200002 0.92500001 135 16 0
2.027 0.69700003 0.92199999 125 16 0
2.0339999 0.69499999 0.92199999 137 16 0
2.0380001 0.69099998 0.92000002 139 16 0
2.04 0.68599999 0.917 128 16 0
2.0439999 0.68199998 0.91500002 139 16 0
2.0480001 0.67900002 0.91299999 124 16 0
2.049 0.67400002 0.91000003 129 16 0
2.0569999 0.671 0.90899998 128 16 0
2.0599999 0.667 0.90700001 128 16 0
2.0650001 0.66299999 0.90499997 143 16 0
2.066 0.65799999 0.90100002 142 16 0
2.0780001 0.65700001 0.90200001 140 16 0
2.0840001 0.65399998 0.89999998 133 16 0
2.0869999 0.64899999 0.898 146 16 0
2.0929999 0.64600003 0.89600003 148 16 0
2.096 0.64200002 0.89300001 142 16 0
2.108 0.63999999 0.89300001 145 16 0
2.1110001 0.63499999 0.88999999 149 16 0
2.115 0.63099998 0.88700002 138 16 0
2.118 0.62699997 0.884 129 16 0
2.1259999 0.62400001 0.88300002 132 16 0
2.132 0.62 0.88 131 16 0
2.1359999 0.616 0.87800002 127 16 0
2.141 0.61199999 0.875 127 16 0
2.1440001 0.60799998 0.87099999 143 16 0
2.152 0.60500002 0.86900002 150 16 0
2.1570001 0.60100001 0.86699998 150 16 0
2.161 0.597 0.86299998 149 16 0
2.171 0.59399998 0.86199999 132 16 0
2.1819999 0.59200001 0.86199999 144 16 0
2.184 0.58700001 0.85699999 141 16 0
2.1900001 0.58399999 0.85500002 145 16 0
2.1960001 0.57999998 0.852 150 16 0
2.201 0.57599998 0.84899998 125 16 0
2.211 0.57300001 0.847 139 16 0
2.2179999 0.56999999 0.84500003 132 16 0
2.221 0.565 0.84100002 135 16 0
2.2260001 0.56099999 0.83700001 125 16 0
2.2390001 0.55900002 0.83600003 134 16 0
2.244 0.55500001 0.833 133 16 0
2.253 0.55199999 0.83099997 116 16 0
2.2590001 0.54799998 0.82700002 129 16 0
2.2650001 0.54400003 0.824 124 16 0
2.2750001 0.54100001 0.82200003 121 16 0
2.28 0.537 0.81800002 121 16 0
2.2869999 0.53299999 0.815 124 16 0
2.2980001 0.53100002 0.81300002 127 16 0
2.3 0.52600002 0.80800003 97 16 0
2.309 0.523 0.80500001 103 16 0
2.3169999 0.51899999 0.80199999 103 16 0
2.326 0.51599997 0.80000001 105 16 0
2.329 0.51099998 0.79500002 94 16 0
2.3399999 0.50800002 0.792 99 16 0
2.3429999 0.50400001 0.787 110 16 0
2.3510001 0.5 0.78399998 114 16 0
2.3629999 0.49700001 0.78200001 94 16 0
2.375 0.495 0.77999997 98 16 0
2.378 0.49000001 0.77499998 102 16 0
2.385 0.486 0.77100003 93 16 0
2.392 0.48199999 0.76700002 101 16 0
2.3959999 0.47799999 0.76200002 87 16 0
2.4089999 0.47499999 0.75999999 99 16 0
2.4189999 0.472 0.75700003 99 16 0
2.4300001 0.46900001 0.75400001 97 16 0
2.438 0.465 0.75 92 16 0
2.4400001 0.46000001 0.74400002 92 16 0
2.4590001 0.458 0.74299997 97 16 0
2.467 0.45500001 0.73900002 87 16 0
2.473 0.44999999 0.73400003 92 16 0
2.4760001 0.44600001 0.72899997 84 16 0
2.493 0.44400001 0.727 79 16 0
2.4990001 0.43900001 0.722 88 16 0
2.5120001 0.43700001 0.71899998 84 16 0
2.5209999 0.433 0.71499997 65 16 0
2.53 0.42899999 0.70999998 69 16 0
2.539 0.42500001 0.70599997 66 16 0
2.5450001 0.421 0.70099998 57 16 0
2.556 0.41800001 0.69700003 70 16 0
2.563 0.414 0.69199997 59 16 0
2.586 0.412 0.69099998 64 16 0
2.5929999 0.40799999 0.68599999 59 16 0
2.6010001 0.40400001 0.68099999 49 16 0
2.6099999 0.40000001 0.676 47 16 0
2.622 0.39700001 0.67199999 53 16 0
2.632 0.39300001 0.66799998 50 16 0
2.6400001 0.389 0.66299999 54 16 0
2.6530001 0.38600001 0.65899998 51 16 0
2.6600001 0.38100001 0.653 48 16 0
2.6659999 0.377 0.64700001 45 16 0
2.681 0.37400001 0.64399999 46 16 0
2.6919999 0.37 0.639 39 16 0
2.7030001 0.36700001 0.634 39 16 0
2.711 0.36199999 0.62800002 44 16 0
2.723 0.359 0.62400001 39 16 0
2.7409999 0.35600001 0.62 37 16 0
2.75 0.352 0.61500001 38 16 0
2.757 0.34799999 0.60900003 38 16 0
2.7690001 0.34400001 0.60399997 38 16 0
2.783 0.34099999 0.59899998 38 16 0
2.793 0.33700001 0.59299999 37 16 0
2.806 0.333 0.588 36 16 0
2.819 0.329 0.583 36 16 0
2.8310001 0.32499999 0.57800001 37 16 0
2.8440001 0.322 0.57300001 37 16 0
2.859 0.31799999 0.56800002 38 16 0
2.868 0.31400001 0.56099999 37 16 0
2.8800001 0.31 0.55599999 36 16 0
2.8929999 0.30599999 0.55000001 37 16 0
2.908 0.303 0.54500002 38 16 0
2.9230001 0.29899999 0.54000002 37 16 0
2.931 0.294 0.53299999 36 16 0
2.944 0.29100001 0.52700001 37 16 0
2.9560001 0.28600001 0.52100003 37 16 0
2.973 0.28299999 0.51499999 38 16 0
2.9820001 0.278 0.509 38 16 0
2.993 0.27399999 0.50199997 37 16 0
3.0139999 0.271 0.49700001 38 16 0
3.026 0.26699999 0.491 35 16 0
3.0450001 0.26300001 0.48500001 35 16 0
3.062 0.259 0.479 31 16 0
3.073 0.255 0.472 30 16 0
3.092 0.25099999 0.46700001 29 16 0
3.1070001 0.24699999 0.46000001 32 16 0
3.1170001 0.243 0.45300001 31 16 0
3.1389999 0.23899999 0.447 32 16 0
3.1559999 0.235 0.44100001 33 16 0
3.168 0.23100001 0.433 33 16 0
3.187 0.227 0.42699999 33 16 0
3.198 0.222 0.41999999 32 16 0
3.221 0.219 0.41299999 33 16 0
3.233 0.214 0.40599999 32 16 0
3.2479999 0.20999999 0.398 32 16 0
3.267 0.206 0.391 32 16 0
3.2839999 0.20100001 0.384 39 16 0
3.296 0.197 0.37599999 131 16 0
3.2909999 0.191 0.366 150 16 0
3.2950001 0.186 0.35699999 135 16 0
3.286 0.18000001 0.347 132 16 0
3.2869999 0.175 0.338 129 16 0
3.286 0.17 0.32800001 125 16 0
3.2869999 0.16500001 0.31900001 134 16 0
3.2869999 0.15899999 0.31 117 16 0
3.2880001 0.154 0.30000001 122 16 0
3.283 0.149 0.29100001 142 16 0
3.2820001 0.14399999 0.28099999 114 16 0
3.2820001 0.139 0.27200001 131 16 0
3.279 0.133 0.26199999 147 16 0
3.277 0.12800001 0.25299999 133 16 0
3.2780001 0.123 0.243 128 16 0
3.277 0.118 0.234 136 16 0
3.2720001 0.113 0.22400001 149 16 0
3.2690001 0.108 0.214 139 16 0
3.267 0.103 0.205 143 16 0
3.263 0.097999997 0.19499999 148 16 0
3.2639999 0.093000002 0.186 139 16 0
3.2639999 0.088 0.176 127 16 0
3.2650001 0.082999997 0.167 131 16 0
3.2620001 0.078000002 0.15800001 134 16 0
3.2609999 0.072999999 0.148 131 16 0
3.256 0.068000004 0.138 143 16 0
3.2579999 0.064000003 0.12899999 90 16 0
3.2679999 0.059 0.12 36 16 0
3.2850001 0.055 0.111 27 16 0
3.3139999 0.050000001 0.103 30 16 0
3.329 0.046 0.093000002 21 16 0
3.346 0.041000001 0.083999999 15 16 0
3.358 0.035999998 0.075000003 31 16 0
3.3599999 0.030999999 0.064999998 50 16 0
3.3559999 0.027000001 0.055 45 16 0
3.3440001 0.022 0.045000002 27 16 0
3.3329999 0.017000001 0.035 19 16 0
3.3139999 0.012 0.026000001 17 16 0
3.3039999 0.0070000002 0.016000001 17 16 0
3.2909999 0.003 0.0060000001 17 16 0
3.2739999 -0.001 -0.0020000001 15 16 0
3.257 -0.0049999999 -0.012 16 16 0
3.2479999 -0.0099999998 -0.021 17 16 0
3.2320001 -0.014 -0.030999999 21 16 0
3.223 -0.018999999 -0.039999999 35 16 0
3.2279999 -0.023 -0.050000001 65 16 0
3.2149999 -0.028000001 -0.059 92 16 0
3.217 -0.032000002 -0.068000004 107 16 0
3.2160001 -0.035999998 -0.078000002 119 16 0
3.2149999 -0.041000001 -0.086999997 126 16 0
3.214 -0.045000002 -0.096000001 114 16 0
3.214 -0.048999999 -0.106 121 16 0
3.211 -0.054000001 -0.115 123 16 0
3.2049999 -0.057999998 -0.125 142 16 0
3.207 -0.061999999 -0.134 150 16 0
3.2030001 -0.066 -0.14300001 150 16 0
3.198 -0.07 -0.153 102 16 0
3.194 -0.075000003 -0.162 45 16 0
3.1800001 -0.078000002 -0.171 28 16 0
3.174 -0.082000002 -0.18000001 26 16 0
3.155 -0.086000003 -0.18799999 25 16 0
3.141 -0.090000004 -0.197 25 16 0
3.128 -0.093000002 -0.205 24 16 0
3.119 -0.097000003 -0.214 24 16 0
3.108 -0.101 -0.222 24 16 0
3.096 -0.104 -0.23100001 24 16 0
3.086 -0.108 -0.23899999 24 16 0
3.073 -0.111 -0.24699999 24 16 0
3.0669999 -0.115 -0.25600001 24 16 0
3.05 -0.118 -0.264 24 16 0
3.0380001 -0.122 -0.27200001 24 16 0
3.0320001 -0.125 -0.28099999 25 16 0
3.017 -0.12800001 -0.28799999 24 16 0
2.9960001 -0.131 -0.29499999 24 16 0
2.9909999 -0.13500001 -0.30399999 24 16 0
2.983 -0.138 -0.31200001 24 16 0
2.974 -0.141 -0.31999999 26 16 0
2.96 -0.14399999 -0.32699999 26 16 0
2.9530001 -0.147 -0.336 26 16 0
2.9419999 -0.15000001 -0.34299999 25 16 0
2.937 -0.154 -0.352 26 16 0
2.9219999 -0.156 -0.359 26 16 0
2.9089999 -0.15899999 -0.366 25 16 0
2.905 -0.162 -0.37400001 26 16 0
2.895 -0.16500001 -0.382 27 16 0
2.8829999 -0.168 -0.389 27 16 0
2.878 -0.171 -0.39700001 26 16 0
2.868 -0.17399999 -0.405 26 16 0
2.8570001 -0.176 -0.412 26 16 0
2.846 -0.17900001 -0.419 26 16 0
2.8410001 -0.182 -0.42699999 26 16 0
2.8310001 -0.185 -0.43399999 26 16 0
2.8199999 -0.18700001 -0.44100001 26 16 0
2.8139999 -0.19 -0.449 25 16 0
2.8010001 -0.192 -0.456 25 16 0
2.7969999 -0.19499999 -0.46399999 26 16 0
2.783 -0.197 -0.47 24 16 0
2.7750001 -0.2 -0.477 25 16 0
2.7690001 -0.20200001 -0.48500001 25 16 0
2.7609999 -0.205 -0.49200001 25 16 0
2.757 -0.207 -0.5 25 16 0
2.747 -0.20999999 -0.50700003 25 16 0
2.7360001 -0.212 -0.51300001 25 16 0
2.7279999 -0.214 -0.51999998 26 16 0
2.724 -0.21699999 -0.528 27 16 0
2.7160001 -0.219 -0.53500003 26 16 0
2.7090001 -0.221 -0.542 26 16 0
2.6949999 -0.223 -0.54799998 27 16 0
2.6919999 -0.226 -0.55599999 25 16 0
2.6849999 -0.228 -0.56300002 26 16 0
2.677 -0.23 -0.56999999 26 16 0
2.6760001 -0.23199999 -0.57800001 28 16 0
2.664 -0.234 -0.58399999 26 16 0
2.661 -0.237 -0.59200001 26 16 0
2.654 -0.23899999 -0.59899998 27 16 0
2.642 -0.23999999 -0.60399997 26 16 0
2.6370001 -0.242 -0.61199999 26 16 0
2.6270001 -0.244 -0.61799997 25 16 0
2.619 -0.24600001 -0.62400001 26 16 0
2.615 -0.248 -0.63200003 25 16 0
2.6099999 -0.25 -0.639 26 16 0
2.605 -0.252 -0.64600003 25 16 0
2.595 -0.25400001 -0.65200001 28 16 0
2.5899999 -0.255 -0.65899998 28 16 0
2.5810001 -0.257 -0.66500002 30 16 0
2.5699999 -0.25799999 -0.67000002 30 16 0
2.5680001 -0.25999999 -0.67799997 31 16 0
2.562 -0.26199999 -0.685 35 16 0
2.556 -0.264 -0.69199997 35 16 0
2.5480001 -0.26499999 -0.69800001 35 16 0
2.5420001 -0.26699999 -0.704 34 16 0
2.5350001 -0.26800001 -0.71100003 34 16 0
2.5280001 -0.27000001 -0.71700001 32 16 0
2.5239999 -0.27200001 -0.72399998 34 16 0
2.517 -0.273 -0.73000002 34 16 0
2.5150001 -0.27500001 -0.73799998 34 16 0
2.5079999 -0.27599999 -0.74400002 38 16 0
2.5 -0.27700001 -0.75 34 16 0
2.4960001 -0.27900001 -0.75700003 35 16 0
2.487 -0.28 -0.76200002 34 16 0
2.483 -0.28200001 -0.76899999 37 16 0
2.48 -0.28299999 -0.77700001 36 16 0
2.474 -0.285 -0.78299999 34 16 0
2.4649999 -0.285 -0.78799999 37 16 0
2.4630001 -0.287 -0.796 37 16 0
2.4549999 -0.28799999 -0.801 36 16 0
2.4519999 -0.28999999 -0.80900002 33 16 0
2.444 -0.28999999 -0.81400001 36 16 0
2.441 -0.292 -0.82099998 33 16 0
2.4330001 -0.29300001 -0.82599998 32 16 0
2.431 -0.294 -0.83399999 36 16 0
2.427 -0.29499999 -0.83999997 33 16 0
2.421 -0.296 -0.84600002 34 16 0
2.418 -0.29800001 -0.85299999 40 16 0
2.408 -0.29800001 -0.85799998 34 16 0
2.405 -0.29899999 -0.86500001 34 16 0
2.402 -0.30000001 -0.87199998 37 16 0
2.3940001 -0.301 -0.87699997 39 16 0
2.391 -0.30199999 -0.884 39 16 0
2.3840001 -0.303 -0.889 38 16 0
2.381 -0.30399999 -0.89600003 40 16 0
2.3740001 -0.30399999 -0.90200001 36 16 0
2.3740001 -0.30500001 -0.90899998 40 16 0
2.3670001 -0.30599999 -0.91500002 38 16 0
2.3629999 -0.30700001 -0.921 38 16 0
2.3599999 -0.308 -0.92799997 38 16 0
2.3570001 -0.30899999 -0.935 34 16 0
2.3540001 -0.30899999 -0.94199997 52 16 0
2.349 -0.31 -0.94700003 61 16 0
2.348 -0.31099999 -0.95499998 54 16 0
2.342 -0.31099999 -0.95999998 55 16 0
2.336 -0.31200001 -0.96600002 54 16 0
2.332 -0.31200001 -0.972 58 16 0
2.3310001 -0.31299999 -0.97899997 57 16 0
2.322 -0.31299999 -0.98400003 62 16 0
2.3199999 -0.31400001 -0.991 58 16 0
2.316 -0.31400001 -0.99599999 49 16 0
2.3139999 -0.315 -1.0039999 55 16 0
2.3099999 -0.315 -1.0089999 52 16 0
2.3069999 -0.315 -1.016 55 16 0
2.3050001 -0.31600001 -1.023 62 16 0
2.302 -0.31600001 -1.029 56 16 0
2.296 -0.31600001 -1.034 63 16 0
2.2920001 -0.317 -1.04 59 16 0
2.2920001 -0.317 -1.048 55 16 0
2.289 -0.317 -1.054 53 16 0
2.2820001 -0.317 -1.059 62 16 0
2.2809999 -0.317 -1.066 49 16 0
2.2780001 -0.31799999 -1.072 49 16 0
2.273 -0.317 -1.077 57 16 0
2.2750001 -0.31799999 -1.086 65 16 0
2.2720001 -0.31799999 -1.092 50 16 0
2.2690001 -0.31799999 -1.098 49 16 0
2.267 -0.31799999 -1.104 53 16 0
2.26 -0.31799999 -1.108 44 16 0
2.2609999 -0.31799999 -1.1160001 56 16 0
2.2579999 -0.31799999 -1.122 50 16 0
2.2539999 -0.317 -1.128 47 16 0
2.2520001 -0.317 -1.1339999 47 16 0
2.2539999 -0.31799999 -1.143 71 16 0
2.25 -0.317 -1.148 69 16 0
2.2479999 -0.317 -1.154 71 16 0
2.2449999 -0.317 -1.16 75 16 0
2.243 -0.31600001 -1.166 71 16 0
2.2420001 -0.31600001 -1.173 74 16 0
2.2390001 -0.31600001 -1.179 72 16 0
2.237 -0.315 -1.1849999 65 16 0
2.234 -0.315 -1.1900001 70 16 0
2.237 -0.315 -1.199 67 16 0
2.234 -0.31400001 -1.204 64 16 0
2.2279999 -0.31299999 -1.2079999 53 16 0
2.2279999 -0.31299999 -1.215 67 16 0
2.2279999 -0.31299999 -1.222 57 16 0
2.227 -0.31200001 -1.228 68 16 0
2.2249999 -0.31099999 -1.234 67 16 0
2.2219999 -0.31 -1.24 66 16 0
2.223 -0.31 -1.247 66 16 0
2.2190001 -0.30899999 -1.251 63 16 0
2.2219999 -0.30899999 -1.26 74 16 0
2.224 -0.308 -1.268 71 16 0
2.2249999 -0.308 -1.275 67 16 0
2.2179999 -0.30599999 -1.277 60 16 0
2.22 -0.30599999 -1.285 65 16 0
2.2190001 -0.30500001 -1.291 57 16 0
2.221 -0.30399999 -1.299 59 16 0
2.217 -0.303 -1.303 60 16 0
2.217 -0.30199999 -1.309 53 16 0
2.214 -0.30000001 -1.314 54 16 0
2.2119999 -0.29899999 -1.319 54 16 0
2.217 -0.29899999 -1.3279999 53 16 0
2.214 -0.29699999 -1.332 52 16 0
2.2179999 -0.296 -1.341 49 16 0
2.2190001 -0.29499999 -1.348 51 16 0
2.2190001 -0.294 -1.354 52 16 0
2.217 -0.29300001 -1.358 49 16 0
2.2190001 -0.292 -1.365 46 16 0
2.2190001 -0.28999999 -1.3710001 44 16 0
2.221 -0.289 -1.378 48 16 0
2.22 -0.28799999 -1.383 43 16 0
2.224 -0.287 -1.392 46 16 0
2.22 -0.285 -1.3940001 42 16 0
2.2249999 -0.28400001 -1.403 49 16 0
2.2219999 -0.28200001 -1.4069999 45 16 0
2.223 -0.28 -1.4119999 45 16 0
2.224 -0.27900001 -1.418 37 16 0
2.2219999 -0.27700001 -1.4220001 41 16 0
2.2279999 -0.27500001 -1.431 35 16 0
2.227 -0.27399999 -1.436 35 16 0
2.2320001 -0.27200001 -1.444 36 16 0
2.2320001 -0.27000001 -1.449 35 16 0
2.2309999 -0.26800001 -1.4529999 36 16 0
2.2349999 -0.26699999 -1.46 36 16 0
2.237 -0.26499999 -1.467 36 16 0
2.2360001 -0.26300001 -1.47 36 16 0
2.2390001 -0.26100001 -1.476 35 16 0
2.244 -0.259 -1.484 35 16 0
2.2449999 -0.257 -1.489 35 16 0
2.247 -0.255 -1.495 35 16 0
2.2479999 -0.25299999 -1.5 34 16 0
2.2509999 -0.25099999 -1.505 35 16 0
2.256 -0.249 -1.513 34 16 0
2.2550001 -0.24699999 -1.516 35 16 0
2.2550001 -0.244 -1.52 34 16 0
2.2579999 -0.242 -1.525 33 16 0
2.2590001 -0.23999999 -1.529 33 16 0
2.257 -0.237 -1.5319999 32 16 0
2.27 -0.236 -1.544 34 18 0
2.27 -0.233 -1.5470001 33 16 0
2.2709999 -0.23 -1.551 32 16 0
2.2739999 -0.228 -1.556 33 16 0
2.277 -0.226 -1.561 35 16 0
2.2820001 -0.223 -1.567 35 16 0
2.286 -0.221 -1.572 33 16 0
2.2880001 -0.21799999 -1.576 34 16 0
2.2920001 -0.21600001 -1.582 33 16 0
2.2950001 -0.213 -1.586 32 16 0
2.299 -0.211 -1.591 34 16 0
2.3010001 -0.208 -1.594 34 16 0
2.309 -0.206 -1.602 33 19 0
2.313 -0.20299999 -1.6059999 33 16 0
2.312 -0.2 -1.608 31 16 0
2.319 -0.197 -1.614 32 16 0
2.322 -0.19499999 -1.617 32 16 0
2.325 -0.192 -1.6210001 32 16 0
2.332 -0.189 -1.627 32 16 0
2.3340001 -0.186 -1.63 32 16 0
2.3429999 -0.184 -1.637 32 19 0
2.348 -0.18099999 -1.641 33 16 0
2.352 -0.178 -1.645 33 16 0
2.355 -0.175 -1.648 32 16 0
2.3599999 -0.17200001 -1.651 32 16 0
2.369 -0.169 -1.658 32 16 0
2.3670001 -0.16599999 -1.6569999 31 16 0
2.3759999 -0.163 -1.664 32 19 0
2.3800001 -0.16 -1.6670001 32 16 0
2.3859999 -0.15700001 -1.67 31 16 0
2.391 -0.154 -1.673 31 16 0
2.4030001 -0.15099999 -1.681 32 16 0
2.3989999 -0.147 -1.678 31 16 0
2.4070001 -0.14399999 -1.683 31 16 0
2.4189999 -0.142 -1.6900001 33 16 0
2.4170001 -0.138 -1.688 32 16 0
2.425 -0.13500001 -1.693 32 16 0
2.4360001 -0.132 -1.699 33 16 0
2.4400001 -0.12899999 -1.701 33 16 0
2.444 -0.125 -1.702 33 16 0
2.45 -0.122 -1.705 33 16 0
2.457 -0.119 -1.707 32 16 0
2.4630001 -0.116 -1.71 32 16 0
2.471 -0.112 -1.714 33 16 0
2.4790001 -0.109 -1.717 32 16 0
2.483 -0.106 -1.717 33 16 0
2.49 -0.103 -1.719 35 16 0
2.4890001 -0.098999999 -1.716 42 16 0
2.503 -0.096000001 -1.723 99 19 0
2.5090001 -0.093000002 -1.725 150 16 0
2.51 -0.089000002 -1.722 150 16 0
2.5050001 -0.085000001 -1.716 150 16 0
2.51 -0.082000002 -1.716 150 16 0
2.5079999 -0.079000004 -1.711 150 16 0
2.51 -0.075000003 -1.709 150 16 0
2.5120001 -0.071999997 -1.706 150 16 0
2.5039999 -0.068000004 -1.698 150 16 0
2.5050001 -0.064000003 -1.6950001 150 16 0
2.5050001 -0.061000001 -1.691 150 16 0
2.5009999 -0.057999998 -1.684 150 16 0
2.506 -0.054000001 -1.683 150 16 0
2.5079999 -0.050999999 -1.6799999 150 16 0
2.506 -0.048 -1.674 116 16 0
2.5050001 -0.044 -1.669 60 16 0
2.5079999 -0.041000001 -1.666 34 16 0
2.5109999 -0.037999999 -1.664 26 16 0
2.5190001 -0.034000002 -1.664 22 16 0
2.5280001 -0.030999999 -1.665 21 16 0
2.5350001 -0.028000001 -1.665 22 16 0
2.5380001 -0.025 -1.661 21 16 0
2.5510001 -0.022 -1.665 22 16 0
2.5569999 -0.018999999 -1.663 22 16 0
2.5650001 -0.016000001 -1.663 23 16 0
2.5680001 -0.013 -1.659 24 16 0
2.572 -0.0089999996 -1.656 25 16 0
2.589 -0.0060000001 -1.661 29 19 0
2.5969999 -0.003 -1.66 39 16 0
2.602 0 -1.658 63 16 0
2.6040001 0.0020000001 -1.653 106 16 0
2.6040001 0.0049999999 -1.646 150 16 0
2.602 0.0080000004 -1.6390001 150 16 0
2.5999999 0.011 -1.631 150 16 0
2.602 0.013 -1.626 150 16 0
2.6029999 0.016000001 -1.62 150 16 0
2.6059999 0.018999999 -1.615 150 16 0
2.6070001 0.022 -1.609 148 16 0
2.6110001 0.025 -1.605 128 16 0
2.6070001 0.027000001 -1.595 101 16 0
2.6140001 0.029999999 -1.5930001 102 16 0
2.6129999 0.033 -1.585 107 16 0
2.6159999 0.035999998 -1.58 132 16 0
2.618 0.037999999 -1.574 150 16 0
2.6199999 0.041000001 -1.568 150 16 0
2.6240001 0.043000001 -1.563 150 16 0
2.6240001 0.046 -1.5549999 150 16 0
2.618 0.048 -1.545 150 16 0
2.6270001 0.050999999 -1.5420001 150 16 0
2.625 0.052999999 -1.533 150 16 0
2.632 0.056000002 -1.529 150 16 0
2.635 0.057999998 -1.524 150 16 0
2.6359999 0.059999999 -1.516 150 16 0
2.6340001 0.061999999 -1.507 150 16 0
2.6370001 0.064999998 -1.501 150 16 0
2.6359999 0.067000002 -1.493 150 16 0
2.6400001 0.068999998 -1.487 150 16 0
2.6429999 0.071000002 -1.4809999 150 16 0
2.645 0.072999999 -1.474 150 16 0
2.6470001 0.075000003 -1.467 150 16 0
2.6489999 0.077 -1.46 150 16 0
2.6500001 0.079000004 -1.452 150 16 0
2.6530001 0.081 -1.4450001 150 16 0
2.655 0.082999997 -1.438 150 16 0
2.6570001 0.085000001 -1.431 150 16 0
2.6570001 0.086999997 -1.423 150 16 0
2.661 0.089000002 -1.416 150 16 0
2.664 0.090999998 -1.409 150 16 0
2.661 0.092 -1.399 150 16 0
2.6700001 0.093999997 -1.395 150 16 0
2.668 0.096000001 -1.386 150 16 0
2.675 0.097000003 -1.38 150 16 0
2.675 0.098999999 -1.372 150 16 0
2.6789999 0.1 -1.365 150 16 0
2.6819999 0.102 -1.358 150 16 0
2.681 0.103 -1.349 150 16 0
2.6849999 0.105 -1.342 150 16 0
2.687 0.106 -1.334 150 16 0
2.6949999 0.108 -1.329 150 16 0
2.6949999 0.109 -1.321 150 16 0
2.6989999 0.111 -1.313 150 16 0
2.7 0.112 -1.3049999 150 16 0
2.701 0.113 -1.296 150 16 0
2.7049999 0.114 -1.289 150 16 0
2.7119999 0.116 -1.283 150 16 0
2.71 0.117 -1.273 150 16 0
2.717 0.118 -1.268 150 16 0
2.7219999 0.119 -1.261 150 16 0
2.724 0.12 -1.252 150 16 0
2.721 0.121 -1.242 150 16 0
2.724 0.122 -1.234 150 16 0
2.7279999 0.123 -1.227 150 16 0
2.7309999 0.124 -1.219 150 16 0
2.734 0.125 -1.211 150 16 0
2.744 0.126 -1.206 150 16 0
2.7409999 0.126 -1.196 150 16 0
2.744 0.127 -1.187 150 16 0
2.747 0.12800001 -1.179 150 16 0
2.7509999 0.12899999 -1.1720001 150 16 0
2.7520001 0.12899999 -1.163 150 16 0
2.76 0.13 -1.1569999 150 16 0
2.7650001 0.131 -1.15 150 16 0
2.766 0.131 -1.141 150 16 0
2.7679999 0.132 -1.132 150 16 0
2.77 0.133 -1.123 150 16 0
2.773 0.133 -1.115 150 16 0
2.776 0.133 -1.107 150 16 0
2.7809999 0.134 -1.099 54 16 0
2.796 0.13500001 -1.096 11 16 0
2.809 0.13600001 -1.091 5 16 0
2.8169999 0.13600001 -1.085 4 16 0
2.819 0.13699999 -1.076 4 16 0
2.825 0.13699999 -1.069 4 16 0
2.8329999 0.138 -1.062 3 16 0
2.8399999 0.138 -1.0549999 3 16 0
2.848 0.139 -1.048 3 16 0
2.855 0.139 -1.041 3 16 0
2.855 0.139 -1.031 3 16 0
2.8340001 0.138 -1.0140001 14 16 0
2.8199999 0.13699999 -1 76 16 0
2.8280001 0.13699999 -0.99299997 150 16 0
2.8329999 0.13699999 -0.98500001 150 16 0
2.8340001 0.13699999 -0.97500002 150 16 0
2.839 0.13699999 -0.96700001 150 16 0
2.842 0.13699999 -0.95899999 150 16 0
2.8469999 0.13699999 -0.95099998 150 16 0
2.852 0.13699999 -0.94300002 150 16 0
2.8529999 0.13699999 -0.93400002 150 16 0
2.8559999 0.13699999 -0.92500001 150 16 0
2.8610001 0.13699999 -0.917 150 16 0
2.865 0.13699999 -0.90799999 150 16 0
2.868 0.13600001 -0.89899999 150 16 0
2.869 0.13600001 -0.88999999 150 16 0
2.8729999 0.13600001 -0.88200003 150 16 0
2.882 0.13500001 -0.87400001 150 16 0
2.8870001 0.13500001 -0.866 150 16 0
2.885 0.13500001 -0.85600001 150 16 0
2.892 0.134 -0.84899998 150 16 0
2.895 0.134 -0.83899999 150 16 0
2.902 0.134 -0.83200002 150 16 0
2.904 0.133 -0.82300001 150 16 0
2.911 0.133 -0.815 150 16 0
2.9100001 0.132 -0.80500001 150 16 0
