# .PCD v0.7 - Point Cloud Data file format
VERSION 0.7
FIELDS x y z intensity tag line
SIZE 4 4 4 4 1 1
TYPE F F F F U U
COUNT 1 1 1 1 1 1
WIDTH 1346
HEIGHT 1
VIEWPOINT 0 0 0 1 0 0 0
POINTS 1346
DATA ascii
1.665 -0.70499998 -0.396 102 0 0
1.675 -0.704 -0.39700001 95 0 0
1.678 -0.699 -0.396 135 0 0
1.683 -0.69599998 -0.39500001 108 0 0
1.691 -0.69400001 -0.396 84 0 0
1.701 -0.69300002 -0.396 115 0 0
1.711 -0.69099998 -0.39700001 1 0 0
1.716 -0.68800002 -0.396 150 0 0
1.722 -0.685 -0.396 134 0 0
1.726 -0.68099999 -0.39500001 77 0 0
1.728 -0.676 -0.39300001 2 0 0
1.737 -0.67400002 -0.39300001 2 0 0
1.7410001 -0.67000002 -0.39199999 2 0 0
1.751 -0.66799998 -0.39199999 2 0 0
1.761 -0.66600001 -0.39199999 1 0 0
1.768 -0.66299999 -0.39199999 150 16 0
1.772 -0.65899998 -0.391 2 0 0
1.784 -0.65799999 -0.391 1 0 0
1.7869999 -0.65399998 -0.38999999 1 0 0
1.795 -0.65100002 -0.389 150 16 0
1.8 -0.64700001 -0.38800001 1 0 0
1.804 -0.64300001 -0.38699999 150 16 0
1.816 -0.64099997 -0.38699999 150 16 0
1.823 -0.63800001 -0.38600001 150 16 0
1.837 -0.63700002 -0.38699999 150 16 0
1.84 -0.63200003 -0.38499999 150 16 0
1.845 -0.62800002 -0.384 150 16 0
1.855 -0.62599999 -0.38299999 150 16 0
1.864 -0.62300003 -0.38299999 150 16 0
1.873 -0.62 -0.382 150 16 0
1.883 -0.61799997 -0.38100001 140 16 0
1.89 -0.61400002 -0.38 136 16 0
1.896 -0.61000001 -0.37900001 150 16 0
1.904 -0.60600001 -0.37799999 138 16 0
1.91 -0.60299999 -0.37599999 135 16 0
1.915 -0.59799999 -0.375 127 16 0
1.9220001 -0.59399998 -0.373 145 16 0
1.939 -0.59399998 -0.37400001 144 16 0
1.946 -0.58999997 -0.37200001 134 16 0
1.95 -0.58499998 -0.37 123 16 0
1.9630001 -0.583 -0.37 131 16 0
1.97 -0.579 -0.368 135 16 0
1.977 -0.57499999 -0.36700001 127 16 0
1.989 -0.57200003 -0.366 134 16 0
1.995 -0.56800002 -0.36399999 128 16 0
2.0009999 -0.56300002 -0.36199999 120 16 0
2.016 -0.56199998 -0.36199999 128 16 0
2.023 -0.55699998 -0.36000001 111 16 0
2.0309999 -0.55299997 -0.359 112 16 0
2.04 -0.54900002 -0.35699999 114 16 0
2.053 -0.54699999 -0.35600001 114 16 0
2.059 -0.542 -0.354 106 16 0
2.0680001 -0.53799999 -0.352 115 16 0
2.0739999 -0.53399998 -0.34999999 108 16 0
2.089 -0.53100002 -0.34900001 106 16 0
2.095 -0.52700001 -0.347 113 16 0
2.1070001 -0.523 -0.34599999 105 16 0
2.1199999 -0.51999998 -0.345 104 16 0
2.122 -0.51499999 -0.34200001 105 16 0
2.1329999 -0.51099998 -0.34 97 16 0
2.145 -0.50700003 -0.33899999 88 16 0
2.1659999 -0.50599998 -0.338 79 16 0
2.1689999 -0.5 -0.33500001 79 16 0
2.1819999 -0.49700001 -0.33399999 76 16 0
2.188 -0.49200001 -0.331 71 16 0
2.198 -0.48699999 -0.329 77 16 0
2.21 -0.484 -0.32699999 71 16 0
2.223 -0.47999999 -0.32600001 70 16 0
2.2309999 -0.47499999 -0.32300001 70 16 0
2.2409999 -0.47099999 -0.32100001 69 16 0
2.253 -0.46700001 -0.31900001 72 16 0
2.2639999 -0.463 -0.31600001 64 16 0
2.273 -0.458 -0.31400001 69 16 0
2.2880001 -0.454 -0.31200001 66 16 0
2.2939999 -0.449 -0.30899999 65 16 0
2.3039999 -0.44400001 -0.30700001 54 16 0
2.3169999 -0.44 -0.30399999 62 16 0
2.3280001 -0.435 -0.30199999 56 16 0
2.3399999 -0.43099999 -0.29899999 57 16 0
2.3540001 -0.42699999 -0.29699999 50 16 0
2.3659999 -0.42199999 -0.29499999 46 16 0
2.3770001 -0.417 -0.292 53 16 0
2.3889999 -0.41299999 -0.289 56 16 0
2.405 -0.40900001 -0.287 53 16 0
2.414 -0.403 -0.28400001 52 16 0
2.427 -0.39899999 -0.28099999 59 16 0
2.4400001 -0.39399999 -0.278 58 16 0
2.4519999 -0.389 -0.27599999 52 16 0
2.46 -0.38299999 -0.27200001 49 16 0
2.4760001 -0.37900001 -0.26899999 52 16 0
2.487 -0.37400001 -0.266 51 16 0
2.4960001 -0.368 -0.26300001 44 16 0
2.5079999 -0.36300001 -0.25999999 49 16 0
2.523 -0.35800001 -0.257 41 16 0
2.5380001 -0.35299999 -0.25400001 44 16 0
2.5469999 -0.347 -0.25 40 16 0
2.5680001 -0.34299999 -0.24699999 44 16 0
2.575 -0.33700001 -0.244 33 16 0
2.5910001 -0.33199999 -0.23999999 34 16 0
2.6040001 -0.32699999 -0.237 34 16 0
2.6210001 -0.322 -0.234 36 16 0
2.6340001 -0.31600001 -0.23 35 16 0
2.641 -0.31 -0.226 35 16 0
2.664 -0.30500001 -0.223 36 16 0
2.6730001 -0.29899999 -0.219 33 16 0
2.6849999 -0.29300001 -0.215 31 16 0
2.7079999 -0.28799999 -0.212 30 16 0
2.7149999 -0.28099999 -0.207 28 16 0
2.7279999 -0.27500001 -0.20299999 30 16 0
2.7379999 -0.26899999 -0.199 29 16 0
2.7579999 -0.264 -0.19499999 29 16 0
2.7690001 -0.257 -0.191 29 16 0
2.7839999 -0.25099999 -0.18700001 29 16 0
2.8 -0.245 -0.182 28 16 0
2.8139999 -0.23899999 -0.178 28 16 0
2.8340001 -0.233 -0.17399999 27 16 0
2.846 -0.226 -0.169 28 16 0
2.8610001 -0.22 -0.16500001 28 16 0
2.878 -0.213 -0.16 27 16 0
2.8970001 -0.207 -0.156 29 16 0
2.9130001 -0.20100001 -0.15099999 27 16 0
2.924 -0.19400001 -0.146 27 16 0
2.944 -0.18700001 -0.142 28 16 0
2.9630001 -0.18099999 -0.13699999 27 16 0
2.9779999 -0.17399999 -0.132 27 16 0
3 -0.167 -0.127 27 16 0
3.0120001 -0.16 -0.122 26 16 0
3.043 -0.154 -0.117 28 19 0
3.0580001 -0.147 -0.112 27 16 0
3.0769999 -0.139 -0.107 28 16 0
3.0929999 -0.132 -0.101 27 16 0
3.112 -0.125 -0.096000001 27 16 0
3.128 -0.117 -0.090000004 28 16 0
3.1500001 -0.11 -0.085000001 29 16 0
3.1689999 -0.103 -0.079000004 28 16 0
3.1860001 -0.094999999 -0.072999999 29 16 0
3.2060001 -0.086999997 -0.068000004 28 16 0
3.23 -0.079000004 -0.061999999 31 16 0
3.2449999 -0.071000002 -0.056000002 52 16 0
3.2520001 -0.063000001 -0.048999999 150 16 0
3.2520001 -0.055 -0.043000001 150 16 0
3.2509999 -0.046999998 -0.035999998 150 16 0
3.2479999 -0.037999999 -0.029999999 150 16 0
3.2460001 -0.029999999 -0.023 150 16 0
3.247 -0.022 -0.017000001 110 16 0
3.2379999 -0.013 -0.0099999998 29 16 0
3.2650001 -0.0049999999 -0.0040000002 18 16 0
3.2809999 0.0020000001 0.0020000001 19 16 0
3.302 0.0099999998 0.0080000004 19 16 0
3.325 0.018999999 0.015 22 16 0
3.3429999 0.028000001 0.022 44 16 0
3.3410001 0.035999998 0.028999999 92 16 0
3.336 0.044 0.035 89 16 0
3.336 0.052999999 0.041999999 28 16 0
3.316 0.061000001 0.048999999 5 16 0
3.3099999 0.068999998 0.055 1 16 0
3.3440001 0.078000002 0.063000001 1 19 0
3.329 0.086000003 0.068999998 6 16 0
3.3280001 0.093999997 0.075999998 51 16 0
3.3269999 0.103 0.082999997 139 16 0
3.326 0.111 0.090000004 132 16 0
3.3199999 0.119 0.097000003 52 16 0
3.3039999 0.127 0.103 36 16 0
3.2869999 0.134 0.109 33 16 0
3.2780001 0.142 0.116 34 16 0
3.263 0.149 0.122 34 16 0
3.243 0.15700001 0.12800001 33 16 0
3.23 0.164 0.134 42 16 0
3.22 0.171 0.141 63 16 0
3.2130001 0.17900001 0.147 150 16 0
3.211 0.18700001 0.154 133 16 0
3.165 0.192 0.15899999 30 18 0
3.1300001 0.197 0.163 24 16 0
3.177 0.208 0.17299999 48 16 0
3.158 0.215 0.178 47 16 0
3.151 0.222 0.185 40 16 0
3.2079999 0.234 0.19499999 150 17 0
3.2060001 0.241 0.20200001 150 16 0
3.2049999 0.249 0.20900001 150 16 0
3.207 0.257 0.21600001 150 16 0
3.204 0.26499999 0.222 150 16 0
3.2019999 0.27200001 0.229 150 16 0
3.204 0.28 0.236 150 16 0
3.2 0.28799999 0.243 150 16 0
3.1989999 0.29499999 0.25 150 16 0
3.2 0.303 0.257 150 16 0
3.197 0.31099999 0.264 150 16 0
3.1949999 0.31799999 0.271 150 16 0
3.1960001 0.32600001 0.278 150 16 0
3.1919999 0.333 0.285 150 16 0
3.1930001 0.34099999 0.292 150 16 0
3.1919999 0.34900001 0.29899999 150 16 0
3.1900001 0.35600001 0.30599999 150 16 0
3.1889999 0.36300001 0.31299999 150 16 0
3.187 0.37099999 0.31999999 150 16 0
3.188 0.37900001 0.32699999 150 16 0
3.184 0.38600001 0.33399999 150 16 0
3.187 0.39399999 0.34099999 150 16 0
3.187 0.40099999 0.34900001 150 16 0
3.1889999 0.40900001 0.35600001 150 16 0
3.188 0.417 0.36300001 150 16 0
3.1800001 0.42300001 0.37 150 16 0
3.1860001 0.43200001 0.37799999 150 16 0
3.184 0.43900001 0.38499999 150 16 0
3.184 0.44600001 0.39199999 150 16 0
3.1860001 0.454 0.40000001 150 16 0
3.1819999 0.461 0.40700001 150 16 0
3.184 0.46900001 0.414 150 16 0
3.1760001 0.47499999 0.421 150 16 0
3.1730001 0.48199999 0.428 150 16 0
3.1630001 0.48800001 0.43399999 50 16 0
3.151 0.493 0.43900001 43 16 0
3.1370001 0.49900001 0.44499999 45 16 0
3.1240001 0.50400001 0.45100001 46 16 0
3.105 0.50800002 0.45500001 46 16 0
3.0940001 0.51300001 0.461 46 16 0
3.0810001 0.51800001 0.46599999 45 16 0
3.0699999 0.52399999 0.472 46 16 0
3.0569999 0.528 0.477 46 16 0
3.04 0.53200001 0.48199999 44 16 0
3.0339999 0.53799999 0.48800001 44 16 0
3.0239999 0.54400003 0.49399999 48 16 0
3.01 0.54799998 0.49900001 46 16 0
2.994 0.55199999 0.50400001 47 16 0
2.983 0.55699998 0.509 47 16 0
2.9719999 0.56099999 0.51499999 46 16 0
2.96 0.56599998 0.51999998 47 16 0
2.947 0.56999999 0.52499998 48 16 0
2.934 0.574 0.52999997 47 16 0
2.9230001 0.579 0.53500003 48 16 0
2.911 0.583 0.54000002 48 16 0
2.891 0.58499998 0.54299998 51 16 0
2.8859999 0.59100002 0.55000001 55 16 0
2.8740001 0.59500003 0.55500001 46 16 0
2.865 0.59899998 0.56 49 16 0
2.8499999 0.60299999 0.56400001 58 16 0
2.836 0.60600001 0.56900001 53 16 0
2.8280001 0.611 0.574 52 16 0
2.8199999 0.61500001 0.57999998 58 16 0
2.8069999 0.61900002 0.58399999 65 16 0
2.7950001 0.62199998 0.58899999 66 16 0
2.783 0.625 0.59399998 64 16 0
2.7750001 0.63 0.59899998 89 16 0
2.7620001 0.63300002 0.60299999 84 16 0
2.7520001 0.63700002 0.60799998 89 16 0
2.7420001 0.63999999 0.61299998 88 16 0
2.727 0.64300001 0.61699998 88 16 0
2.7219999 0.64700001 0.62300003 96 16 0
2.71 0.64999998 0.62699997 98 16 0
2.6989999 0.65399998 0.63200003 80 16 0
2.6900001 0.65700001 0.63700002 89 16 0
2.681 0.66100001 0.64099997 93 16 0
2.6670001 0.66299999 0.64499998 91 16 0
2.658 0.66600001 0.64999998 92 16 0
2.6489999 0.67000002 0.65499997 93 16 0
2.6340001 0.67199999 0.65799999 88 16 0
2.625 0.67500001 0.66299999 85 16 0
2.619 0.67900002 0.66900003 103 16 0
2.609 0.68199998 0.67299998 93 16 0
2.595 0.68300003 0.67699999 98 16 0
2.5869999 0.68699998 0.68199998 95 16 0
2.575 0.68900001 0.685 103 16 0
2.5699999 0.69300002 0.69099998 103 16 0
2.5610001 0.69499999 0.69599998 101 16 0
2.5510001 0.69800001 0.69999999 101 16 0
2.5409999 0.69999999 0.704 99 16 0
2.5320001 0.70300001 0.708 95 16 0
2.5179999 0.704 0.71100003 106 16 0
2.5150001 0.708 0.71799999 112 16 0
2.4979999 0.70899999 0.72000003 113 16 0
2.4879999 0.71100003 0.72399998 111 16 0
2.48 0.713 0.72799999 105 16 0
2.471 0.71600002 0.73299998 107 16 0
2.461 0.71799999 0.736 106 16 0
2.4549999 0.72100002 0.74199998 109 16 0
2.447 0.72299999 0.74599999 111 16 0
2.4319999 0.72299999 0.74800003 107 16 0
2.424 0.72500002 0.75300002 109 16 0
2.415 0.727 0.75599998 102 16 0
2.4059999 0.72899997 0.75999999 108 16 0
2.395 0.73000002 0.764 105 16 0
2.391 0.73299998 0.76899999 107 16 0
2.3829999 0.73500001 0.773 114 16 0
2.3740001 0.73699999 0.77700001 113 16 0
2.3640001 0.73799998 0.78100002 121 16 0
2.352 0.73900002 0.78399998 115 16 0
2.345 0.741 0.78799999 114 16 0
2.3340001 0.741 0.79100001 126 16 0
2.329 0.74400002 0.796 141 16 0
2.323 0.74599999 0.801 149 16 0
2.3169999 0.74800003 0.80500001 150 16 0
2.3039999 0.74800003 0.80699998 132 16 0
2.296 0.75 0.81099999 150 16 0
2.2850001 0.75 0.81400001 150 16 0
2.2820001 0.75300002 0.81900001 140 16 0
2.2690001 0.75199997 0.82099998 143 16 0
2.263 0.75400001 0.82599998 150 16 0
2.2550001 0.755 0.829 147 16 0
2.2460001 0.75599998 0.83200002 150 16 0
2.24 0.75700003 0.83700001 144 16 0
2.2309999 0.75800002 0.83999997 149 16 0
2.2260001 0.75999999 0.84500003 149 16 0
2.22 0.76099998 0.84799999 150 16 0
2.2060001 0.75999999 0.85000002 137 16 0
2.2030001 0.76200002 0.85500002 139 16 0
2.1949999 0.76300001 0.85799998 148 16 0
2.1889999 0.764 0.86199999 133 16 0
2.1800001 0.764 0.86500001 130 16 0
2.175 0.76499999 0.86900002 139 16 0
2.1619999 0.764 0.87 139 16 0
2.1440001 0.75999999 0.87 134 16 0
2.1389999 0.76200002 0.87400001 139 16 0
2.1300001 0.76099998 0.87699997 124 16 0
2.125 0.76200002 0.88 140 16 0
2.119 0.76300001 0.884 137 16 0
2.1110001 0.76300001 0.88700002 137 16 0
2.1059999 0.764 0.89099997 118 16 0
2.096 0.76300001 0.89300001 121 16 0
2.0910001 0.764 0.89700001 124 16 0
2.0780001 0.76099998 0.89700001 128 16 0
2.075 0.76300001 0.90100002 130 16 0
2.0669999 0.76200002 0.90399998 142 16 0
2.063 0.76300001 0.90799999 148 16 0
2.0550001 0.76200002 0.91100001 149 16 0
2.046 0.76200002 0.912 134 16 0
2.0409999 0.76200002 0.91600001 137 16 0
2.0350001 0.76200002 0.91900003 135 16 0
2.027 0.76099998 0.921 125 16 0
2.026 0.76200002 0.926 128 16 0
2.017 0.76099998 0.92799997 128 16 0
2.0050001 0.759 0.92799997 138 16 0
2.0039999 0.75999999 0.93400002 137 16 0
1.997 0.759 0.93599999 134 16 0
1.992 0.759 0.93900001 121 16 0
1.989 0.759 0.94300002 144 16 0
1.977 0.75700003 0.94300002 132 16 0
1.971 0.75599998 0.94499999 133 16 0
1.9680001 0.75599998 0.949 131 16 0
1.961 0.755 0.95099998 138 16 0
1.956 0.75400001 0.954 133 16 0
1.954 0.755 0.958 139 16 0
1.947 0.75300002 0.95899999 138 16 0
1.943 0.75300002 0.963 126 16 0
1.9349999 0.75099999 0.96399999 138 16 0
1.931 0.75099999 0.96700001 142 16 0
1.926 0.75 0.97000003 141 16 0
1.9170001 0.74800003 0.97000003 132 16 0
1.914 0.74699998 0.97299999 132 16 0
1.9069999 0.745 0.97399998 130 16 0
1.908 0.74599999 0.98000002 144 16 0
1.899 0.74400002 0.98000002 141 16 0
1.8940001 0.74199998 0.98199999 141 16 0
1.892 0.74199998 0.986 142 16 0
1.886 0.74000001 0.98699999 150 16 0
1.88 0.73900002 0.98900002 138 16 0
1.877 0.73799998 0.991 149 16 0
1.875 0.73699999 0.995 143 16 0
1.8609999 0.73199999 0.99199998 137 18 0
1.864 0.73299998 0.99699998 150 16 0
1.851 0.72899997 0.995 149 19 0
1.849 0.72799999 0.99800003 139 16 0
1.844 0.72600001 0.99900001 142 16 0
1.842 0.72500002 1.002 138 16 0
1.84 0.72399998 1.005 148 16 0
1.837 0.72299999 1.007 143 16 0
1.831 0.72000003 1.007 149 16 0
1.829 0.71899998 1.01 145 16 0
1.825 0.71700001 1.012 145 16 0
1.8200001 0.71499997 1.013 141 16 0
1.816 0.713 1.0140001 142 16 0
1.812 0.71100003 1.015 143 16 0
1.809 0.70899999 1.017 150 16 0
1.804 0.70599997 1.017 140 16 0
1.802 0.70499998 1.02 138 16 0
1.798 0.70300001 1.02 146 16 0
1.798 0.70200002 1.024 150 16 0
1.7920001 0.699 1.023 147 16 0
1.793 0.69800001 1.027 150 16 0
1.789 0.69599998 1.027 143 16 0
1.7869999 0.69400001 1.029 149 16 0
1.786 0.69199997 1.031 142 16 0
1.778 0.68800002 1.029 138 19 0
1.779 0.68699998 1.0319999 150 16 0
1.776 0.685 1.034 146 16 0
1.776 0.68300003 1.036 143 16 0
1.772 0.68000001 1.036 147 16 0
1.768 0.67699999 1.036 144 16 0
1.768 0.676 1.038 144 16 0
1.7640001 0.67299998 1.038 138 16 0
1.763 0.671 1.04 143 16 0
1.76 0.66799998 1.039 143 16 0
1.7589999 0.66600001 1.041 144 16 0
1.763 0.66500002 1.045 144 16 0
1.755 0.66100001 1.0420001 141 16 0
1.755 0.65899998 1.043 150 16 0
1.751 0.65499997 1.043 142 16 0
1.75 0.653 1.044 143 16 0
1.748 0.64999998 1.044 140 16 0
1.7460001 0.64700001 1.044 150 16 0
1.7460001 0.64499998 1.045 149 16 0
1.7460001 0.64300001 1.0470001 150 16 0
1.747 0.64099997 1.048 150 16 0
1.7460001 0.63800001 1.048 150 16 0
1.74 0.634 1.046 146 16 0
1.742 0.63200003 1.048 149 16 0
1.7410001 0.62900001 1.048 150 16 0
1.74 0.62599999 1.048 150 16 0
1.74 0.62400001 1.048 150 16 0
1.74 0.62199998 1.049 150 16 0
1.739 0.61900002 1.049 150 16 0
1.7359999 0.61500001 1.0470001 150 16 0
1.735 0.61199999 1.0470001 150 16 0
1.737 0.61000001 1.048 150 16 0
1.737 0.60699999 1.048 150 16 0
1.738 0.60500002 1.049 150 16 0
1.738 0.602 1.049 150 16 0
1.74 0.59899998 1.049 150 16 0
1.737 0.59600002 1.048 150 16 0
1.7410001 0.59399998 1.05 150 16 0
1.738 0.58999997 1.0470001 150 16 0
1.7410001 0.588 1.048 150 16 0
1.744 0.58600003 1.05 150 16 0
1.738 0.58099997 1.046 150 19 0
1.7410001 0.579 1.0470001 150 16 0
1.745 0.57700002 1.048 150 16 0
1.747 0.574 1.048 150 16 0
1.747 0.57099998 1.0470001 150 16 0
1.7460001 0.56800002 1.046 150 16 0
1.748 0.565 1.045 150 16 0
1.749 0.56199998 1.045 150 16 0
1.75 0.55900002 1.044 150 16 0
1.753 0.55599999 1.045 150 16 0
1.752 0.55299997 1.0420001 150 16 0
1.756 0.55000001 1.043 150 16 0
1.755 0.54699999 1.041 150 16 0
1.7589999 0.54500002 1.041 150 16 0
1.761 0.542 1.041 150 16 0
1.765 0.53899997 1.041 150 16 0
1.763 0.53500003 1.038 150 16 0
1.7690001 0.53399998 1.04 150 16 0
1.767 0.52899998 1.0369999 150 16 0
1.7690001 0.52600002 1.035 150 16 0
1.773 0.52399999 1.036 150 16 0
1.771 0.51999998 1.0319999 150 16 0
1.777 0.51800001 1.033 150 16 0
1.777 0.514 1.031 150 16 0
1.783 0.51200002 1.031 150 16 0
1.784 0.509 1.03 150 16 0
1.791 0.50700003 1.031 150 16 0
1.7920001 0.50400001 1.029 150 16 0
1.794 0.50099999 1.027 150 16 0
1.796 0.49700001 1.025 150 16 0
1.803 0.49599999 1.026 150 16 0
1.804 0.49200001 1.024 150 16 0
1.804 0.48800001 1.02 150 16 0
1.809 0.486 1.02 150 16 0
1.816 0.484 1.021 150 16 0
1.818 0.48100001 1.0190001 150 16 0
1.825 0.479 1.0190001 150 16 0
1.827 0.47499999 1.017 150 16 0
1.831 0.47299999 1.016 150 16 0
1.8329999 0.46900001 1.013 150 16 0
1.837 0.46599999 1.012 150 16 0
1.841 0.463 1.01 150 16 0
1.8430001 0.46000001 1.008 150 16 0
1.845 0.45699999 1.005 150 16 0
1.851 0.454 1.0039999 150 16 0
1.853 0.45100001 1.001 150 16 0
1.855 0.44800001 0.99900001 150 16 0
1.864 0.44600001 0.99900001 150 16 0
1.868 0.44299999 0.99699998 150 16 0
1.8710001 0.44 0.995 150 16 0
1.873 0.43700001 0.99199998 150 16 0
1.8789999 0.43399999 0.991 150 16 0
1.883 0.43099999 0.98799998 150 16 0
1.891 0.42899999 0.98799998 150 16 0
1.893 0.426 0.98500001 150 16 0
1.896 0.42199999 0.98199999 150 16 0
1.906 0.421 0.98199999 150 16 0
1.909 0.417 0.97899997 150 16 0
1.915 0.41499999 0.97799999 150 16 0
1.92 0.412 0.97500002 150 16 0
1.9220001 0.40900001 0.972 150 16 0
1.929 0.40599999 0.97000003 150 16 0
1.933 0.403 0.96799999 150 16 0
1.936 0.40000001 0.96399999 150 16 0
1.944 0.398 0.963 150 16 0
1.947 0.39500001 0.95999998 150 16 0
1.951 0.39199999 0.95700002 150 16 0
1.959 0.389 0.95599997 150 16 0
1.969 0.38699999 0.95499998 150 16 0
1.973 0.384 0.95200002 150 16 0
1.979 0.382 0.94999999 150 16 0
1.988 0.38 0.949 150 16 0
1.9910001 0.37599999 0.94499999 150 16 0
1.998 0.37400001 0.94199997 150 16 0
2.003 0.37099999 0.94 150 16 0
2.013 0.36899999 0.93900001 150 16 0
2.016 0.366 0.935 150 16 0
2.023 0.36300001 0.93199998 135 16 0
2.03 0.361 0.93000001 150 16 0
2.0339999 0.35800001 0.926 150 16 0
2.0439999 0.35600001 0.92500001 149 16 0
2.05 0.35299999 0.92199999 141 16 0
2.0539999 0.34999999 0.91799998 135 16 0
2.063 0.347 0.91600001 142 16 0
2.069 0.345 0.91299999 150 16 0
2.075 0.34200001 0.91000003 146 16 0
2.0810001 0.33899999 0.90600002 144 16 0
2.0929999 0.338 0.90499997 147 16 0
2.096 0.33399999 0.89999998 147 16 0
2.105 0.33199999 0.898 144 16 0
2.1099999 0.329 0.89399999 143 16 0
2.118 0.32699999 0.89200002 145 16 0
2.1270001 0.32499999 0.889 137 16 0
2.1359999 0.322 0.88700002 139 16 0
2.1370001 0.31900001 0.88099998 132 16 0
2.1489999 0.317 0.87900001 126 16 0
2.1530001 0.31400001 0.875 120 16 0
2.1589999 0.31099999 0.87099999 119 16 0
2.1719999 0.30899999 0.87 124 16 0
2.181 0.30700001 0.86699998 135 16 0
2.1849999 0.30399999 0.86199999 121 16 0
2.198 0.30199999 0.86000001 121 16 0
2.201 0.29899999 0.85500002 111 16 0
2.2130001 0.29699999 0.85299999 114 16 0
2.221 0.29499999 0.84899998 105 16 0
2.2260001 0.292 0.84399998 95 16 0
2.2379999 0.28999999 0.84200001 115 16 0
2.2490001 0.28799999 0.83999997 124 16 0
2.2539999 0.285 0.83499998 116 16 0
2.2639999 0.28200001 0.83099997 100 16 0
2.2690001 0.28 0.82700002 115 16 0
2.2809999 0.27700001 0.824 107 16 0
2.29 0.27500001 0.81999999 104 16 0
2.299 0.273 0.81599998 102 16 0
2.3080001 0.27000001 0.81199998 106 16 0
2.3150001 0.26800001 0.80800003 103 16 0
2.332 0.266 0.80599999 111 16 0
2.336 0.26300001 0.801 108 16 0
2.348 0.26100001 0.79799998 116 16 0
2.358 0.259 0.79400003 117 16 0
2.3659999 0.25600001 0.78899997 113 16 0
2.3729999 0.25299999 0.78399998 108 16 0
2.3840001 0.25099999 0.78100002 99 16 0
2.3900001 0.248 0.77499998 107 16 0
2.401 0.24600001 0.77100003 99 16 0
2.4119999 0.244 0.76700002 109 16 0
2.424 0.242 0.764 104 16 0
2.4289999 0.23899999 0.75800002 94 16 0
2.4400001 0.237 0.75300002 72 16 0
2.45 0.234 0.74900001 36 16 0
2.457 0.23199999 0.74400002 74 16 0
2.473 0.23 0.741 95 16 0
2.4809999 0.227 0.73500001 102 16 0
2.4949999 0.22499999 0.73199999 89 16 0
2.5039999 0.223 0.72600001 89 16 0
2.513 0.22 0.72100002 93 16 0
2.523 0.21799999 0.71600002 90 16 0
2.5320001 0.215 0.71100003 88 16 0
2.5469999 0.214 0.70700002 96 16 0
2.5580001 0.211 0.70200002 79 16 0
2.569 0.20900001 0.69700003 87 16 0
2.576 0.206 0.69099998 71 16 0
2.585 0.204 0.68599999 74 16 0
2.5969999 0.20100001 0.68099999 78 16 0
2.619 0.2 0.67799997 82 16 0
2.6300001 0.197 0.67299998 72 16 0
2.638 0.19499999 0.667 64 16 0
2.655 0.193 0.66299999 75 16 0
2.661 0.19 0.65600002 37 16 0
2.6760001 0.18799999 0.65100002 41 16 0
2.684 0.185 0.64399999 39 16 0
2.6930001 0.183 0.63800001 38 16 0
2.711 0.18099999 0.634 36 16 0
2.723 0.17900001 0.62800002 38 16 0
2.7290001 0.176 0.62099999 36 16 0
2.7490001 0.17399999 0.61699998 36 16 0
2.7620001 0.17200001 0.611 36 16 0
2.7709999 0.169 0.60500002 41 16 0
2.7809999 0.167 0.59799999 40 16 0
2.799 0.16500001 0.59299999 37 16 0
2.813 0.163 0.58700001 34 16 0
2.8280001 0.16 0.58200002 34 16 0
2.842 0.15800001 0.57599998 34 16 0
2.8559999 0.156 0.56900001 34 16 0
2.8710001 0.153 0.56300002 34 16 0
2.882 0.15099999 0.55699998 34 16 0
2.8959999 0.149 0.55000001 33 16 0
2.9159999 0.147 0.54500002 34 16 0
2.931 0.14399999 0.53799999 35 16 0
2.9400001 0.142 0.53100002 34 16 0
2.96 0.14 0.52499998 33 16 0
2.9790001 0.138 0.51899999 35 16 0
2.9909999 0.13500001 0.51200002 34 16 0
3.0039999 0.133 0.505 34 16 0
3.023 0.131 0.498 34 16 0
3.0350001 0.12800001 0.491 33 16 0
3.0510001 0.126 0.484 32 16 0
3.0739999 0.124 0.47799999 33 16 0
3.082 0.121 0.46900001 32 16 0
3.102 0.119 0.463 33 16 0
3.119 0.117 0.45500001 35 16 0
3.1359999 0.114 0.44800001 35 16 0
3.1589999 0.112 0.44100001 34 16 0
3.1700001 0.11 0.433 34 16 0
3.1930001 0.107 0.426 36 16 0
3.2049999 0.105 0.41800001 35 16 0
3.2279999 0.103 0.41 31 16 0
3.244 0.1 0.40200001 31 16 0
3.2609999 0.097999997 0.39399999 29 16 0
3.2820001 0.094999999 0.38600001 30 16 0
3.299 0.093000002 0.37799999 30 16 0
3.319 0.090999998 0.37 31 16 0
3.336 0.088 0.361 46 16 0
3.3399999 0.085000001 0.35100001 133 16 0
3.339 0.082000002 0.34099999 102 16 0
3.3369999 0.079999998 0.33000001 104 16 0
3.3310001 0.077 0.31900001 101 16 0
3.3299999 0.074000001 0.308 105 16 0
3.3299999 0.071000002 0.29800001 112 16 0
3.3199999 0.068000004 0.287 105 16 0
3.3199999 0.064999998 0.27599999 111 16 0
3.322 0.063000001 0.266 111 16 0
3.312 0.059999999 0.25400001 113 16 0
3.3099999 0.057 0.244 114 16 0
3.3050001 0.054000001 0.233 121 16 0
3.302 0.050999999 0.222 117 16 0
3.2980001 0.048999999 0.212 111 16 0
3.296 0.046 0.20100001 116 16 0
3.2920001 0.044 0.191 123 16 0
3.2909999 0.041000001 0.18000001 129 16 0
3.2880001 0.037999999 0.17 116 16 0
3.2880001 0.035999998 0.15899999 127 16 0
3.2780001 0.033 0.149 123 16 0
3.2780001 0.030999999 0.138 136 16 0
3.2679999 0.028000001 0.127 130 16 0
3.273 0.026000001 0.117 47 16 0
3.296 0.024 0.108 28 16 0
3.3210001 0.021 0.097999997 28 16 0
3.339 0.018999999 0.088 33 16 0
3.348 0.017000001 0.078000002 24 16 0
3.3399999 0.014 0.067000002 19 16 0
3.3310001 0.012 0.056000002 18 16 0
3.3199999 0.0099999998 0.046 18 16 0
3.312 0.0070000002 0.035 17 16 0
3.302 0.0049999999 0.025 17 16 0
3.296 0.003 0.014 17 16 0
3.2850001 0 0.003 17 16 0
3.2739999 -0.001 -0.0060000001 16 16 0
3.2650001 -0.003 -0.016000001 16 16 0
3.257 -0.0049999999 -0.027000001 16 16 0
3.25 -0.0070000002 -0.037 16 16 0
3.2379999 -0.0089999996 -0.046999998 16 16 0
3.2279999 -0.011 -0.057 18 16 0
3.2219999 -0.014 -0.067000002 20 16 0
3.211 -0.016000001 -0.077 22 16 0
3.2079999 -0.017999999 -0.086999997 25 16 0
3.2 -0.02 -0.097000003 33 16 0
3.2 -0.022 -0.107 41 16 0
3.188 -0.023 -0.117 49 16 0
3.1860001 -0.025 -0.127 71 16 0
3.1860001 -0.027000001 -0.13699999 97 16 0
3.1800001 -0.028999999 -0.147 135 16 0
3.1789999 -0.030999999 -0.15700001 131 16 0
3.1789999 -0.033 -0.167 140 16 0
3.1670001 -0.035 -0.177 142 16 0
3.1670001 -0.035999998 -0.18700001 134 16 0
3.1659999 -0.037999999 -0.197 150 16 0
3.1559999 -0.039999999 -0.206 129 16 0
3.1559999 -0.041999999 -0.21600001 145 16 0
3.151 -0.043000001 -0.226 142 16 0
3.145 -0.045000002 -0.236 143 16 0
3.141 -0.046999998 -0.24600001 140 16 0
3.1400001 -0.048 -0.25600001 128 16 0
3.1340001 -0.050000001 -0.26499999 143 16 0
3.135 -0.052000001 -0.27500001 145 16 0
3.132 -0.052999999 -0.285 139 16 0
3.1229999 -0.055 -0.294 120 16 0
3.125 -0.056000002 -0.30500001 148 16 0
3.122 -0.057999998 -0.31400001 127 16 0
3.1199999 -0.059 -0.324 114 16 0
3.1140001 -0.061000001 -0.33399999 138 16 0
3.1110001 -0.061999999 -0.34299999 129 16 0
3.108 -0.064000003 -0.35299999 134 16 0
3.105 -0.064999998 -0.36300001 150 16 0
3.0999999 -0.066 -0.37200001 150 16 0
3.0969999 -0.068000004 -0.382 150 16 0
3.086 -0.068999998 -0.391 150 16 0
3.085 -0.07 -0.40000001 150 16 0
3.0810001 -0.071999997 -0.41 150 16 0
3.0739999 -0.072999999 -0.419 150 16 0
3.073 -0.074000001 -0.42899999 150 16 0
3.0650001 -0.075000003 -0.43799999 128 16 0
3.0610001 -0.075999998 -0.447 105 16 0
3.0580001 -0.078000002 -0.45699999 74 16 0
3.0569999 -0.079000004 -0.46599999 52 16 0
3.052 -0.079999998 -0.47499999 42 16 0
3.05 -0.081 -0.48500001 41 16 0
3.043 -0.082000002 -0.49399999 38 16 0
3.036 -0.082999997 -0.50300002 35 16 0
3.033 -0.083999999 -0.51200002 32 16 0
3.0239999 -0.085000001 -0.52100003 28 16 0
3.0220001 -0.086000003 -0.52999997 27 16 0
3.01 -0.086999997 -0.53799999 26 16 0
3.0039999 -0.088 -0.54699999 25 16 0
3.0020001 -0.089000002 -0.55599999 25 16 0
2.9960001 -0.090000004 -0.565 25 16 0
2.99 -0.090000004 -0.57300001 24 16 0
2.9860001 -0.090999998 -0.583 25 16 0
2.984 -0.092 -0.59200001 25 16 0
2.9760001 -0.093000002 -0.60000002 24 16 0
2.971 -0.093999997 -0.60900003 25 16 0
2.9660001 -0.093999997 -0.61799997 29 16 0
2.9519999 -0.094999999 -0.625 28 16 0
2.95 -0.096000001 -0.634 27 16 0
2.9430001 -0.096000001 -0.64200002 28 16 0
2.9389999 -0.097000003 -0.65100002 27 16 0
2.9349999 -0.097000003 -0.66000003 27 16 0
2.9300001 -0.097999997 -0.66900003 27 16 0
2.925 -0.098999999 -0.67699999 27 16 0
2.9230001 -0.098999999 -0.68699998 27 16 0
2.924 -0.1 -0.69599998 28 16 0
2.9119999 -0.1 -0.70300001 27 16 0
2.9170001 -0.101 -0.71399999 27 16 0
2.9070001 -0.101 -0.722 27 16 0
2.908 -0.102 -0.73100001 27 16 0
2.8989999 -0.102 -0.73900002 26 16 0
2.895 -0.103 -0.74800003 27 16 0
2.8870001 -0.103 -0.755 26 16 0
2.885 -0.103 -0.764 26 16 0
2.8789999 -0.103 -0.77200001 27 16 0
2.875 -0.104 -0.78100002 26 16 0
2.8670001 -0.104 -0.78799999 25 16 0
2.8699999 -0.104 -0.79900002 27 16 0
2.862 -0.105 -0.80599999 26 16 0
2.858 -0.105 -0.815 27 16 0
2.855 -0.105 -0.824 26 16 0
2.849 -0.105 -0.83099997 26 16 0
2.846 -0.105 -0.83999997 25 16 0
2.8429999 -0.105 -0.84899998 26 16 0
2.8410001 -0.105 -0.85799998 27 16 0
2.835 -0.106 -0.866 26 16 0
2.835 -0.106 -0.875 27 16 0
2.8299999 -0.106 -0.88300002 26 16 0
2.825 -0.106 -0.89099997 28 16 0
2.823 -0.106 -0.89999998 28 16 0
2.819 -0.105 -0.90799999 28 16 0
2.819 -0.106 -0.91799998 28 16 0
2.8139999 -0.105 -0.926 28 16 0
2.8110001 -0.105 -0.93400002 28 16 0
2.8069999 -0.105 -0.94300002 28 16 0
2.806 -0.105 -0.95200002 28 16 0
2.802 -0.105 -0.95999998 28 16 0
2.802 -0.104 -0.96899998 28 16 0
2.799 -0.104 -0.97799999 28 16 0
2.796 -0.104 -0.986 27 16 0
2.7909999 -0.104 -0.99400002 27 16 0
2.789 -0.103 -1.003 28 16 0
2.7809999 -0.103 -1.01 28 16 0
2.7820001 -0.102 -1.0190001 28 16 0
2.78 -0.102 -1.028 28 16 0
2.777 -0.102 -1.0369999 28 16 0
2.7739999 -0.101 -1.045 28 16 0
2.7739999 -0.101 -1.054 28 16 0
2.766 -0.1 -1.061 27 16 0
2.7709999 -0.1 -1.072 28 16 0
2.767 -0.098999999 -1.08 28 16 0
2.7609999 -0.097999997 -1.087 28 16 0
2.7609999 -0.097999997 -1.096 28 16 0
2.7550001 -0.097000003 -1.103 28 16 0
2.757 -0.096000001 -1.114 29 16 0
2.7579999 -0.096000001 -1.123 29 16 0
2.7539999 -0.094999999 -1.131 30 16 0
2.75 -0.093999997 -1.1390001 31 16 0
2.7460001 -0.093000002 -1.146 34 16 0
2.7490001 -0.092 -1.1569999 37 16 0
2.7490001 -0.092 -1.166 42 16 0
2.7420001 -0.090000004 -1.173 57 16 0
2.7390001 -0.089000002 -1.181 83 16 0
2.7349999 -0.089000002 -1.188 116 16 0
2.7379999 -0.088 -1.199 142 16 0
2.7360001 -0.086999997 -1.207 150 16 0
2.7279999 -0.085000001 -1.2130001 150 16 0
2.724 -0.083999999 -1.22 150 16 0
2.7290001 -0.082999997 -1.232 150 16 0
2.721 -0.082000002 -1.237 150 16 0
2.717 -0.081 -1.244 150 16 0
2.711 -0.079000004 -1.251 150 16 0
2.711 -0.078000002 -1.26 150 16 0
2.7079999 -0.077 -1.268 150 16 0
2.704 -0.075000003 -1.275 150 16 0
2.691 -0.074000001 -1.278 150 16 0
2.684 -0.071999997 -1.283 150 16 0
2.694 -0.071000002 -1.2970001 150 16 0
2.677 -0.068999998 -1.2970001 150 16 0
2.6730001 -0.067000002 -1.3049999 150 16 0
2.6700001 -0.066 -1.312 150 16 0
2.6659999 -0.064000003 -1.319 150 16 0
2.661 -0.063000001 -1.325 150 16 0
2.6589999 -0.061000001 -1.3329999 150 16 0
2.654 -0.059 -1.339 150 16 0
2.6570001 -0.057999998 -1.349 150 16 0
2.6489999 -0.056000002 -1.354 150 16 0
2.6440001 -0.054000001 -1.359 150 16 0
2.6400001 -0.052000001 -1.3660001 150 16 0
2.6370001 -0.050000001 -1.373 150 16 0
2.638 -0.048 -1.382 150 16 0
2.631 -0.046 -1.387 150 16 0
2.628 -0.044 -1.393 131 16 0
2.6210001 -0.041999999 -1.398 80 16 0
2.6199999 -0.039999999 -1.406 40 16 0
2.619 -0.037999999 -1.413 32 16 0
2.6199999 -0.035999998 -1.4220001 26 16 0
2.625 -0.034000002 -1.433 23 16 0
2.625 -0.032000002 -1.441 21 16 0
2.6270001 -0.029999999 -1.45 21 16 0
2.628 -0.028000001 -1.459 20 16 0
2.6270001 -0.025 -1.466 21 16 0
2.6259999 -0.023 -1.474 21 16 0
2.6259999 -0.021 -1.482 21 16 0
2.631 -0.018999999 -1.493 22 16 0
2.6340001 -0.016000001 -1.502 22 16 0
2.6370001 -0.014 -1.511 22 16 0
2.635 -0.011 -1.518 22 16 0
2.635 -0.0089999996 -1.525 23 16 0
2.635 -0.0060000001 -1.533 24 16 0
2.6489999 -0.0040000002 -1.549 29 19 0
2.651 -0.001 -1.558 37 16 0
2.6459999 0.001 -1.563 46 16 0
2.6400001 0.003 -1.566 81 16 0
2.6359999 0.0060000001 -1.572 80 16 0
2.631 0.0089999996 -1.575 90 16 0
2.6270001 0.012 -1.58 89 16 0
2.6199999 0.014 -1.5829999 82 16 0
2.6170001 0.017000001 -1.5880001 81 16 0
2.6140001 0.02 -1.5930001 72 16 0
2.608 0.023 -1.597 52 16 0
2.6059999 0.026000001 -1.602 46 16 0
2.6059999 0.028999999 -1.609 44 16 0
2.5999999 0.032000002 -1.612 43 16 0
2.5969999 0.035 -1.617 47 16 0
2.598 0.037999999 -1.624 72 16 0
2.5929999 0.041000001 -1.627 91 16 0
2.5899999 0.044 -1.631 73 16 0
2.5880001 0.046999998 -1.636 89 16 0
2.582 0.050000001 -1.6390001 73 16 0
2.582 0.052999999 -1.6440001 84 16 0
2.572 0.056000002 -1.6440001 83 16 0
2.569 0.059999999 -1.648 79 16 0
2.5710001 0.063000001 -1.655 80 16 0
2.5639999 0.066 -1.656 76 16 0
2.5639999 0.068999998 -1.6619999 88 16 0
2.559 0.072999999 -1.664 80 16 0
2.556 0.075999998 -1.6670001 81 16 0
2.549 0.079000004 -1.668 69 16 0
2.5469999 0.082000002 -1.671 93 16 0
2.5439999 0.086000003 -1.675 94 16 0
2.539 0.089000002 -1.676 91 16 0
2.536 0.092 -1.679 94 16 0
2.5339999 0.096000001 -1.682 92 16 0
2.5320001 0.098999999 -1.6849999 95 16 0
2.53 0.102 -1.688 89 16 0
2.5280001 0.106 -1.691 94 16 0
2.5220001 0.109 -1.692 92 16 0
2.5209999 0.113 -1.6950001 86 16 0
2.5209999 0.116 -1.699 93 16 0
2.51 0.119 -1.6950001 90 16 0
2.5150001 0.123 -1.702 95 16 0
2.5090001 0.126 -1.702 93 16 0
2.5050001 0.13 -1.702 103 16 0
2.503 0.133 -1.705 97 16 0
2.5009999 0.13699999 -1.707 102 16 0
2.4990001 0.14 -1.7079999 91 16 0
2.497 0.14399999 -1.71 93 16 0
2.4960001 0.147 -1.712 96 16 0
2.4909999 0.15099999 -1.711 91 16 0
2.4890001 0.154 -1.712 90 16 0
2.4860001 0.15800001 -1.7130001 93 16 0
2.4849999 0.161 -1.714 92 16 0
2.4790001 0.16500001 -1.712 93 16 0
2.483 0.169 -1.717 95 16 0
2.48 0.17200001 -1.717 113 16 0
2.4760001 0.175 -1.716 100 16 0
2.477 0.17900001 -1.719 114 16 0
2.471 0.182 -1.716 122 16 0
2.4679999 0.186 -1.715 120 16 0
2.471 0.19 -1.7180001 113 16 0
2.46 0.192 -1.712 109 19 0
2.4590001 0.19599999 -1.7130001 111 16 0
2.4649999 0.2 -1.7180001 117 16 0
2.4560001 0.20299999 -1.712 115 16 0
2.4549999 0.206 -1.712 112 16 0
2.454 0.20999999 -1.711 121 16 0
2.4530001 0.213 -1.711 103 16 0
2.451 0.21600001 -1.71 114 16 0
2.451 0.22 -1.71 114 16 0
2.451 0.223 -1.71 130 16 0
2.448 0.227 -1.7079999 113 16 0
2.45 0.23 -1.7079999 122 16 0
2.448 0.233 -1.707 116 16 0
2.4460001 0.237 -1.704 114 16 0
2.4430001 0.23999999 -1.702 124 16 0
2.4460001 0.243 -1.7029999 113 16 0
2.444 0.24699999 -1.7 115 16 0
2.4430001 0.25 -1.699 103 16 0
2.4419999 0.25299999 -1.697 112 16 0
2.4419999 0.25600001 -1.696 124 16 0
2.4430001 0.25999999 -1.694 124 16 0
2.438 0.26199999 -1.689 129 16 0
2.438 0.26499999 -1.687 130 16 0
2.438 0.26899999 -1.686 137 16 0
2.4389999 0.27200001 -1.684 119 16 0
2.4400001 0.27500001 -1.682 125 16 0
2.441 0.278 -1.681 138 16 0
2.434 0.28 -1.674 131 16 0
2.4349999 0.28400001 -1.6720001 126 16 0
2.4360001 0.287 -1.67 130 16 0
2.437 0.28999999 -1.668 136 16 0
2.4360001 0.29300001 -1.664 140 16 0
2.434 0.29499999 -1.659 137 16 0
2.4349999 0.29800001 -1.6569999 140 16 0
2.4319999 0.30000001 -1.652 135 16 0
2.438 0.30399999 -1.652 141 16 0
2.4300001 0.30599999 -1.643 140 16 0
2.4360001 0.30899999 -1.643 144 16 0
2.4349999 0.31200001 -1.6390001 146 16 0
2.4360001 0.31400001 -1.636 139 16 0
2.4360001 0.317 -1.632 137 16 0
2.4349999 0.31900001 -1.627 140 16 0
2.4389999 0.322 -1.625 143 16 0
2.4389999 0.32499999 -1.6210001 141 16 0
2.438 0.32699999 -1.6160001 149 16 0
2.437 0.329 -1.6109999 134 16 0
2.438 0.331 -1.607 140 16 0
2.4419999 0.33399999 -1.605 150 16 0
2.444 0.33700001 -1.601 150 16 0
2.4419999 0.33899999 -1.595 142 16 0
2.4430001 0.34099999 -1.591 150 16 0
2.4430001 0.34299999 -1.585 150 16 0
2.4460001 0.345 -1.582 150 16 0
2.447 0.347 -1.5779999 150 16 0
2.448 0.34900001 -1.573 150 16 0
2.4489999 0.352 -1.568 150 16 0
2.4519999 0.354 -1.564 150 16 0
2.4489999 0.35499999 -1.556 150 16 0
2.451 0.35699999 -1.552 150 16 0
2.454 0.359 -1.548 150 16 0
2.451 0.361 -1.54 150 16 0
2.4530001 0.36199999 -1.535 150 16 0
2.4549999 0.36399999 -1.531 150 16 0
2.4579999 0.366 -1.526 150 16 0
2.4579999 0.368 -1.52 150 16 0
2.4649999 0.37 -1.518 150 16 0
2.464 0.37200001 -1.511 150 16 0
2.4660001 0.373 -1.505 150 16 0
2.467 0.37400001 -1.5 150 16 0
2.4690001 0.37599999 -1.494 150 16 0
2.4719999 0.37799999 -1.489 150 16 0
2.47 0.37900001 -1.4809999 150 16 0
2.471 0.38 -1.475 150 16 0
2.4760001 0.38100001 -1.471 150 16 0
2.4760001 0.382 -1.464 150 16 0
2.4790001 0.384 -1.4579999 150 16 0
2.4820001 0.38499999 -1.4529999 150 16 0
2.4849999 0.38600001 -1.448 150 16 0
2.4860001 0.38699999 -1.441 150 16 0
2.4909999 0.389 -1.436 150 16 0
2.4890001 0.389 -1.428 150 16 0
2.4920001 0.38999999 -1.423 150 16 0
2.4949999 0.391 -1.4170001 150 16 0
2.497 0.39199999 -1.41 150 16 0
2.4990001 0.39300001 -1.404 150 16 0
2.5050001 0.39399999 -1.4 150 16 0
2.506 0.39500001 -1.393 150 16 0
2.506 0.39500001 -1.385 150 16 0
2.513 0.396 -1.381 150 16 0
2.5109999 0.396 -1.372 150 16 0
2.5139999 0.39700001 -1.3660001 150 16 0
2.5190001 0.398 -1.3609999 150 16 0
2.52 0.398 -1.354 150 16 0
2.523 0.39899999 -1.347 150 16 0
2.527 0.39899999 -1.341 150 16 0
2.53 0.40000001 -1.335 150 16 0
2.5309999 0.40000001 -1.327 150 16 0
2.536 0.40099999 -1.321 150 16 0
2.5369999 0.40099999 -1.314 150 16 0
2.5380001 0.40099999 -1.306 150 16 0
2.5439999 0.40099999 -1.301 150 16 0
2.5450001 0.40099999 -1.294 150 16 0
2.549 0.40099999 -1.2869999 150 16 0
2.5539999 0.40200001 -1.281 150 16 0
2.5539999 0.40099999 -1.273 150 16 0
2.559 0.40200001 -1.267 150 16 0
2.5639999 0.40200001 -1.261 150 16 0
2.5650001 0.40200001 -1.253 150 16 0
2.5680001 0.40099999 -1.2460001 150 16 0
2.569 0.40099999 -1.238 150 16 0
2.575 0.40099999 -1.233 150 16 0
2.5780001 0.40099999 -1.225 150 16 0
2.5840001 0.40099999 -1.22 150 16 0
2.5869999 0.40099999 -1.2130001 150 16 0
2.5829999 0.39899999 -1.202 150 16 0
2.592 0.40000001 -1.198 150 16 0
2.595 0.39899999 -1.1900001 150 16 0
2.5940001 0.398 -1.181 150 16 0
2.598 0.398 -1.174 150 16 0
2.6010001 0.39700001 -1.1670001 150 16 0
2.6010001 0.396 -1.158 150 16 0
2.6140001 0.39700001 -1.155 150 16 0
2.615 0.396 -1.147 150 16 0
2.6140001 0.39500001 -1.138 150 16 0
2.6170001 0.39399999 -1.131 150 16 0
2.625 0.39399999 -1.125 150 16 0
2.6300001 0.39300001 -1.118 150 16 0
2.6340001 0.39199999 -1.1109999 150 16 0
2.6370001 0.391 -1.104 150 16 0
2.642 0.391 -1.097 150 16 0
2.6459999 0.38999999 -1.09 150 16 0
2.6489999 0.389 -1.082 150 16 0
2.6500001 0.38699999 -1.074 150 16 0
2.6530001 0.38600001 -1.066 150 16 0
2.661 0.38600001 -1.0599999 150 16 0
2.6659999 0.38499999 -1.053 96 16 0
2.668 0.38299999 -1.045 6 16 0
2.6700001 0.382 -1.0369999 0 16 0
0 0 0 0 16 0
4.3439999 0.616 -1.658 5 17 0
4.3629999 0.616 -1.651 5 16 0
4.3639998 0.61299998 -1.637 8 16 0
4.3740001 0.611 -1.626 8 16 0
4.3800001 0.60900003 -1.613 6 16 0
4.3860002 0.60600001 -1.601 4 16 0
0 0 0 0 16 0
2.7060001 0.37 -0.97000003 0 17 0
2.72 0.37 -0.96600002 18 16 0
2.724 0.368 -0.958 150 16 0
2.724 0.366 -0.949 150 16 0
2.721 0.36399999 -0.93900001 150 16 0
2.7309999 0.36300001 -0.93300003 150 16 0
2.7279999 0.36000001 -0.92299998 150 16 0
2.7379999 0.359 -0.917 150 16 0
2.7409999 0.35699999 -0.90899998 150 16 0
2.7479999 0.35600001 -0.903 150 16 0
2.747 0.35299999 -0.89300001 150 16 0
2.7539999 0.352 -0.88599998 150 16 0
2.76 0.34999999 -0.87900001 150 16 0
2.7639999 0.34799999 -0.87199998 150 16 0
2.767 0.34599999 -0.86299998 150 16 0
2.77 0.34400001 -0.85500002 150 16 0
2.7780001 0.34299999 -0.84899998 150 16 0
2.7809999 0.34099999 -0.83999997 150 16 0
2.7839999 0.338 -0.83200002 150 16 0
2.793 0.33700001 -0.82599998 150 16 0
2.796 0.33500001 -0.81800002 150 16 0
2.8010001 0.333 -0.81 150 16 0
2.8050001 0.33000001 -0.80199999 150 16 0
2.8080001 0.32800001 -0.79400003 150 16 0
2.8110001 0.32600001 -0.78500003 150 16 0
2.8180001 0.324 -0.778 150 16 0
2.825 0.322 -0.77100003 150 16 0
2.8280001 0.31900001 -0.76300001 150 16 0
2.8329999 0.317 -0.755 150 16 0
2.842 0.315 -0.74800003 150 16 0
2.842 0.31200001 -0.73900002 150 16 0
2.8469999 0.31 -0.73100001 150 16 0
2.8510001 0.30700001 -0.72299999 150 16 0
2.8559999 0.30500001 -0.71499997 150 16 0
2.8610001 0.30199999 -0.708 150 16 0
2.8699999 0.30000001 -0.70099998 150 16 0
2.8659999 0.29699999 -0.69099998 150 16 0
2.869 0.294 -0.68199998 150 16 0
2.8840001 0.29300001 -0.67699999 150 16 0
2.8889999 0.28999999 -0.66799998 150 16 0
2.8929999 0.287 -0.66000003 150 16 0
2.898 0.285 -0.65200001 150 16 0
2.9059999 0.28200001 -0.64499998 150 16 0
2.9089999 0.27900001 -0.63599998 150 16 0
2.914 0.27599999 -0.62800002 150 16 0
2.921 0.27399999 -0.62099999 150 16 0
2.9230001 0.271 -0.61199999 150 16 0
2.9319999 0.26800001 -0.60500002 150 16 0
2.9389999 0.26499999 -0.597 150 16 0
2.941 0.26199999 -0.588 150 16 0
2.9449999 0.259 -0.57999998 150 16 0
2.9549999 0.257 -0.57200003 150 16 0
2.9579999 0.25299999 -0.56400001 150 16 0
2.96 0.25 -0.55500001 150 16 0
2.9679999 0.24699999 -0.54699999 150 16 0
2.973 0.244 -0.53899997 150 16 0
2.9790001 0.241 -0.53100002 150 16 0
2.9809999 0.23800001 -0.52200001 150 16 0
2.9879999 0.235 -0.514 150 16 0
2.993 0.23100001 -0.50599998 150 16 0
2.9949999 0.228 -0.49700001 150 16 0
3.0050001 0.22499999 -0.49000001 150 16 0
3.0090001 0.222 -0.48100001 150 16 0
3.0109999 0.21799999 -0.472 150 16 0
3.0179999 0.215 -0.46399999 150 16 0
3.0239999 0.212 -0.456 150 16 0
3.03 0.208 -0.447 150 16 0
3.0339999 0.205 -0.43900001 150 16 0
3.039 0.20100001 -0.43000001 150 16 0
3.046 0.198 -0.42199999 150 16 0
3.052 0.19400001 -0.414 150 16 0
3.0580001 0.191 -0.405 150 16 0
3.062 0.18700001 -0.396 150 16 0
3.0680001 0.184 -0.38800001 150 16 0
3.0710001 0.18000001 -0.37900001 150 16 0
3.0799999 0.176 -0.37099999 150 16 0
3.086 0.17299999 -0.36199999 150 16 0
3.0940001 0.169 -0.354 150 16 0
3.1040001 0.16599999 -0.34599999 150 16 0
3.1010001 0.161 -0.336 150 16 0
3.115 0.15800001 -0.32800001 150 16 0
3.119 0.154 -0.31999999 150 16 0
3.1229999 0.15000001 -0.31099999 150 16 0
3.131 0.146 -0.30199999 150 16 0
3.1340001 0.142 -0.29300001 150 16 0
3.135 0.138 -0.28400001 150 16 0
3.1500001 0.13500001 -0.27599999 150 16 0
3.154 0.13 -0.26699999 150 16 0
3.1589999 0.126 -0.25799999 150 16 0
3.1689999 0.122 -0.249 150 16 0
3.174 0.118 -0.241 150 16 0
3.1760001 0.114 -0.23100001 150 16 0
3.1860001 0.11 -0.223 149 16 0
3.1949999 0.106 -0.214 147 16 0
3.2 0.102 -0.205 142 16 0
3.2079999 0.097000003 -0.19599999 150 16 0
3.2149999 0.093000002 -0.18700001 150 16 0
3.224 0.089000002 -0.178 147 16 0
3.2249999 0.083999999 -0.169 142 16 0
3.2349999 0.079999998 -0.16 146 16 0
3.2390001 0.075000003 -0.15000001 150 16 0
3.2479999 0.071000002 -0.141 150 16 0
3.2509999 0.067000002 -0.132 124 16 0
3.253 0.061999999 -0.123 68 16 0
3.2650001 0.057 -0.114 55 16 0
3.2720001 0.052999999 -0.104 73 16 0
3.2720001 0.048 -0.094999999 142 16 0
3.2809999 0.044 -0.086000003 150 16 0
3.286 0.039000001 -0.075999998 116 16 0
3.2939999 0.034000002 -0.067000002 87 16 0
3.3050001 0.028999999 -0.057 46 16 0
3.3099999 0.024 -0.048 31 16 0
3.303 0.02 -0.037999999 22 16 0
3.293 0.015 -0.028999999 20 16 0
3.29 0.0099999998 -0.018999999 19 16 0
3.279 0.0049999999 -0.0099999998 18 16 0
3.2720001 0 0 19 16 0
3.2709999 -0.0040000002 0.0080000004 19 16 0
3.257 -0.0089999996 0.017000001 25 16 0
3.2539999 -0.014 0.027000001 41 16 0
3.2650001 -0.018999999 0.035999998 126 16 0
3.27 -0.024 0.045000002 150 16 0
3.2739999 -0.028999999 0.055 150 16 0
3.2820001 -0.034000002 0.064000003 150 16 0
3.2909999 -0.039000001 0.074000001 150 16 0
3.2950001 -0.044 0.082999997 150 16 0
3.302 -0.048999999 0.093000002 150 16 0
3.3110001 -0.055 0.103 150 16 0
3.316 -0.059999999 0.112 150 16 0
3.3210001 -0.064999998 0.122 105 16 0
3.3180001 -0.07 0.131 39 16 0
3.309 -0.075000003 0.14 31 16 0
3.3050001 -0.079999998 0.149 31 16 0
3.2969999 -0.085000001 0.15800001 30 16 0
3.2850001 -0.090000004 0.167 30 16 0
3.279 -0.094999999 0.176 31 16 0
3.2720001 -0.1 0.185 29 16 0
3.2620001 -0.105 0.19400001 30 16 0
3.26 -0.11 0.20299999 31 16 0
3.2539999 -0.115 0.211 31 16 0
3.244 -0.12 0.22 31 16 0
3.234 -0.125 0.228 31 16 0
3.227 -0.13 0.237 30 16 0
3.221 -0.13500001 0.24600001 30 16 0
3.211 -0.14 0.25400001 31 16 0
3.1989999 -0.145 0.26199999 29 16 0
3.197 -0.15000001 0.271 30 16 0
3.188 -0.155 0.27900001 30 16 0
3.178 -0.16 0.287 29 16 0
3.1719999 -0.16500001 0.29499999 29 16 0
3.1670001 -0.17 0.30399999 30 16 0
3.1600001 -0.175 0.31200001 30 16 0
3.1489999 -0.17900001 0.31999999 30 16 0
3.1389999 -0.184 0.32699999 30 16 0
3.1300001 -0.189 0.33500001 30 16 0
3.1240001 -0.19400001 0.34299999 29 16 0
3.118 -0.199 0.35100001 30 16 0
3.105 -0.20299999 0.35800001 28 16 0
3.102 -0.208 0.36700001 28 16 0
3.0929999 -0.213 0.37400001 29 16 0
3.0810001 -0.21799999 0.38100001 28 16 0
3.0769999 -0.223 0.389 28 16 0
3.0639999 -0.227 0.396 27 16 0
3.0599999 -0.23199999 0.40400001 28 16 0
3.0539999 -0.237 0.412 29 16 0
3.046 -0.242 0.419 29 16 0
3.0350001 -0.24600001 0.426 29 16 0
3.027 -0.25099999 0.433 28 16 0
3.0209999 -0.25600001 0.44100001 30 16 0
3.0109999 -0.26100001 0.44800001 30 16 0
3.007 -0.266 0.456 31 16 0
2.9909999 -0.27000001 0.461 30 16 0
2.9879999 -0.27500001 0.46900001 30 16 0
2.9809999 -0.28 0.47600001 31 16 0
2.9719999 -0.28400001 0.48300001 30 16 0
2.9549999 -0.28799999 0.48800001 30 16 0
2.954 -0.29300001 0.49599999 30 16 0
2.9449999 -0.29800001 0.50300002 30 16 0
2.941 -0.303 0.50999999 30 16 0
2.931 -0.30700001 0.51599997 32 16 0
2.9289999 -0.31299999 0.52399999 33 16 0
2.9170001 -0.317 0.52999997 32 16 0
2.9070001 -0.32100001 0.53600001 33 16 0
2.902 -0.32600001 0.54299998 35 16 0
2.895 -0.331 0.55000001 37 16 0
2.882 -0.33500001 0.55500001 39 16 0
2.878 -0.34 0.56199998 50 16 0
2.8670001 -0.34400001 0.56800002 60 16 0
2.8610001 -0.34900001 0.574 83 16 0
2.849 -0.35299999 0.579 86 16 0
2.8399999 -0.35699999 0.58499998 102 16 0
2.8310001 -0.36199999 0.59100002 105 16 0
2.8210001 -0.366 0.597 108 16 0
2.809 -0.37 0.602 92 16 0
2.7969999 -0.37400001 0.60699999 81 16 0
2.786 -0.37799999 0.61199999 82 16 0
2.7780001 -0.382 0.61799997 74 16 0
2.7650001 -0.38600001 0.62199998 57 16 0
2.7520001 -0.38999999 0.62699997 62 16 0
2.7420001 -0.39399999 0.63200003 65 16 0
2.734 -0.398 0.63700002 69 16 0
2.7260001 -0.403 0.64300001 67 16 0
2.7079999 -0.40599999 0.64600003 64 16 0
2.7 -0.41 0.65100002 62 16 0
2.6889999 -0.414 0.65600002 70 16 0
2.6830001 -0.41800001 0.66100001 68 16 0
2.6719999 -0.42199999 0.66600001 79 16 0
2.6570001 -0.42500001 0.66900003 81 16 0
2.651 -0.43000001 0.67500001 73 16 0
2.6429999 -0.43399999 0.68000001 73 16 0
2.635 -0.43799999 0.68400002 83 16 0
2.6259999 -0.442 0.68900001 76 16 0
2.6159999 -0.44600001 0.69400001 83 16 0
2.609 -0.45100001 0.69800001 84 16 0
2.5940001 -0.45300001 0.70099998 80 16 0
2.586 -0.458 0.70599997 87 16 0
2.5799999 -0.46200001 0.71100003 86 16 0
2.5699999 -0.46599999 0.71499997 91 16 0
2.5569999 -0.46900001 0.71799999 91 16 0
2.549 -0.47299999 0.722 91 16 0
2.5409999 -0.477 0.727 96 16 0
2.529 -0.47999999 0.73000002 91 16 0
2.526 -0.486 0.736 86 16 0
2.5139999 -0.48899999 0.73900002 82 16 0
2.506 -0.493 0.74299997 98 16 0
2.4960001 -0.49599999 0.74599999 94 16 0
2.4860001 -0.5 0.74900001 90 16 0
2.4820001 -0.505 0.75400001 101 16 0
2.4719999 -0.50800002 0.75800002 108 16 0
2.464 -0.51200002 0.76200002 97 16 0
2.4549999 -0.51599997 0.76499999 96 16 0
2.4460001 -0.51999998 0.76899999 108 16 0
2.4400001 -0.52399999 0.773 100 16 0
2.428 -0.52700001 0.77499998 105 16 0
2.425 -0.53200001 0.77999997 108 16 0
2.4130001 -0.53500003 0.78200001 102 16 0
2.4089999 -0.53899997 0.787 96 16 0
2.4000001 -0.54299998 0.79000002 108 16 0
2.3900001 -0.546 0.79299998 104 16 0
2.3840001 -0.551 0.79699999 114 16 0
2.375 -0.55400002 0.80000001 110 16 0
2.365 -0.55699998 0.80199999 105 16 0
2.3599999 -0.56199998 0.80599999 112 16 0
2.352 -0.565 0.80900002 112 16 0
2.3429999 -0.56900001 0.81199998 99 16 0
2.336 -0.57300001 0.815 111 16 0
2.3329999 -0.57800001 0.81999999 120 16 0
2.3199999 -0.57999998 0.82099998 118 16 0
2.319 -0.58499998 0.82599998 124 16 0
2.312 -0.58899999 0.829 128 16 0
2.3010001 -0.59200001 0.82999998 113 16 0
2.299 -0.597 0.83499998 150 16 0
2.293 -0.60100001 0.838 150 16 0
2.2850001 -0.60500002 0.83999997 150 16 0
2.2820001 -0.60900003 0.84500003 150 16 0
2.273 -0.61299998 0.847 150 16 0
2.2690001 -0.61699998 0.85000002 150 16 0
2.2590001 -0.62 0.852 150 16 0
2.2520001 -0.62400001 0.85399997 147 16 0
2.247 -0.62800002 0.85799998 150 16 0
2.2449999 -0.63300002 0.86199999 150 16 0
2.2390001 -0.63700002 0.86500001 150 16 0
2.227 -0.639 0.86500001 150 16 0
2.224 -0.64399999 0.86900002 150 16 0
2.217 -0.648 0.87099999 150 16 0
2.214 -0.65200001 0.87400001 150 16 0
2.2079999 -0.65600002 0.87699997 150 16 0
2.2 -0.65899998 0.87900001 150 16 0
2.1930001 -0.66299999 0.88 150 16 0
2.188 -0.667 0.88300002 150 16 0
2.1849999 -0.67199999 0.88700002 150 16 0
2.174 -0.67400002 0.88599998 150 16 0
2.168 -0.67799997 0.889 150 16 0
2.1670001 -0.68300003 0.89300001 150 16 0
2.1570001 -0.685 0.89300001 150 16 0
2.155 -0.69 0.89600003 150 16 0
2.1500001 -0.69400001 0.898 150 16 0
2.1470001 -0.699 0.90100002 150 16 0
2.141 -0.70200002 0.903 150 16 0
2.1359999 -0.70599997 0.90499997 150 16 0
2.132 -0.70999998 0.90700001 150 16 0
2.1270001 -0.71399999 0.90899998 150 16 0
2.118 -0.71700001 0.91000003 150 16 0
2.1159999 -0.72100002 0.912 150 16 0
2.1129999 -0.72600001 0.91500002 150 16 0
2.1070001 -0.73000002 0.917 150 16 0
2.1010001 -0.73299998 0.91799998 150 16 0
2.099 -0.73799998 0.921 150 16 0
2.092 -0.741 0.921 150 16 0
2.0910001 -0.74599999 0.92400002 150 16 0
2.089 -0.75 0.92699999 150 16 0
2.0840001 -0.75400001 0.92799997 150 16 0
2.076 -0.75599998 0.92799997 150 16 0
2.072 -0.75999999 0.93000001 150 16 0
2.0639999 -0.76200002 0.92900002 150 16 0
2.0650001 -0.76899999 0.93300003 150 16 0
2.0580001 -0.77100003 0.93300003 150 16 0
2.052 -0.77399999 0.93400002 150 16 0
2.04 -0.77499998 0.93099999 145 16 0
2.0380001 -0.77899998 0.93300003 132 16 0
2.03 -0.78200001 0.93300003 125 16 0
2.0209999 -0.78299999 0.93099999 126 16 0
2.017 -0.787 0.93199998 131 16 0
2.0090001 -0.78899997 0.93199998 119 16 0
1.999 -0.79000002 0.93000001 133 16 0
1.994 -0.79299998 0.93000001 140 16 0
1.99 -0.796 0.93000001 150 16 0
1.984 -0.79900002 0.93000001 129 16 0
1.979 -0.80199999 0.93000001 131 16 0
1.973 -0.80500001 0.93000001 132 16 0
1.966 -0.80699998 0.92900002 130 16 0
1.962 -0.81 0.92900002 135 16 0
