# .PCD v0.7 - Point Cloud Data file format
VERSION 0.7
FIELDS x y z intensity tag line
SIZE 4 4 4 4 1 1
TYPE F F F F U U
COUNT 1 1 1 1 1 1
WIDTH 1359
HEIGHT 1
VIEWPOINT 0 0 0 1 0 0 0
POINTS 1359
DATA ascii
2.6830001 1.324 0.097999997 144 16 0
2.6830001 1.316 0.098999999 150 16 0
2.691 1.311 0.101 146 16 0
2.6949999 1.303 0.102 149 16 0
2.697 1.295 0.103 150 16 0
2.7 1.288 0.105 150 16 0
2.71 1.284 0.106 150 16 0
2.7130001 1.276 0.107 150 16 0
2.7190001 1.2690001 0.109 150 16 0
2.7219999 1.262 0.11 150 16 0
2.7249999 1.2539999 0.111 150 16 0
2.733 1.248 0.112 150 16 0
2.7320001 1.239 0.113 150 16 0
2.737 1.232 0.114 150 16 0
2.74 1.224 0.115 150 16 0
2.7479999 1.2180001 0.116 150 16 0
2.7460001 1.2079999 0.117 150 16 0
2.7539999 1.202 0.118 150 16 0
2.7579999 1.1950001 0.119 150 16 0
2.763 1.188 0.12 150 16 0
2.77 1.181 0.121 150 16 0
2.773 1.173 0.122 150 16 0
2.776 1.165 0.123 150 16 0
2.779 1.156 0.123 150 16 0
2.786 1.15 0.124 150 16 0
2.786 1.141 0.125 150 16 0
2.793 1.1339999 0.125 150 16 0
2.7969999 1.126 0.126 150 16 0
2.8039999 1.119 0.127 133 16 0
2.8069999 1.1109999 0.127 128 16 0
2.8099999 1.102 0.12800001 139 16 0
2.813 1.094 0.12800001 131 16 0
2.8180001 1.086 0.12899999 137 16 0
2.823 1.079 0.12899999 149 16 0
2.8239999 1.069 0.12899999 142 16 0
2.836 1.064 0.13 141 16 0
2.8369999 1.0549999 0.13 150 16 0
2.8369999 1.045 0.13 131 16 0
2.845 1.039 0.131 150 16 0
2.848 1.03 0.131 150 16 0
2.8559999 1.023 0.131 150 16 0
2.859 1.0140001 0.132 150 16 0
2.862 1.006 0.132 144 16 0
2.8670001 0.99800003 0.132 144 16 0
2.8710001 0.98900002 0.132 128 16 0
2.8800001 0.98299998 0.132 87 16 0
2.891 0.977 0.133 30 16 0
2.8889999 0.96600002 0.132 89 16 0
2.892 0.95700002 0.132 150 16 0
2.8929999 0.94800001 0.132 150 16 0
2.8989999 0.94 0.132 143 16 0
2.902 0.93099999 0.132 150 16 0
2.905 0.92199999 0.132 150 16 0
2.9100001 0.91399997 0.132 150 16 0
2.914 0.90499997 0.131 150 16 0
2.9170001 0.89600003 0.131 150 16 0
2.9219999 0.88800001 0.131 147 16 0
2.928 0.88 0.131 150 16 0
2.931 0.87099999 0.13 150 16 0
2.9400001 0.86400002 0.13 150 16 0
2.9449999 0.85500002 0.13 150 16 0
2.9489999 0.84600002 0.13 150 16 0
2.95 0.83700001 0.12899999 150 16 0
2.9560001 0.829 0.12899999 150 16 0
2.9560001 0.81900001 0.12800001 150 16 0
2.97 0.81199998 0.12800001 150 16 0
2.97 0.80299997 0.127 150 16 0
2.971 0.79299998 0.127 146 16 0
2.974 0.78399998 0.126 150 16 0
2.9860001 0.77700001 0.126 150 16 0
2.9860001 0.76700002 0.125 150 16 0
2.9909999 0.75800002 0.125 150 16 0
2.994 0.74900001 0.124 150 16 0
2.9979999 0.74000001 0.123 124 16 0
3.0020001 0.73100001 0.122 133 16 0
3.0050001 0.722 0.122 115 16 0
3.0090001 0.713 0.121 122 16 0
3.0179999 0.70499998 0.12 127 16 0
3.0179999 0.69499999 0.119 123 16 0
3.0280001 0.68699998 0.119 122 16 0
3.036 0.67900002 0.118 121 16 0
3.0339999 0.66799998 0.117 124 16 0
3.0369999 0.65899998 0.116 119 16 0
3.0469999 0.65100002 0.115 115 16 0
3.05 0.64200002 0.114 119 16 0
3.0550001 0.63200003 0.113 122 16 0
3.0580001 0.62300003 0.112 139 16 0
3.0669999 0.61500001 0.111 114 16 0
3.0669999 0.60500002 0.11 128 16 0
3.0710001 0.59600002 0.109 108 16 0
3.079 0.58700001 0.108 119 16 0
3.076 0.57599998 0.106 116 16 0
3.0869999 0.56800002 0.105 97 16 0
3.0899999 0.55800003 0.104 94 16 0
3.0910001 0.54900002 0.103 105 16 0
3.0969999 0.54000002 0.102 97 16 0
3.1059999 0.53100002 0.101 101 16 0
3.105 0.52100003 0.098999999 94 16 0
3.1140001 0.51200002 0.097999997 88 16 0
3.118 0.50199997 0.097000003 116 16 0
3.1229999 0.493 0.094999999 92 16 0
3.1240001 0.48300001 0.093999997 105 16 0
3.1259999 0.47299999 0.092 115 16 0
3.135 0.46399999 0.090999998 103 16 0
3.1400001 0.45500001 0.090000004 104 16 0
3.148 0.44600001 0.088 81 16 0
3.1470001 0.43599999 0.086999997 100 16 0
3.151 0.426 0.085000001 98 16 0
3.161 0.417 0.083999999 117 16 0
3.1630001 0.40700001 0.082000002 92 16 0
3.168 0.398 0.081 96 16 0
3.1730001 0.38800001 0.079000004 111 16 0
3.171 0.37799999 0.077 102 16 0
3.1630001 0.366 0.075000003 21 16 0
3.148 0.35499999 0.072999999 24 16 0
3.1500001 0.345 0.071000002 27 16 0
3.151 0.33500001 0.07 26 16 0
3.1600001 0.32499999 0.068000004 27 16 0
3.1600001 0.315 0.066 26 16 0
3.1670001 0.30599999 0.064999998 25 16 0
3.177 0.29699999 0.063000001 25 16 0
3.1760001 0.28600001 0.061000001 25 16 0
3.181 0.27700001 0.059 24 16 0
3.187 0.26699999 0.057 25 16 0
3.188 0.257 0.055 25 16 0
3.191 0.24699999 0.052999999 25 16 0
3.1930001 0.237 0.050999999 32 16 0
3.1849999 0.226 0.048999999 121 16 0
3.1860001 0.21600001 0.046999998 116 16 0
3.1989999 0.207 0.045000002 32 16 0
3.2119999 0.197 0.043000001 26 16 0
3.2219999 0.18799999 0.041999999 26 16 0
3.2260001 0.178 0.039000001 25 16 0
3.2290001 0.168 0.037 25 16 0
3.2349999 0.15800001 0.035 25 16 0
3.2409999 0.148 0.033 29 16 0
3.267 0.139 0.030999999 44 16 0
3.2909999 0.12899999 0.028999999 75 16 0
3.2950001 0.119 0.027000001 90 16 0
3.2920001 0.108 0.025 83 16 0
3.2980001 0.097999997 0.022 88 16 0
3.3010001 0.088 0.02 76 16 0
3.3099999 0.078000002 0.017999999 73 16 0
3.3110001 0.067000002 0.015 60 16 0
3.3180001 0.057 0.013 45 16 0
3.313 0.046 0.011 72 16 0
3.325 0.035999998 0.0080000004 77 16 0
3.336 0.026000001 0.0060000001 39 16 0
3.306 0.015 0.003 20 16 0
3.2809999 0.0040000002 0.001 19 16 0
3.26 -0.0049999999 -0.001 18 16 0
3.2360001 -0.015 -0.003 33 16 0
3.244 -0.025 -0.0060000001 120 16 0
3.2509999 -0.035999998 -0.0080000004 150 16 0
3.253 -0.046 -0.011 150 16 0
3.2579999 -0.056000002 -0.013 150 16 0
3.263 -0.066 -0.016000001 150 16 0
3.243 -0.075999998 -0.017999999 31 16 0
3.224 -0.086000003 -0.021 29 16 0
3.2049999 -0.094999999 -0.023 29 16 0
3.1760001 -0.105 -0.026000001 28 16 0
3.155 -0.114 -0.028000001 28 16 0
3.135 -0.123 -0.030999999 28 16 0
3.118 -0.132 -0.033 27 16 0
3.095 -0.141 -0.035 27 16 0
3.079 -0.15000001 -0.037999999 27 16 0
3.0469999 -0.15800001 -0.039999999 27 16 0
3.033 -0.16599999 -0.041999999 26 16 0
3.0050001 -0.17399999 -0.044 26 16 0
2.9890001 -0.183 -0.046999998 26 16 0
2.9690001 -0.191 -0.048999999 26 16 0
2.9489999 -0.199 -0.050999999 26 16 0
2.9289999 -0.206 -0.052999999 27 16 0
2.915 -0.215 -0.056000002 27 16 0
2.8929999 -0.222 -0.057999998 28 16 0
2.8729999 -0.23 -0.059999999 27 16 0
2.8559999 -0.237 -0.061999999 27 16 0
2.8429999 -0.245 -0.064999998 28 16 0
2.822 -0.252 -0.067000002 28 16 0
2.806 -0.259 -0.068999998 28 16 0
2.79 -0.266 -0.071000002 29 16 0
2.77 -0.273 -0.072999999 28 16 0
2.7539999 -0.28 -0.075000003 29 16 0
2.7390001 -0.287 -0.078000002 29 16 0
2.7249999 -0.294 -0.079999998 27 16 0
2.7160001 -0.30199999 -0.082000002 29 16 0
2.697 -0.308 -0.083999999 31 16 0
2.6800001 -0.31400001 -0.086000003 29 16 0
2.664 -0.32100001 -0.088 30 16 0
2.6489999 -0.32699999 -0.090000004 31 16 0
2.635 -0.33399999 -0.092 29 16 0
2.6170001 -0.34 -0.093999997 29 16 0
2.6029999 -0.34599999 -0.096000001 29 16 0
2.5880001 -0.352 -0.098999999 31 16 0
2.579 -0.359 -0.101 31 16 0
2.556 -0.36399999 -0.103 30 16 0
2.5469999 -0.37 -0.105 31 16 0
2.53 -0.37599999 -0.107 31 16 0
2.5139999 -0.38100001 -0.109 44 16 0
2.5039999 -0.38699999 -0.111 48 16 0
2.4920001 -0.39300001 -0.113 50 16 0
2.4790001 -0.39899999 -0.115 51 16 0
2.4679999 -0.405 -0.117 50 16 0
2.454 -0.41 -0.119 53 16 0
2.4430001 -0.41600001 -0.121 54 16 0
2.424 -0.41999999 -0.123 50 16 0
2.414 -0.426 -0.125 57 16 0
2.4000001 -0.43099999 -0.127 52 16 0
2.3940001 -0.43799999 -0.12899999 58 16 0
2.3770001 -0.442 -0.131 57 16 0
2.3640001 -0.447 -0.133 51 16 0
2.3510001 -0.45100001 -0.13500001 56 16 0
2.3369999 -0.456 -0.13699999 63 16 0
2.3310001 -0.46200001 -0.139 62 16 0
2.316 -0.46599999 -0.141 63 16 0
2.303 -0.47099999 -0.14300001 63 16 0
2.2909999 -0.47600001 -0.145 67 16 0
2.277 -0.47999999 -0.146 66 16 0
2.2679999 -0.48500001 -0.149 67 16 0
2.2609999 -0.49000001 -0.15099999 64 16 0
2.2460001 -0.49399999 -0.152 69 16 0
2.24 -0.5 -0.155 66 16 0
2.224 -0.50300002 -0.156 74 16 0
2.2130001 -0.50800002 -0.15800001 78 16 0
2.2019999 -0.51200002 -0.16 65 16 0
2.1930001 -0.51700002 -0.162 78 16 0
2.1830001 -0.52100003 -0.164 78 16 0
2.174 -0.52600002 -0.16599999 82 16 0
2.154 -0.528 -0.168 70 16 0
2.148 -0.53299999 -0.17 78 16 0
2.135 -0.53600001 -0.17200001 71 16 0
2.1289999 -0.54100001 -0.17399999 79 16 0
2.119 -0.54500002 -0.176 80 16 0
2.1099999 -0.54900002 -0.178 88 16 0
2.099 -0.55299997 -0.18000001 84 16 0
2.085 -0.55599999 -0.18099999 80 16 0
2.0810001 -0.56099999 -0.184 92 16 0
2.073 -0.565 -0.186 88 16 0
2.0599999 -0.56800002 -0.18700001 88 16 0
2.0510001 -0.57200003 -0.189 84 16 0
2.0439999 -0.57599998 -0.191 93 16 0
2.0339999 -0.57999998 -0.193 87 16 0
2.0220001 -0.583 -0.19499999 89 16 0
2.0150001 -0.58700001 -0.197 100 16 0
2.0039999 -0.58999997 -0.199 94 16 0
1.997 -0.59399998 -0.20100001 98 16 0
1.989 -0.597 -0.20299999 105 16 0
1.982 -0.60100001 -0.205 98 16 0
1.97 -0.60399997 -0.207 94 16 0
1.961 -0.60699999 -0.20900001 98 16 0
1.955 -0.611 -0.211 92 16 0
1.936 -0.611 -0.211 98 16 0
1.933 -0.616 -0.214 94 16 0
1.924 -0.61900002 -0.21600001 87 16 0
1.919 -0.62300003 -0.21799999 99 16 0
1.911 -0.62699997 -0.22 105 16 0
1.905 -0.63099998 -0.222 106 16 0
1.901 -0.63499999 -0.22499999 108 16 0
1.888 -0.63599998 -0.226 109 16 0
1.882 -0.63999999 -0.228 121 16 0
1.873 -0.64300001 -0.23 122 16 0
1.8609999 -0.64399999 -0.23199999 113 16 0
1.859 -0.64899999 -0.234 116 16 0
1.851 -0.65200001 -0.236 102 16 0
1.846 -0.65600002 -0.23800001 121 16 0
1.8329999 -0.65600002 -0.23999999 111 16 0
1.825 -0.65899998 -0.242 123 16 0
1.819 -0.66299999 -0.244 114 16 0
1.813 -0.66600001 -0.24600001 107 16 0
1.808 -0.66900003 -0.248 132 16 0
1.802 -0.67199999 -0.25 147 16 0
1.795 -0.67500001 -0.252 147 16 0
1.783 -0.676 -0.25400001 136 16 0
1.781 -0.68000001 -0.25600001 146 16 0
1.776 -0.68400002 -0.259 138 16 0
1.765 -0.685 -0.25999999 139 16 0
1.761 -0.68900001 -0.26300001 150 16 0
1.751 -0.69 -0.264 148 16 0
1.747 -0.69300002 -0.266 150 16 0
1.745 -0.69700003 -0.26899999 1 0 0
1.735 -0.69800001 -0.271 141 16 0
1.73 -0.70099998 -0.273 150 16 0
1.723 -0.704 -0.27500001 150 16 0
1.717 -0.70599997 -0.27700001 150 16 0
1.71 -0.70899999 -0.27900001 1 0 0
1.698 -0.708 -0.28 2 0 0
1.697 -0.713 -0.28299999 150 16 0
1.6900001 -0.71499997 -0.285 150 16 0
1.682 -0.71600002 -0.287 1 0 0
1.676 -0.71799999 -0.289 149 16 0
1.6670001 -0.71899998 -0.28999999 1 0 0
1.664 -0.722 -0.29300001 150 16 0
1.654 -0.72299999 -0.294 150 16 0
1.654 -0.727 -0.29699999 1 0 0
1.652 -0.73100001 -0.30000001 45 0 0
1.638 -0.72899997 -0.301 1 0 0
1.638 -0.73400003 -0.30399999 150 16 0
1.631 -0.73500001 -0.30599999 150 16 0
1.626 -0.73799998 -0.308 1 0 0
1.617 -0.73799998 -0.30899999 150 16 0
1.617 -0.74199998 -0.31200001 36 0 0
1.613 -0.745 -0.315 1 0 0
1.6059999 -0.74599999 -0.317 2 0 0
1.599 -0.74699998 -0.31799999 150 16 0
1.592 -0.74800003 -0.31999999 72 0 0
1.587 -0.74900001 -0.322 65 0 0
1.584 -0.75199997 -0.32499999 61 0 0
1.58 -0.755 -0.32699999 69 0 0
1.574 -0.75599998 -0.329 150 16 0
1.573 -0.759 -0.33199999 150 16 0
1.566 -0.75999999 -0.33399999 1 0 0
1.561 -0.76200002 -0.336 2 0 0
1.5599999 -0.76499999 -0.33899999 150 16 0
1.557 -0.76700002 -0.34099999 65 0 0
1.544 -0.76499999 -0.34099999 93 3 0
1.5420001 -0.76700002 -0.34400001 2 0 0
1.54 -0.76999998 -0.347 99 0 0
1.5369999 -0.77200001 -0.34900001 88 0 0
1.5319999 -0.77399999 -0.352 113 0 0
1.527 -0.77499998 -0.35299999 81 0 0
1.523 -0.77600002 -0.35600001 78 0 0
1.52 -0.77899998 -0.35800001 69 0 0
1.5140001 -0.77899998 -0.36000001 71 0 0
1.512 -0.78100002 -0.36300001 96 0 0
1.505 -0.78100002 -0.36399999 77 0 0
1.5 -0.78200001 -0.366 88 0 0
1.499 -0.78399998 -0.36899999 96 0 0
1.493 -0.78500003 -0.37099999 94 0 0
1.4910001 -0.787 -0.37400001 112 0 0
1.4859999 -0.78799999 -0.37599999 84 0 0
1.482 -0.78799999 -0.37799999 87 0 0
1.478 -0.79000002 -0.38 76 0 0
1.476 -0.792 -0.382 94 0 0
1.474 -0.79299998 -0.38499999 97 0 0
1.47 -0.79400003 -0.38699999 124 0 0
1.462 -0.79299998 -0.38800001 107 0 0
1.461 -0.79500002 -0.391 102 0 0
1.456 -0.79500002 -0.39300001 100 0 0
1.456 -0.79799998 -0.396 113 0 0
1.45 -0.79799998 -0.39700001 121 0 0
1.4450001 -0.79699999 -0.39899999 98 0 0
1.45 -0.80199999 -0.403 113 0 0
1.4400001 -0.80000001 -0.40400001 97 0 0
1.439 -0.801 -0.40700001 111 0 0
1.437 -0.80299997 -0.40900001 101 0 0
1.433 -0.80299997 -0.41100001 91 0 0
1.428 -0.80299997 -0.41299999 122 0 0
1.427 -0.80400002 -0.41600001 83 0 0
1.4220001 -0.80400002 -0.417 147 0 0
1.418 -0.80400002 -0.419 140 0 0
1.418 -0.80599999 -0.42199999 138 0 0
1.418 -0.80800003 -0.42500001 119 0 0
1.414 -0.80800003 -0.42699999 140 0 0
1.4119999 -0.80800003 -0.42899999 150 0 0
1.408 -0.80800003 -0.43099999 148 0 0
1.4069999 -0.80900002 -0.433 150 0 0
1.405 -0.81 -0.43599999 150 0 0
1.404 -0.81099999 -0.43799999 150 0 0
1.4 -0.81 -0.44 138 0 0
1.401 -0.81300002 -0.44299999 121 0 0
1.4 -0.81300002 -0.44600001 150 0 0
1.3940001 -0.81199998 -0.447 150 0 0
1.391 -0.81099999 -0.44800001 145 0 0
1.392 -0.81300002 -0.45199999 150 0 0
1.388 -0.81199998 -0.45300001 150 0 0
1.387 -0.81300002 -0.456 147 0 0
1.386 -0.81400001 -0.458 149 0 0
1.385 -0.81400001 -0.46000001 150 0 0
1.3839999 -0.81400001 -0.463 150 0 0
1.383 -0.815 -0.465 150 0 0
1.382 -0.815 -0.46700001 145 0 0
1.381 -0.81599998 -0.46900001 150 0 0
1.3789999 -0.815 -0.47099999 145 0 0
1.376 -0.81400001 -0.47299999 150 0 0
1.376 -0.815 -0.47499999 150 0 0
1.374 -0.81400001 -0.477 150 0 0
1.376 -0.81599998 -0.47999999 150 0 0
1.374 -0.815 -0.48199999 150 0 0
1.374 -0.81599998 -0.48500001 150 0 0
1.372 -0.815 -0.486 150 0 0
1.373 -0.81599998 -0.48899999 150 0 0
1.372 -0.81599998 -0.491 150 0 0
1.369 -0.81400001 -0.49200001 150 0 0
1.3710001 -0.815 -0.495 150 0 0
1.369 -0.81400001 -0.49700001 150 0 0
1.368 -0.81300002 -0.498 150 0 0
1.37 -0.815 -0.50199997 150 0 0
1.367 -0.81300002 -0.50300002 150 0 0
1.369 -0.81300002 -0.505 150 0 0
1.3710001 -0.81400001 -0.50800002 150 0 0
1.368 -0.81199998 -0.509 150 0 0
1.3710001 -0.81300002 -0.51200002 150 0 0
1.368 -0.81099999 -0.51300001 150 0 0
1.37 -0.81199998 -0.51599997 150 0 0
1.368 -0.81 -0.51700002 150 0 0
1.37 -0.81 -0.51999998 150 0 0
1.37 -0.81 -0.52100003 150 0 0
1.369 -0.80800003 -0.523 150 0 0
1.3710001 -0.80900002 -0.52499998 150 0 0
1.3660001 -0.80500001 -0.52499998 150 0 0
1.372 -0.80699998 -0.52899998 150 0 0
1.3710001 -0.80599999 -0.52999997 150 0 0
1.374 -0.80599999 -0.53299999 150 0 0
1.372 -0.80400002 -0.53399998 150 0 0
1.374 -0.80400002 -0.53600001 150 0 0
1.375 -0.80299997 -0.53799999 150 0 0
1.377 -0.80299997 -0.54000002 150 0 0
1.378 -0.80199999 -0.542 150 0 0
1.378 -0.80000001 -0.54299998 150 0 0
1.378 -0.79900002 -0.54400003 150 0 0
1.381 -0.79900002 -0.54699999 150 0 0
1.382 -0.79799998 -0.54799998 150 0 0
1.385 -0.79799998 -0.551 150 0 0
1.3839999 -0.796 -0.55199999 150 0 0
1.385 -0.79400003 -0.55299997 150 0 0
1.388 -0.79400003 -0.55500001 150 0 0
1.391 -0.79400003 -0.55699998 150 0 0
1.392 -0.792 -0.55900002 150 0 0
1.392 -0.79000002 -0.55900002 150 0 0
1.392 -0.78799999 -0.56 150 0 0
1.398 -0.78899997 -0.56300002 150 0 0
1.401 -0.78799999 -0.565 150 0 0
1.405 -0.78799999 -0.56800002 150 0 0
1.404 -0.78500003 -0.56800002 150 0 0
1.405 -0.78299999 -0.56900001 150 0 0
1.41 -0.78399998 -0.57099998 150 0 0
1.4119999 -0.78200001 -0.57300001 150 0 0
1.4119999 -0.77999997 -0.57300001 150 0 0
1.416 -0.77899998 -0.57499999 150 0 0
1.418 -0.778 -0.57599998 150 0 0
1.42 -0.77600002 -0.57800001 150 0 0
1.421 -0.773 -0.57800001 150 0 0
1.426 -0.773 -0.57999998 150 0 0
1.434 -0.77499998 -0.58399999 150 0 0
1.4349999 -0.77200001 -0.58399999 150 0 0
1.436 -0.76999998 -0.58499998 150 0 0
1.4400001 -0.76899999 -0.58600003 150 0 0
1.441 -0.76599997 -0.58700001 150 0 0
1.444 -0.764 -0.588 150 0 0
1.448 -0.76300001 -0.58899999 150 0 0
1.452 -0.76200002 -0.59100002 150 0 0
1.4579999 -0.76200002 -0.59299999 150 0 0
1.46 -0.759 -0.59299999 150 0 0
1.464 -0.759 -0.59500003 150 0 0
1.466 -0.75599998 -0.59500003 150 0 0
1.471 -0.755 -0.597 150 0 0
1.474 -0.75300002 -0.597 150 0 0
1.477 -0.75099999 -0.59799999 150 0 0
1.4809999 -0.74900001 -0.59899998 150 0 0
1.4859999 -0.74800003 -0.60000002 150 0 0
1.49 -0.74599999 -0.60100001 150 0 0
1.4910001 -0.74299997 -0.60100001 150 0 0
1.498 -0.74299997 -0.60299999 150 0 0
1.502 -0.741 -0.60399997 150 0 0
1.5039999 -0.73799998 -0.60299999 150 0 0
1.5089999 -0.736 -0.60399997 150 0 0
1.5140001 -0.73500001 -0.60600001 150 0 0
1.517 -0.73299998 -0.60600001 150 0 0
1.52 -0.73000002 -0.60600001 150 0 0
1.523 -0.727 -0.60600001 150 0 0
1.525 -0.72399998 -0.60500002 150 0 0
1.529 -0.722 -0.60600001 150 0 0
1.531 -0.71899998 -0.60500002 150 0 0
1.543 -0.72000003 -0.60900003 150 3 0
1.549 -0.71899998 -0.61000001 150 0 0
1.551 -0.71499997 -0.60900003 145 0 0
1.557 -0.71399999 -0.61000001 150 0 0
1.559 -0.71100003 -0.60900003 150 0 0
1.568 -0.71100003 -0.611 150 0 0
1.5700001 -0.70700002 -0.611 139 0 0
1.577 -0.70599997 -0.611 150 16 0
1.5779999 -0.70200002 -0.61000001 150 16 0
1.584 -0.69999999 -0.611 150 16 0
1.5930001 -0.699 -0.61199999 150 16 0
1.596 -0.69599998 -0.61199999 150 16 0
1.601 -0.69400001 -0.61199999 150 0 0
1.6059999 -0.69099998 -0.61199999 150 16 0
1.613 -0.69 -0.61199999 150 16 0
1.62 -0.68900001 -0.61299998 150 16 0
1.6210001 -0.68400002 -0.61199999 150 0 0
1.63 -0.68300003 -0.61299998 150 16 0
1.632 -0.67900002 -0.611 145 0 0
1.642 -0.67900002 -0.61299998 119 0 0
1.649 -0.67699999 -0.61299998 100 0 0
1.656 -0.67500001 -0.61400002 122 0 0
1.659 -0.67199999 -0.61199999 150 0 0
1.661 -0.66799998 -0.611 127 0 0
1.668 -0.66600001 -0.611 113 0 0
1.671 -0.662 -0.61000001 127 0 0
1.679 -0.66100001 -0.61000001 90 0 0
1.6900001 -0.66000003 -0.611 150 0 0
1.692 -0.65600002 -0.60900003 2 0 0
1.696 -0.653 -0.60799998 2 0 0
1.706 -0.65200001 -0.60900003 2 0 0
1.71 -0.648 -0.60799998 2 0 0
1.715 -0.64499998 -0.60699999 2 0 0
1.723 -0.64300001 -0.60699999 2 0 0
1.732 -0.64200002 -0.60699999 2 0 0
1.7359999 -0.63800001 -0.60600001 150 16 0
1.74 -0.63499999 -0.60399997 2 0 0
1.75 -0.63300002 -0.60500002 2 0 0
1.756 -0.63 -0.60399997 2 0 0
1.7640001 -0.62800002 -0.60399997 2 0 0
1.766 -0.62400001 -0.60100001 2 0 0
1.775 -0.62199998 -0.60100001 2 0 0
1.786 -0.62099999 -0.602 150 16 0
1.788 -0.616 -0.60000002 2 0 0
1.794 -0.61299998 -0.59799999 150 16 0
1.802 -0.611 -0.59799999 150 16 0
1.8099999 -0.60799998 -0.597 150 16 0
1.813 -0.60399997 -0.59500003 150 16 0
1.821 -0.602 -0.59399998 150 16 0
1.83 -0.60000002 -0.59399998 150 16 0
1.837 -0.597 -0.59200001 150 16 0
1.84 -0.59299999 -0.58999997 150 16 0
1.85 -0.58999997 -0.58899999 150 16 0
1.859 -0.588 -0.58899999 150 16 0
1.8660001 -0.58499998 -0.58700001 150 16 0
1.87 -0.58099997 -0.58499998 150 16 0
1.875 -0.57700002 -0.583 150 16 0
1.88 -0.574 -0.58099997 150 16 0
1.896 -0.57300001 -0.58200002 150 16 0
1.9 -0.56900001 -0.579 150 16 0
1.91 -0.56699997 -0.579 150 16 0
1.916 -0.56400001 -0.57700002 150 16 0
1.925 -0.56099999 -0.57599998 150 16 0
1.934 -0.55800003 -0.574 150 16 0
1.941 -0.55500001 -0.57200003 150 16 0
1.95 -0.55199999 -0.57099998 150 16 0
1.956 -0.54900002 -0.56900001 150 16 0
1.961 -0.54500002 -0.56599998 121 16 0
1.969 -0.542 -0.56400001 128 16 0
1.978 -0.53899997 -0.56300002 124 16 0
1.989 -0.537 -0.56199998 122 16 0
1.9960001 -0.53299999 -0.56 129 16 0
2.0020001 -0.52899998 -0.55699998 127 16 0
2.016 -0.528 -0.55699998 115 16 0
2.0209999 -0.52399999 -0.55400002 118 16 0
2.029 -0.51999998 -0.55199999 120 16 0
2.0350001 -0.51599997 -0.54900002 119 16 0
2.0450001 -0.51300001 -0.54699999 124 16 0
2.0539999 -0.50999999 -0.54500002 110 16 0
2.062 -0.50700003 -0.54299998 109 16 0
2.073 -0.50400001 -0.54100001 103 16 0
2.0829999 -0.50099999 -0.53899997 109 16 0
2.089 -0.49700001 -0.53600001 113 16 0
2.0940001 -0.493 -0.53299999 118 16 0
2.1010001 -0.48899999 -0.52999997 112 16 0
2.118 -0.48800001 -0.52999997 100 16 0
2.1289999 -0.48500001 -0.528 116 16 0
2.1370001 -0.48100001 -0.52499998 106 16 0
2.145 -0.477 -0.52200001 100 16 0
2.1530001 -0.47299999 -0.51899999 98 16 0
2.1630001 -0.47 -0.51700002 98 16 0
2.1700001 -0.46599999 -0.514 85 16 0
2.1830001 -0.463 -0.51200002 95 16 0
2.194 -0.46000001 -0.50999999 73 16 0
2.2 -0.456 -0.50599998 76 16 0
2.2060001 -0.45199999 -0.50199997 69 16 0
2.2179999 -0.449 -0.5 69 16 0
2.2290001 -0.44499999 -0.49700001 72 16 0
2.2390001 -0.442 -0.495 79 16 0
2.244 -0.43700001 -0.49000001 73 16 0
2.2550001 -0.43399999 -0.48800001 66 16 0
2.2690001 -0.43099999 -0.486 69 16 0
2.276 -0.426 -0.48199999 59 16 0
2.289 -0.42300001 -0.479 66 16 0
2.2950001 -0.419 -0.47499999 66 16 0
2.3069999 -0.41499999 -0.472 64 16 0
2.3180001 -0.412 -0.46900001 68 16 0
2.325 -0.40799999 -0.465 57 16 0
2.339 -0.40400001 -0.463 57 16 0
2.346 -0.40000001 -0.458 64 16 0
2.3529999 -0.39500001 -0.454 64 16 0
2.3659999 -0.39199999 -0.45100001 56 16 0
2.3789999 -0.38800001 -0.44800001 56 16 0
2.3940001 -0.38499999 -0.44499999 46 16 0
2.4030001 -0.38100001 -0.44100001 46 16 0
2.414 -0.377 -0.43799999 52 16 0
2.4219999 -0.37200001 -0.433 51 16 0
2.431 -0.368 -0.42899999 39 16 0
2.4400001 -0.36399999 -0.42500001 43 16 0
2.4519999 -0.36000001 -0.421 43 16 0
2.4649999 -0.35600001 -0.41800001 43 16 0
2.4760001 -0.352 -0.414 35 16 0
2.4820001 -0.347 -0.40900001 40 16 0
2.4960001 -0.34299999 -0.405 39 16 0
2.5120001 -0.34 -0.40200001 33 16 0
2.516 -0.33399999 -0.396 34 16 0
2.527 -0.33000001 -0.39199999 33 16 0
2.5420001 -0.32600001 -0.38800001 37 16 0
2.5569999 -0.322 -0.384 37 16 0
2.563 -0.317 -0.37900001 34 16 0
2.576 -0.31299999 -0.375 34 16 0
2.585 -0.308 -0.37 35 16 0
2.5969999 -0.30399999 -0.36500001 33 16 0
2.6129999 -0.30000001 -0.361 33 16 0
2.622 -0.29499999 -0.35600001 34 16 0
2.6340001 -0.29100001 -0.35100001 33 16 0
2.642 -0.28600001 -0.34599999 30 16 0
2.6619999 -0.28200001 -0.34200001 31 16 0
2.671 -0.27700001 -0.33700001 32 16 0
2.687 -0.273 -0.33199999 31 16 0
2.701 -0.26800001 -0.32699999 32 16 0
2.711 -0.26300001 -0.322 31 16 0
2.72 -0.25799999 -0.31600001 31 16 0
2.7290001 -0.25299999 -0.31099999 31 16 0
2.7490001 -0.249 -0.30599999 31 16 0
2.756 -0.244 -0.30000001 31 16 0
2.7679999 -0.23899999 -0.29499999 30 16 0
2.7820001 -0.234 -0.289 31 16 0
2.793 -0.229 -0.28299999 29 16 0
2.8069999 -0.22400001 -0.278 30 16 0
2.8199999 -0.219 -0.27200001 29 16 0
2.836 -0.214 -0.26699999 31 16 0
2.8499999 -0.20900001 -0.26100001 30 16 0
2.8640001 -0.204 -0.255 29 16 0
2.8770001 -0.199 -0.249 30 16 0
2.891 -0.19400001 -0.243 32 16 0
2.9030001 -0.189 -0.237 30 16 0
2.9159999 -0.183 -0.23100001 30 16 0
2.934 -0.178 -0.22499999 30 16 0
2.9419999 -0.17299999 -0.21799999 26 16 0
2.9630001 -0.168 -0.212 26 16 0
2.9749999 -0.162 -0.206 27 16 0
2.9890001 -0.15700001 -0.199 26 16 0
3 -0.15099999 -0.193 27 16 0
3.027 -0.146 -0.18700001 29 16 0
3.0380001 -0.141 -0.18000001 29 16 0
3.052 -0.13500001 -0.17299999 28 16 0
3.0710001 -0.12899999 -0.16599999 29 16 0
3.082 -0.124 -0.15899999 28 16 0
3.1029999 -0.118 -0.152 28 16 0
3.119 -0.112 -0.145 28 16 0
3.132 -0.106 -0.138 28 16 0
3.1470001 -0.101 -0.13 29 16 0
3.1670001 -0.094999999 -0.123 29 16 0
3.181 -0.089000002 -0.116 29 16 0
3.198 -0.082999997 -0.108 30 16 0
3.2160001 -0.077 -0.101 34 16 0
3.2309999 -0.071000002 -0.093000002 85 16 0
3.237 -0.064999998 -0.085000001 150 16 0
3.2379999 -0.057999998 -0.077 150 16 0
3.234 -0.052000001 -0.068000004 150 16 0
3.237 -0.045000002 -0.059999999 150 16 0
3.2379999 -0.039000001 -0.052000001 150 16 0
3.237 -0.033 -0.043000001 150 16 0
3.2420001 -0.026000001 -0.035 150 16 0
3.244 -0.02 -0.027000001 115 16 0
3.2390001 -0.014 -0.017999999 34 16 0
3.253 -0.0070000002 -0.0099999998 20 16 0
3.2690001 -0.001 -0.001 18 16 0
3.2909999 0.0040000002 0.0060000001 19 16 0
3.3039999 0.011 0.015 20 16 0
3.3269999 0.017000001 0.023 21 16 0
3.3440001 0.024 0.032000002 33 16 0
3.3540001 0.029999999 0.041000001 85 16 0
3.3529999 0.037 0.050000001 73 16 0
3.3529999 0.043000001 0.059 18 16 0
3.322 0.048999999 0.067000002 4 16 0
3.299 0.055 0.075000003 13 16 0
3.3199999 0.061999999 0.083999999 19 16 0
3.3269999 0.068000004 0.093000002 33 16 0
3.3139999 0.074000001 0.101 34 16 0
3.289 0.079999998 0.109 32 16 0
3.2709999 0.086000003 0.117 35 16 0
3.2520001 0.090999998 0.125 53 16 0
3.2449999 0.097000003 0.133 150 16 0
3.25 0.103 0.142 150 16 0
3.2490001 0.11 0.15099999 150 16 0
3.25 0.116 0.15899999 150 16 0
3.2550001 0.122 0.168 150 16 0
3.253 0.12800001 0.177 150 16 0
3.253 0.134 0.186 150 16 0
3.2539999 0.14 0.19400001 150 16 0
3.2539999 0.146 0.20299999 150 16 0
3.256 0.152 0.212 150 16 0
3.2579999 0.15800001 0.221 150 16 0
3.177 0.16 0.22400001 150 17 0
3.0699999 0.16 0.22499999 61 19 0
3.006 0.162 0.228 39 16 0
3.135 0.175 0.24600001 150 16 0
3.2409999 0.18700001 0.26300001 150 16 0
3.253 0.193 0.273 150 16 0
3.263 0.2 0.28299999 150 16 0
3.2620001 0.206 0.292 150 16 0
3.2609999 0.211 0.30000001 150 16 0
3.26 0.21699999 0.30899999 150 16 0
3.2620001 0.223 0.31799999 150 16 0
3.267 0.229 0.32800001 150 16 0
3.266 0.235 0.33700001 150 16 0
3.2650001 0.241 0.345 150 16 0
3.267 0.24699999 0.35499999 150 16 0
3.2709999 0.25299999 0.36399999 150 16 0
3.267 0.25799999 0.373 150 16 0
3.267 0.264 0.382 150 16 0
3.2639999 0.27000001 0.38999999 120 16 0
3.2490001 0.27399999 0.398 41 16 0
3.2390001 0.27900001 0.40599999 40 16 0
3.2190001 0.28299999 0.412 45 16 0
3.2019999 0.287 0.419 44 16 0
3.1860001 0.29100001 0.42500001 45 16 0
3.1730001 0.29499999 0.433 44 16 0
3.1570001 0.29899999 0.43900001 45 16 0
3.1429999 0.303 0.44600001 44 16 0
3.125 0.30700001 0.45199999 44 16 0
3.105 0.31 0.458 41 16 0
3.0940001 0.31400001 0.465 45 16 0
3.073 0.317 0.47099999 43 16 0
3.0599999 0.32100001 0.477 43 16 0
3.0469999 0.32499999 0.484 44 16 0
3.0369999 0.329 0.491 45 16 0
3.0139999 0.331 0.49599999 41 16 0
3.006 0.336 0.50300002 58 16 0
2.993 0.33899999 0.50999999 50 16 0
2.9779999 0.34200001 0.51599997 57 16 0
2.9619999 0.345 0.52100003 55 16 0
2.95 0.34900001 0.528 56 16 0
2.928 0.35100001 0.53200001 61 16 0
2.9200001 0.35499999 0.53899997 68 16 0
2.911 0.359 0.546 70 16 0
2.891 0.361 0.551 63 16 0
2.8789999 0.36399999 0.55699998 65 16 0
2.8659999 0.36700001 0.56199998 65 16 0
2.859 0.37099999 0.56900001 65 16 0
2.8380001 0.373 0.574 65 16 0
2.825 0.37599999 0.579 73 16 0
2.813 0.37799999 0.58499998 78 16 0
2.799 0.38100001 0.58999997 77 16 0
2.7880001 0.384 0.59600002 76 16 0
2.776 0.38699999 0.602 78 16 0
2.7639999 0.389 0.60699999 76 16 0
2.7539999 0.39199999 0.61299998 80 16 0
2.74 0.39500001 0.61799997 77 16 0
2.73 0.39700001 0.62400001 84 16 0
2.7130001 0.39899999 0.62900001 88 16 0
2.7019999 0.40200001 0.634 87 16 0
2.6930001 0.40400001 0.63999999 87 16 0
2.6849999 0.40700001 0.64600003 90 16 0
2.664 0.40799999 0.64899999 98 16 0
2.6559999 0.41100001 0.65499997 90 16 0
2.648 0.414 0.66100001 97 16 0
2.638 0.41600001 0.667 88 16 0
2.6270001 0.41800001 0.67199999 97 16 0
2.6159999 0.41999999 0.67699999 93 16 0
2.605 0.42300001 0.68199998 90 16 0
2.5929999 0.42399999 0.68699998 95 16 0
2.5829999 0.42699999 0.69199997 108 16 0
2.5669999 0.428 0.69499999 96 16 0
2.5539999 0.42899999 0.69999999 102 16 0
2.5439999 0.43099999 0.70499998 104 16 0
2.536 0.43399999 0.71100003 107 16 0
2.5250001 0.435 0.71499997 109 16 0
2.5150001 0.43700001 0.72000003 111 16 0
2.5050001 0.43900001 0.72500002 107 16 0
2.493 0.44 0.72899997 103 16 0
2.4849999 0.442 0.73400003 101 16 0
2.471 0.44299999 0.73799998 120 16 0
2.467 0.44600001 0.74400002 109 16 0
2.4560001 0.447 0.74900001 146 16 0
2.444 0.44800001 0.75300002 150 16 0
2.4319999 0.449 0.75700003 147 16 0
2.425 0.45100001 0.76200002 145 16 0
2.4089999 0.45199999 0.76499999 150 16 0
2.3989999 0.45300001 0.76899999 145 16 0
2.3900001 0.454 0.77399999 150 16 0
2.381 0.456 0.778 150 16 0
2.372 0.45699999 0.78299999 150 16 0
2.3640001 0.45899999 0.787 150 16 0
2.3529999 0.45899999 0.79100001 150 16 0
2.3399999 0.46000001 0.79400003 150 16 0
2.3369999 0.46200001 0.801 150 16 0
2.3269999 0.463 0.80500001 150 16 0
2.316 0.46399999 0.80800003 150 16 0
2.3099999 0.46599999 0.81400001 150 16 0
2.2969999 0.46599999 0.81599998 150 16 0
2.293 0.46799999 0.82200003 150 16 0
2.2820001 0.46799999 0.82599998 150 16 0
2.27 0.46799999 0.82800001 150 16 0
2.2639999 0.47 0.83399999 150 16 0
2.2509999 0.46900001 0.83600003 150 16 0
2.2409999 0.47 0.83899999 150 16 0
2.233 0.47099999 0.84399998 150 16 0
2.2279999 0.472 0.84899998 150 16 0
2.2190001 0.47299999 0.85299999 150 16 0
2.2079999 0.47299999 0.85500002 150 16 0
2.197 0.47299999 0.85799998 150 16 0
2.1860001 0.47299999 0.861 150 16 0
2.1830001 0.47400001 0.86699998 150 16 0
2.1730001 0.47499999 0.87 150 16 0
2.1600001 0.47400001 0.87199998 150 16 0
2.154 0.47499999 0.87599999 150 16 0
2.151 0.47600001 0.88200003 150 16 0
2.1370001 0.47499999 0.88300002 150 16 0
2.1340001 0.477 0.889 150 16 0
2.1210001 0.47600001 0.88999999 150 16 0
2.1099999 0.47499999 0.89300001 150 16 0
2.108 0.477 0.898 150 16 0
2.099 0.477 0.90100002 150 16 0
2.0929999 0.477 0.90600002 150 16 0
2.0829999 0.477 0.90799999 150 16 0
2.0710001 0.47600001 0.90899998 150 16 0
2.0680001 0.477 0.91500002 150 16 0
2.0639999 0.477 0.91900003 150 16 0
2.052 0.47600001 0.921 150 16 0
2.043 0.47600001 0.92299998 150 16 0
2.0369999 0.47600001 0.92699999 150 16 0
2.0309999 0.47600001 0.93099999 150 16 0
2.0250001 0.47600001 0.935 150 16 0
2.0139999 0.47499999 0.93599999 150 16 0
2.0090001 0.47499999 0.94 150 16 0
1.998 0.47400001 0.94099998 150 16 0
1.994 0.47499999 0.94599998 150 16 0
1.989 0.47499999 0.94999999 150 16 0
1.98 0.47400001 0.95200002 150 16 0
1.971 0.47299999 0.954 150 16 0
1.9680001 0.47299999 0.958 150 16 0
1.957 0.472 0.95899999 150 16 0
1.9450001 0.47 0.95999998 150 16 0
1.937 0.46900001 0.96200001 150 16 0
1.9349999 0.47 0.96700001 150 16 0
1.931 0.47 0.97100002 150 16 0
1.924 0.46900001 0.97299999 150 16 0
1.918 0.46799999 0.97600001 150 16 0
1.909 0.46700001 0.97799999 150 16 0
1.904 0.46700001 0.98100001 150 16 0
1.898 0.46599999 0.98400003 150 16 0
1.892 0.465 0.986 150 16 0
1.887 0.465 0.99000001 150 16 0
1.876 0.463 0.99000001 150 16 0
1.873 0.46200001 0.99400002 150 16 0
1.869 0.46200001 0.99699998 150 16 0
1.863 0.461 0.99900001 150 16 0
1.859 0.46000001 1.002 150 16 0
1.848 0.458 1.002 150 16 0
1.845 0.458 1.006 150 16 0
1.842 0.45699999 1.01 150 16 0
1.837 0.456 1.012 150 16 0
1.8329999 0.456 1.015 150 16 0
1.824 0.454 1.016 150 16 0
1.816 0.45199999 1.016 150 16 0
1.814 0.45100001 1.02 150 16 0
1.808 0.44999999 1.022 150 16 0
1.802 0.44800001 1.024 150 16 0
1.795 0.447 1.025 150 16 0
1.793 0.44600001 1.029 150 16 0
1.784 0.44400001 1.028 150 16 0
1.7819999 0.44299999 1.0319999 150 16 0
1.779 0.442 1.035 150 16 0
1.771 0.44 1.035 150 16 0
1.7690001 0.43900001 1.039 150 16 0
1.766 0.43799999 1.041 150 16 0
1.761 0.43700001 1.043 150 16 0
1.756 0.435 1.045 150 16 0
1.7539999 0.43399999 1.0470001 150 16 0
1.747 0.43200001 1.048 150 16 0
1.739 0.42899999 1.0470001 150 16 0
1.74 0.42899999 1.052 150 16 0
1.733 0.42699999 1.052 150 16 0
1.733 0.426 1.056 150 16 0
1.729 0.42399999 1.058 150 16 0
1.722 0.42199999 1.057 150 16 0
1.72 0.421 1.0599999 150 16 0
1.706 0.41600001 1.056 150 18 0
1.705 0.41499999 1.058 150 16 0
1.701 0.41299999 1.0599999 150 16 0
1.7 0.412 1.062 150 16 0
1.698 0.41100001 1.0650001 150 16 0
1.694 0.40799999 1.066 150 16 0
1.692 0.40700001 1.068 150 16 0
1.6900001 0.40599999 1.0700001 150 16 0
1.687 0.40400001 1.072 150 16 0
1.686 0.40200001 1.074 150 16 0
1.682 0.40000001 1.075 150 16 0
1.681 0.39899999 1.077 150 16 0
1.674 0.396 1.076 150 16 0
1.6720001 0.39399999 1.077 150 16 0
1.67 0.39199999 1.079 150 16 0
1.669 0.38999999 1.081 150 16 0
1.663 0.38699999 1.08 150 16 0
1.6619999 0.38600001 1.082 150 16 0
1.661 0.384 1.0829999 150 16 0
1.66 0.382 1.085 150 16 0
1.659 0.38 1.087 150 16 0
1.6569999 0.37799999 1.0880001 150 16 0
1.654 0.37599999 1.0880001 150 16 0
1.649 0.373 1.086 150 16 0
1.65 0.37099999 1.089 150 16 0
1.649 0.37 1.091 150 16 0
1.645 0.36700001 1.09 150 16 0
1.637 0.36300001 1.086 150 16 0
1.6440001 0.36300001 1.0930001 150 16 0
1.645 0.361 1.095 150 16 0
1.636 0.35699999 1.09 150 18 0
1.641 0.35600001 1.095 150 16 0
1.635 0.35299999 1.0930001 150 16 0
1.633 0.35100001 1.092 150 16 0
1.635 0.34900001 1.095 150 16 0
1.633 0.347 1.095 150 16 0
1.633 0.34400001 1.096 150 16 0
1.633 0.34200001 1.096 150 16 0
1.6289999 0.33899999 1.094 150 16 0
1.631 0.338 1.097 150 16 0
1.6289999 0.33500001 1.096 150 16 0
1.628 0.33199999 1.096 150 16 0
1.628 0.33000001 1.096 150 16 0
1.626 0.32800001 1.096 150 16 0
1.627 0.32499999 1.096 150 16 0
1.628 0.32300001 1.098 150 16 0
1.627 0.32100001 1.097 150 16 0
1.625 0.31799999 1.095 150 16 0
1.628 0.31600001 1.097 150 16 0
1.63 0.31400001 1.098 150 16 0
1.628 0.31099999 1.097 150 16 0
1.631 0.30899999 1.099 150 16 0
1.6289999 0.30700001 1.097 150 16 0
1.63 0.30399999 1.097 150 16 0
1.63 0.30199999 1.097 150 16 0
1.631 0.29899999 1.097 150 16 0
1.633 0.29699999 1.098 150 16 0
1.635 0.29499999 1.098 150 16 0
1.633 0.292 1.096 150 16 0
1.6339999 0.28999999 1.095 150 16 0
1.635 0.287 1.095 150 16 0
1.636 0.285 1.094 150 16 0
1.6390001 0.28299999 1.095 150 16 0
1.6390001 0.28 1.094 150 16 0
1.64 0.27700001 1.0930001 150 16 0
1.641 0.27500001 1.092 150 16 0
1.643 0.27200001 1.092 150 16 0
1.643 0.27000001 1.09 150 16 0
1.6440001 0.26699999 1.089 150 16 0
1.646 0.26499999 1.089 150 16 0
1.65 0.26300001 1.089 150 16 0
1.651 0.25999999 1.0880001 150 16 0
1.654 0.25799999 1.0880001 150 16 0
1.6569999 0.25600001 1.0880001 150 16 0
1.656 0.25299999 1.085 150 16 0
1.66 0.25099999 1.085 150 16 0
1.661 0.248 1.084 150 16 0
1.665 0.24600001 1.0829999 150 16 0
1.666 0.244 1.082 150 16 0
1.6670001 0.241 1.08 150 16 0
1.669 0.23800001 1.0779999 150 16 0
1.675 0.237 1.08 150 16 0
1.679 0.234 1.08 150 16 0
1.6799999 0.23199999 1.077 150 16 0
1.682 0.229 1.075 150 16 0
1.686 0.227 1.075 150 16 0
1.688 0.22400001 1.073 150 16 0
1.691 0.222 1.072 150 16 0
1.692 0.219 1.069 150 16 0
1.694 0.21699999 1.067 150 16 0
1.702 0.215 1.069 150 16 0
1.706 0.213 1.068 150 16 0
1.7079999 0.211 1.066 150 16 0
1.71 0.208 1.063 150 16 0
1.7180001 0.206 1.064 150 16 0
1.72 0.204 1.062 150 16 0
1.724 0.20200001 1.061 150 16 0
1.729 0.199 1.059 150 16 0
1.7309999 0.197 1.057 150 16 0
1.732 0.19400001 1.053 150 16 0
1.735 0.192 1.051 150 16 0
1.743 0.19 1.052 150 16 0
1.745 0.18799999 1.049 150 16 0
1.747 0.185 1.046 150 16 0
1.75 0.183 1.043 150 16 0
1.753 0.18099999 1.041 150 16 0
1.756 0.178 1.038 150 16 0
1.758 0.176 1.035 150 16 0
1.762 0.17399999 1.033 150 16 0
1.78 0.17299999 1.039 150 18 0
1.7819999 0.17 1.035 150 16 0
1.79 0.168 1.035 150 16 0
1.793 0.16599999 1.0319999 150 16 0
1.7970001 0.164 1.029 150 16 0
1.799 0.162 1.026 150 16 0
1.8049999 0.16 1.024 150 16 0
1.816 0.15800001 1.025 150 16 0
1.818 0.156 1.022 150 16 0
1.826 0.154 1.021 150 16 0
1.831 0.152 1.0190001 150 16 0
1.836 0.15000001 1.016 150 16 0
1.8430001 0.148 1.015 150 16 0
1.846 0.145 1.011 150 16 0
1.85 0.14300001 1.008 150 16 0
1.852 0.141 1.0039999 150 16 0
1.8609999 0.139 1.003 150 16 0
1.867 0.13699999 1.001 150 16 0
1.869 0.13500001 0.99599999 150 16 0
1.8789999 0.134 0.99599999 150 16 0
1.892 0.132 0.99699998 150 16 0
1.896 0.13 0.99400002 150 16 0
1.9 0.12800001 0.99000001 150 16 0
1.9069999 0.126 0.98799998 150 16 0
1.9119999 0.124 0.98500001 150 16 0
1.916 0.122 0.98100001 150 16 0
1.926 0.12 0.98000002 150 16 0
1.932 0.119 0.977 150 16 0
1.936 0.117 0.97299999 150 16 0
1.943 0.115 0.97100002 150 16 0
1.951 0.113 0.96899998 150 16 0
1.956 0.111 0.96499997 150 16 0
1.966 0.11 0.96399999 150 16 0
1.971 0.108 0.95999998 150 16 0
1.978 0.106 0.95700002 150 16 0
1.9859999 0.104 0.95499998 150 16 0
1.993 0.103 0.95200002 150 16 0
1.998 0.101 0.94700003 150 16 0
2.0039999 0.098999999 0.94400001 150 16 0
2.017 0.097000003 0.94400001 150 16 0
2.0239999 0.096000001 0.94 150 16 0
2.0320001 0.093999997 0.93800002 150 16 0
2.0420001 0.093000002 0.93599999 150 16 0
2.0469999 0.090999998 0.93099999 150 16 0
2.056 0.089000002 0.92799997 148 16 0
2.0639999 0.088 0.92500001 150 16 0
2.0710001 0.086000003 0.92199999 150 16 0
2.076 0.083999999 0.917 149 16 0
2.0869999 0.082999997 0.91500002 150 16 0
2.0940001 0.081 0.91100001 144 16 0
2.102 0.079999998 0.90799999 138 16 0
2.1070001 0.078000002 0.903 150 16 0
2.1170001 0.077 0.90100002 144 16 0
2.1229999 0.075000003 0.89600003 144 16 0
2.1340001 0.072999999 0.89399999 134 16 0
2.1429999 0.071999997 0.88999999 141 16 0
2.1530001 0.071000002 0.88800001 139 16 0
2.1570001 0.068999998 0.88200003 138 16 0
2.164 0.067000002 0.87800002 126 16 0
2.174 0.066 0.875 137 16 0
2.1800001 0.064999998 0.87 138 16 0
2.191 0.063000001 0.86699998 119 16 0
2.201 0.061999999 0.86299998 124 16 0
2.21 0.059999999 0.86000001 118 16 0
2.2160001 0.059 0.85399997 127 16 0
2.2290001 0.057999998 0.852 123 16 0
2.2360001 0.056000002 0.847 125 16 0
2.2460001 0.055 0.84399998 113 16 0
2.257 0.054000001 0.83999997 125 16 0
2.266 0.052000001 0.83600003 112 16 0
2.276 0.050999999 0.83200002 115 16 0
2.2869999 0.050000001 0.829 127 16 0
2.2939999 0.048999999 0.82300001 117 16 0
2.3069999 0.046999998 0.81999999 124 16 0
2.3139999 0.046 0.815 117 16 0
2.3239999 0.045000002 0.81099999 115 16 0
2.3340001 0.044 0.80599999 101 16 0
2.346 0.043000001 0.80299997 115 16 0
2.355 0.041000001 0.79799998 115 16 0
2.3670001 0.039999999 0.79400003 118 16 0
2.3759999 0.039000001 0.78899997 125 16 0
2.3829999 0.037999999 0.78299999 142 16 0
2.3900001 0.037 0.778 125 16 0
2.4030001 0.035999998 0.77399999 116 16 0
2.4119999 0.034000002 0.76899999 101 16 0
2.4170001 0.033 0.76200002 99 16 0
2.431 0.032000002 0.75800002 90 16 0
2.4400001 0.030999999 0.75300002 87 16 0
2.448 0.029999999 0.74699998 86 16 0
2.4630001 0.028999999 0.74400002 101 16 0
2.474 0.028000001 0.73900002 96 16 0
2.4860001 0.027000001 0.73400003 85 16 0
2.497 0.026000001 0.72899997 91 16 0
2.51 0.025 0.72399998 97 16 0
2.5179999 0.024 0.71799999 91 16 0
2.53 0.023 0.713 85 16 0
2.5420001 0.022 0.708 93 16 0
2.55 0.021 0.70200002 102 16 0
2.5710001 0.02 0.699 93 16 0
2.5810001 0.02 0.69300002 73 16 0
2.5929999 0.018999999 0.68800002 61 16 0
2.612 0.017999999 0.68400002 67 16 0
2.6259999 0.017000001 0.67900002 68 16 0
2.6370001 0.016000001 0.67299998 51 16 0
2.6489999 0.015 0.667 57 16 0
2.6600001 0.014 0.66100001 75 16 0
2.668 0.014 0.65399998 71 16 0
2.6849999 0.013 0.64899999 36 16 0
2.6919999 0.012 0.64200002 36 16 0
2.7 0.011 0.63499999 36 16 0
2.7249999 0.011 0.63200003 34 16 0
2.733 0.0099999998 0.625 33 16 0
2.747 0.0089999996 0.61900002 32 16 0
2.7579999 0.0080000004 0.61199999 34 16 0
2.776 0.0080000004 0.60699999 33 16 0
2.79 0.0070000002 0.60100001 32 16 0
2.8080001 0.0060000001 0.59500003 33 16 0
2.816 0.0060000001 0.588 32 16 0
2.8269999 0.0049999999 0.58099997 34 16 0
2.845 0.0040000002 0.57499999 38 16 0
2.8570001 0.0040000002 0.56800002 38 16 0
2.869 0.003 0.56099999 31 16 0
2.891 0.003 0.55599999 31 16 0
2.9000001 0.0020000001 0.54799998 31 16 0
2.924 0.001 0.54299998 32 16 0
2.938 0.001 0.53600001 31 16 0
2.9519999 0 0.528 32 16 0
2.97 0 0.52200001 32 16 0
2.9860001 0 0.51499999 31 16 0
3.0009999 0 0.50700003 31 16 0
3.0179999 -0.001 0.50099999 31 16 0
3.03 -0.001 0.49200001 30 16 0
3.052 -0.001 0.486 32 16 0
3.0669999 -0.0020000001 0.47799999 31 16 0
3.0840001 -0.0020000001 0.47099999 31 16 0
3.1029999 -0.003 0.46399999 31 16 0
3.1170001 -0.003 0.456 30 16 0
3.1389999 -0.003 0.44800001 31 16 0
3.161 -0.0040000002 0.44100001 32 16 0
3.1789999 -0.0040000002 0.433 34 16 0
3.1949999 -0.0040000002 0.42500001 33 16 0
3.211 -0.0049999999 0.417 34 16 0
3.23 -0.0049999999 0.40900001 32 16 0
3.2520001 -0.0049999999 0.40099999 33 16 0
3.2720001 -0.0049999999 0.39300001 34 16 0
3.29 -0.0060000001 0.384 33 16 0
3.3150001 -0.0060000001 0.37599999 33 16 0
3.326 -0.0060000001 0.366 32 16 0
3.346 -0.0060000001 0.35800001 32 16 0
3.372 -0.0060000001 0.34999999 36 16 0
3.381 -0.0060000001 0.34 125 16 0
3.381 -0.0070000002 0.32800001 150 16 0
3.378 -0.0070000002 0.317 101 16 0
3.368 -0.0070000002 0.30500001 107 16 0
3.3659999 -0.0070000002 0.294 98 16 0
3.3640001 -0.0070000002 0.28299999 97 16 0
3.359 -0.0070000002 0.27200001 90 16 0
3.3559999 -0.0060000001 0.25999999 97 16 0
3.345 -0.0060000001 0.249 104 16 0
3.3440001 -0.0060000001 0.23800001 93 16 0
3.3329999 -0.0060000001 0.226 101 16 0
3.329 -0.0060000001 0.215 121 16 0
3.3269999 -0.0060000001 0.204 113 16 0
3.319 -0.0060000001 0.193 115 16 0
3.3180001 -0.0049999999 0.182 121 16 0
3.309 -0.0049999999 0.171 122 16 0
3.3039999 -0.0049999999 0.16 133 16 0
3.303 -0.0049999999 0.149 116 16 0
3.2950001 -0.0049999999 0.138 99 16 0
3.29 -0.0040000002 0.127 117 16 0
3.29 -0.0040000002 0.117 83 16 0
3.3 -0.0040000002 0.106 37 16 0
3.3110001 -0.003 0.096000001 22 16 0
3.3110001 -0.003 0.085000001 17 16 0
3.306 -0.003 0.074000001 16 16 0
3.302 -0.0020000001 0.063000001 16 16 0
3.299 -0.0020000001 0.052999999 16 16 0
3.2920001 -0.001 0.041999999 16 16 0
3.2869999 -0.001 0.030999999 16 16 0
3.286 0 0.021 16 16 0
3.2850001 0 0.0099999998 16 16 0
3.2839999 0 0 16 16 0
3.2750001 0 -0.0099999998 16 16 0
3.2780001 0.001 -0.021 16 16 0
3.2650001 0.001 -0.030999999 16 16 0
3.2650001 0.0020000001 -0.041999999 16 16 0
3.2690001 0.0020000001 -0.052999999 16 16 0
3.257 0.003 -0.063000001 16 16 0
3.26 0.003 -0.072999999 16 16 0
3.257 0.0040000002 -0.083999999 16 16 0
3.2539999 0.0049999999 -0.093999997 16 16 0
3.2490001 0.0049999999 -0.105 16 16 0
3.25 0.0060000001 -0.115 16 16 0
3.2420001 0.0070000002 -0.125 16 16 0
3.2460001 0.0080000004 -0.13600001 17 16 0
3.2409999 0.0080000004 -0.146 17 16 0
3.2379999 0.0089999996 -0.15700001 16 16 0
3.2320001 0.0099999998 -0.167 17 16 0
3.2309999 0.011 -0.177 18 16 0
3.2260001 0.011 -0.18700001 18 16 0
3.2279999 0.012 -0.198 19 16 0
3.2260001 0.013 -0.208 19 16 0
3.223 0.014 -0.21799999 20 16 0
3.2249999 0.015 -0.229 21 16 0
3.2260001 0.016000001 -0.23899999 25 16 0
3.2179999 0.017000001 -0.249 28 16 0
3.2160001 0.017999999 -0.25999999 31 16 0
3.2149999 0.017999999 -0.27000001 33 16 0
3.2079999 0.018999999 -0.28 37 16 0
3.2060001 0.02 -0.28999999 39 16 0
3.2 0.021 -0.30000001 44 16 0
3.1900001 0.022 -0.30899999 45 16 0
3.1849999 0.023 -0.31900001 47 16 0
3.191 0.024 -0.33000001 50 16 0
3.178 0.025 -0.33899999 52 16 0
3.171 0.026000001 -0.34900001 59 16 0
3.1630001 0.028000001 -0.35800001 63 16 0
3.1570001 0.028999999 -0.368 67 16 0
3.1530001 0.029999999 -0.377 58 16 0
3.151 0.030999999 -0.38699999 57 16 0
3.1459999 0.032000002 -0.39700001 56 16 0
3.1370001 0.033 -0.40599999 62 16 0
3.135 0.034000002 -0.41600001 55 16 0
3.122 0.035 -0.42399999 50 16 0
3.122 0.037 -0.43399999 48 16 0
3.118 0.037999999 -0.44400001 49 16 0
3.115 0.039000001 -0.454 45 16 0
3.108 0.039999999 -0.463 46 16 0
3.105 0.041999999 -0.472 43 16 0
3.1010001 0.043000001 -0.48199999 42 16 0
3.099 0.044 -0.49200001 38 16 0
3.0969999 0.046 -0.50099999 38 16 0
3.0829999 0.046999998 -0.509 39 16 0
3.0829999 0.048 -0.51899999 38 16 0
3.0780001 0.050000001 -0.52899998 40 16 0
3.073 0.050999999 -0.53799999 40 16 0
3.0710001 0.052000001 -0.54699999 48 16 0
3.0639999 0.054000001 -0.55599999 56 16 0
3.0580001 0.055 -0.565 63 16 0
3.05 0.057 -0.574 50 16 0
3.05 0.057999998 -0.583 65 16 0
3.0439999 0.059999999 -0.59200001 73 16 0
3.0369999 0.061000001 -0.60100001 68 16 0
3.0280001 0.063000001 -0.60900003 81 16 0
3.0239999 0.064000003 -0.61799997 106 16 0
3.0220001 0.066 -0.62699997 100 16 0
3.017 0.067000002 -0.63599998 107 16 0
3.0120001 0.068999998 -0.64499998 111 16 0
3.01 0.071000002 -0.65499997 110 16 0
3.0039999 0.071999997 -0.66299999 107 16 0
2.9979999 0.074000001 -0.67199999 97 16 0
2.9960001 0.075000003 -0.68099999 110 16 0
2.9920001 0.077 -0.69 114 16 0
2.9820001 0.079000004 -0.69700003 102 16 0
2.9779999 0.079999998 -0.70599997 95 16 0
2.974 0.082000002 -0.71499997 98 16 0
2.9649999 0.083999999 -0.72299999 92 16 0
2.9630001 0.086000003 -0.73199999 92 16 0
2.961 0.088 -0.741 97 16 0
2.9549999 0.089000002 -0.74900001 101 16 0
2.9519999 0.090999998 -0.75800002 87 16 0
2.947 0.093000002 -0.76599997 93 16 0
2.944 0.094999999 -0.77499998 91 16 0
2.937 0.097000003 -0.78299999 86 16 0
2.937 0.098999999 -0.79299998 106 16 0
2.925 0.101 -0.79900002 98 16 0
2.918 0.102 -0.80699998 104 16 0
2.9200001 0.105 -0.81699997 100 16 0
2.9130001 0.106 -0.82499999 101 16 0
2.9089999 0.108 -0.833 108 16 0
2.9030001 0.11 -0.84100002 103 16 0
2.8970001 0.112 -0.84799999 101 16 0
2.898 0.115 -0.85799998 95 16 0
2.8929999 0.117 -0.866 110 16 0
2.8859999 0.119 -0.87400001 114 16 0
2.881 0.121 -0.88200003 107 16 0
2.872 0.123 -0.88800001 109 16 0
2.872 0.125 -0.898 106 16 0
2.8659999 0.127 -0.90499997 96 16 0
2.8629999 0.12899999 -0.91399997 109 16 0
2.859 0.132 -0.92199999 104 16 0
2.8529999 0.134 -0.92900002 112 16 0
2.8499999 0.13600001 -0.93800002 117 16 0
2.8440001 0.138 -0.94499999 108 16 0
2.839 0.141 -0.95300001 113 16 0
2.836 0.14300001 -0.96100003 110 16 0
2.8299999 0.145 -0.96799999 102 16 0
2.8169999 0.147 -0.97299999 93 16 0
2.825 0.15000001 -0.98500001 113 16 0
2.8169999 0.152 -0.99199998 44 16 0
2.8380001 0.156 -1.008 18 16 0
3.5780001 0.2 -1.283 3 18 0
3.0350001 0.17299999 -1.098 0 17 0
3.03 0.176 -1.1059999 0 16 0
3.0020001 0.177 -1.1059999 0 16 0
3.0079999 0.18000001 -1.118 0 16 0
3.0109999 0.183 -1.128 0 16 0
2.9000001 0.18000001 -1.096 0 17 0
2.865 0.18000001 -1.092 0 16 0
2.872 0.184 -1.104 0 16 0
3.6159999 0.235 -1.402 4 17 0
2.7920001 0.185 -1.092 26 17 0
2.7590001 0.185 -1.0880001 109 16 0
2.7490001 0.18799999 -1.0930001 150 16 0
2.7449999 0.19 -1.1 150 16 0
2.737 0.193 -1.1059999 150 16 0
2.73 0.19499999 -1.112 150 16 0
2.7260001 0.198 -1.119 150 16 0
2.7260001 0.20100001 -1.128 150 16 0
2.7190001 0.204 -1.1339999 150 16 0
2.717 0.207 -1.141 150 16 0
2.714 0.20999999 -1.149 150 16 0
2.7079999 0.213 -1.155 150 16 0
2.698 0.215 -1.159 150 16 0
2.697 0.21799999 -1.1670001 150 16 0
2.691 0.221 -1.173 150 16 0
2.684 0.22400001 -1.179 150 16 0
2.6849999 0.227 -1.188 150 16 0
2.681 0.23 -1.194 150 16 0
2.677 0.233 -1.201 150 16 0
2.671 0.236 -1.207 150 16 0
2.6700001 0.23899999 -1.215 150 16 0
2.6600001 0.242 -1.2180001 150 16 0
2.655 0.245 -1.224 150 16 0
2.654 0.248 -1.232 150 16 0
2.6459999 0.25099999 -1.2359999 150 16 0
2.6429999 0.25400001 -1.243 150 16 0
2.6400001 0.257 -1.25 150 16 0
2.6359999 0.26100001 -1.256 150 16 0
2.6300001 0.264 -1.261 150 16 0
2.6259999 0.26699999 -1.268 150 16 0
2.6259999 0.271 -1.275 150 16 0
2.6159999 0.273 -1.278 150 16 0
2.6159999 0.27700001 -1.286 150 16 0
2.608 0.28 -1.29 150 16 0
2.6059999 0.28299999 -1.2970001 150 16 0
2.6010001 0.287 -1.302 150 16 0
2.5969999 0.28999999 -1.308 150 16 0
2.5940001 0.294 -1.314 150 16 0
2.5899999 0.29699999 -1.3200001 150 16 0
2.586 0.30000001 -1.325 150 16 0
2.5829999 0.30399999 -1.331 150 16 0
2.579 0.30700001 -1.337 150 16 0
2.5680001 0.31 -1.3380001 150 16 0
2.5710001 0.31400001 -1.347 150 16 0
2.5680001 0.31799999 -1.352 150 16 0
2.5550001 0.31999999 -1.353 143 16 0
2.5510001 0.324 -1.358 148 16 0
2.556 0.32800001 -1.368 150 16 0
2.543 0.331 -1.368 147 16 0
2.5409999 0.33500001 -1.374 150 16 0
2.536 0.338 -1.378 139 16 0
2.53 0.34099999 -1.381 138 16 0
2.526 0.345 -1.386 130 16 0
2.526 0.34900001 -1.393 145 16 0
2.5190001 0.352 -1.395 150 16 0
2.517 0.35600001 -1.401 145 16 0
2.516 0.36000001 -1.4069999 149 16 0
2.51 0.36300001 -1.41 138 16 0
2.507 0.36700001 -1.415 130 16 0
2.503 0.37099999 -1.419 137 16 0
2.5 0.375 -1.423 134 16 0
2.497 0.37799999 -1.428 135 16 0
2.4890001 0.38100001 -1.429 133 16 0
2.4890001 0.38600001 -1.4349999 134 16 0
2.4860001 0.38999999 -1.4400001 133 16 0
2.4820001 0.39300001 -1.443 135 16 0
2.474 0.396 -1.444 125 16 0
2.474 0.40099999 -1.45 116 16 0
2.471 0.40400001 -1.454 127 16 0
2.4679999 0.40799999 -1.4579999 140 16 0
2.4619999 0.41100001 -1.459 126 16 0
2.4590001 0.41499999 -1.4630001 143 16 0
2.457 0.419 -1.467 144 16 0
2.451 0.42300001 -1.469 139 16 0
2.4489999 0.42699999 -1.473 146 16 0
2.444 0.43000001 -1.474 134 16 0
2.4430001 0.435 -1.479 130 16 0
2.441 0.43799999 -1.483 137 16 0
2.4349999 0.442 -1.484 130 16 0
2.4360001 0.44600001 -1.489 134 16 0
2.425 0.449 -1.487 136 16 0
2.4230001 0.45300001 -1.49 145 16 0
2.4200001 0.45699999 -1.493 139 16 0
2.418 0.46000001 -1.4960001 147 16 0
2.4159999 0.46399999 -1.498 131 16 0
2.4130001 0.46799999 -1.501 140 16 0
