# .PCD v0.7 - Point Cloud Data file format
VERSION 0.7
FIELDS x y z intensity tag line
SIZE 4 4 4 4 1 1
TYPE F F F F U U
COUNT 1 1 1 1 1 1
WIDTH 1349
HEIGHT 1
VIEWPOINT 0 0 0 1 0 0 0
POINTS 1349
DATA ascii
2.408 1.1109999 0.75300002 74 16 0
2.411 1.105 0.75099999 68 16 0
2.414 1.099 0.75 71 16 0
2.4159999 1.0930001 0.74800003 69 16 0
2.4230001 1.089 0.74800003 71 16 0
2.428 1.084 0.74699998 76 16 0
2.4319999 1.0779999 0.745 71 16 0
2.4289999 1.069 0.74199998 72 16 0
2.4349999 1.064 0.741 70 16 0
2.441 1.0599999 0.74000001 76 16 0
2.4430001 1.053 0.73799998 72 16 0
2.447 1.0470001 0.73699999 77 16 0
2.451 1.041 0.73500001 74 16 0
2.454 1.035 0.73299998 75 16 0
2.457 1.029 0.73100001 77 16 0
2.461 1.023 0.72899997 83 16 0
2.4630001 1.016 0.727 84 16 0
2.467 1.01 0.72500002 75 16 0
2.473 1.005 0.72299999 76 16 0
2.4760001 0.99900001 0.72100002 72 16 0
2.4809999 0.99299997 0.71899998 84 16 0
2.483 0.986 0.71700001 72 16 0
2.4890001 0.98100001 0.71499997 75 16 0
2.4920001 0.97500002 0.71200001 63 16 0
2.4990001 0.97000003 0.71100003 66 16 0
2.507 0.96499997 0.70999998 63 16 0
2.5139999 0.95999998 0.708 73 16 0
2.517 0.95300001 0.70499998 75 16 0
2.5239999 0.94800001 0.704 75 16 0
2.5280001 0.94199997 0.70099998 70 16 0
2.5350001 0.93699998 0.69999999 69 16 0
2.5380001 0.93000001 0.69700003 71 16 0
2.5409999 0.92400002 0.69400001 70 16 0
2.5469999 0.91799998 0.69199997 63 16 0
2.553 0.91299999 0.68900001 62 16 0
2.559 0.90700001 0.68699998 74 16 0
2.562 0.89999998 0.68400002 72 16 0
2.5680001 0.89499998 0.68199998 70 16 0
2.575 0.889 0.68000001 69 16 0
2.5829999 0.884 0.67799997 69 16 0
2.5929999 0.88 0.676 64 16 0
2.592 0.87199998 0.67199999 57 16 0
2.6040001 0.86799997 0.671 68 16 0
2.6070001 0.861 0.667 66 16 0
2.6140001 0.85600001 0.66500002 64 16 0
2.6199999 0.85000002 0.662 51 16 0
2.625 0.84399998 0.65899998 51 16 0
2.6289999 0.83700001 0.65600002 44 16 0
2.6370001 0.83200002 0.653 45 16 0
2.6400001 0.82499999 0.64999998 53 16 0
2.6500001 0.81999999 0.64700001 49 16 0
2.6570001 0.815 0.64499998 49 16 0
2.6630001 0.80800003 0.64200002 50 16 0
2.668 0.80199999 0.63800001 49 16 0
2.6819999 0.79799998 0.63700002 51 16 0
2.687 0.792 0.634 47 16 0
2.6930001 0.78600001 0.63 46 16 0
2.701 0.77999997 0.62699997 52 16 0
2.704 0.773 0.62300003 44 16 0
2.72 0.76999998 0.62199998 44 16 0
2.724 0.76300001 0.61799997 54 16 0
2.7320001 0.75700003 0.61500001 42 16 0
2.7349999 0.75 0.611 42 16 0
2.7449999 0.745 0.60799998 47 16 0
2.7479999 0.73799998 0.60399997 42 16 0
2.7650001 0.73400003 0.602 43 16 0
2.767 0.727 0.59799999 39 16 0
2.78 0.72299999 0.59600002 38 16 0
2.783 0.71499997 0.59100002 37 16 0
2.7950001 0.71100003 0.588 38 16 0
2.8010001 0.704 0.58399999 37 16 0
2.8080001 0.69800001 0.58099997 36 16 0
2.8199999 0.69300002 0.57800001 37 16 0
2.8269999 0.68699998 0.574 35 16 0
2.835 0.68099999 0.56999999 37 16 0
2.8469999 0.676 0.56699997 37 16 0
2.852 0.66900003 0.56300002 37 16 0
2.862 0.66299999 0.55900002 35 16 0
2.869 0.65700001 0.55500001 37 16 0
2.8729999 0.64999998 0.551 36 16 0
2.888 0.64499998 0.54799998 34 16 0
2.8959999 0.639 0.54400003 36 16 0
2.905 0.63300002 0.54000002 36 16 0
2.9159999 0.62699997 0.53600001 36 16 0
2.925 0.62099999 0.53200001 36 16 0
2.9330001 0.61500001 0.528 34 16 0
2.9460001 0.61000001 0.52499998 35 16 0
2.9530001 0.60299999 0.51999998 35 16 0
2.9649999 0.597 0.51599997 36 16 0
2.9679999 0.58999997 0.51099998 34 16 0
2.983 0.58499998 0.50800002 33 16 0
2.9909999 0.57800001 0.50300002 34 16 0
3.006 0.57300001 0.5 34 16 0
3.0150001 0.56699997 0.495 34 16 0
3.023 0.56 0.49000001 34 16 0
3.0339999 0.55400002 0.486 33 16 0
3.0480001 0.54900002 0.48199999 32 16 0
3.0580001 0.542 0.47799999 33 16 0
3.069 0.53600001 0.47299999 35 16 0
3.0769999 0.52899998 0.46799999 35 16 0
3.089 0.523 0.46399999 34 16 0
3.1010001 0.51700002 0.45899999 35 16 0
3.1140001 0.51099998 0.45500001 33 16 0
3.1259999 0.505 0.44999999 35 16 0
3.1370001 0.498 0.44499999 37 16 0
3.151 0.49200001 0.44100001 38 16 0
3.164 0.486 0.43599999 50 16 0
3.1730001 0.479 0.43099999 135 16 0
3.1760001 0.47099999 0.42500001 150 16 0
3.175 0.463 0.41800001 150 16 0
3.177 0.45500001 0.412 150 16 0
3.1789999 0.447 0.405 150 16 0
3.1800001 0.43900001 0.39899999 150 16 0
3.187 0.43200001 0.39300001 150 16 0
3.1889999 0.42399999 0.38699999 150 16 0
3.1849999 0.41600001 0.37900001 139 16 0
3.1849999 0.40799999 0.373 137 16 0
3.1889999 0.40000001 0.366 126 16 0
3.1900001 0.39199999 0.36000001 126 16 0
3.188 0.384 0.35299999 128 16 0
3.1949999 0.37599999 0.347 123 16 0
3.1949999 0.36899999 0.34 125 16 0
3.1930001 0.36000001 0.333 124 16 0
3.198 0.35299999 0.32699999 125 16 0
3.1960001 0.345 0.31999999 124 16 0
3.197 0.33700001 0.31299999 138 16 0
3.2030001 0.329 0.30700001 119 16 0
3.204 0.322 0.30000001 125 16 0
3.2060001 0.31400001 0.294 140 16 0
3.2 0.30500001 0.28600001 134 16 0
3.2030001 0.29800001 0.28 123 16 0
3.2019999 0.28999999 0.27200001 103 16 0
3.207 0.28200001 0.266 117 16 0
3.207 0.27500001 0.259 116 16 0
3.2090001 0.26699999 0.252 118 16 0
3.2149999 0.259 0.24600001 130 16 0
3.211 0.25099999 0.23800001 112 16 0
3.2130001 0.244 0.23199999 125 16 0
3.214 0.236 0.22499999 134 16 0
3.211 0.228 0.21799999 103 16 0
3.207 0.22 0.20999999 95 16 0
3.1340001 0.207 0.199 35 17 0
3.1470001 0.20100001 0.193 41 16 0
3.1340001 0.192 0.185 28 16 0
3.115 0.184 0.177 21 16 0
3.1919999 0.18099999 0.17399999 47 16 0
3.217 0.17399999 0.168 122 16 0
3.221 0.167 0.162 120 16 0
3.22 0.15899999 0.154 110 16 0
3.223 0.152 0.147 102 16 0
3.23 0.14399999 0.14 52 16 0
3.237 0.13699999 0.134 34 16 0
3.256 0.13 0.127 30 16 0
3.2709999 0.123 0.12 28 16 0
3.286 0.116 0.114 27 16 0
3.3 0.109 0.107 29 16 0
3.319 0.102 0.1 36 16 0
3.3329999 0.093999997 0.093000002 59 16 0
3.3369999 0.086999997 0.085000001 35 16 0
3.3410001 0.079000004 0.078000002 4 16 0
3.312 0.07 0.07 0 16 0
3.306 0.063000001 0.061999999 6 16 0
3.299 0.055 0.055 5 16 0
3.3310001 0.048 0.048 21 19 0
3.3310001 0.039999999 0.039999999 48 16 0
3.3410001 0.033 0.033 55 16 0
3.3399999 0.025 0.025 35 16 0
3.3199999 0.017000001 0.017000001 19 16 0
3.302 0.0089999996 0.0089999996 17 16 0
3.2809999 0.0020000001 0.0020000001 16 16 0
3.263 -0.0040000002 -0.0049999999 16 16 0
3.2409999 -0.012 -0.012 20 16 0
3.233 -0.018999999 -0.018999999 40 16 0
3.2390001 -0.027000001 -0.027000001 112 16 0
3.24 -0.034000002 -0.034000002 115 16 0
3.23 -0.041000001 -0.041999999 100 16 0
3.24 -0.048999999 -0.048999999 120 16 0
3.2360001 -0.056000002 -0.057 131 16 0
3.234 -0.063000001 -0.064999998 144 16 0
3.2349999 -0.07 -0.071999997 74 16 0
3.221 -0.077 -0.079000004 28 16 0
3.2030001 -0.083999999 -0.086000003 25 16 0
3.1830001 -0.090999998 -0.093000002 26 16 0
3.168 -0.097000003 -0.1 24 16 0
3.1489999 -0.104 -0.107 25 16 0
3.1289999 -0.11 -0.114 25 16 0
3.1159999 -0.117 -0.121 25 16 0
3.0929999 -0.122 -0.127 24 16 0
3.0799999 -0.12899999 -0.134 25 16 0
3.063 -0.13500001 -0.14 26 16 0
3.0469999 -0.141 -0.147 25 16 0
3.0239999 -0.146 -0.153 25 16 0
3.017 -0.153 -0.16 26 16 0
2.997 -0.15800001 -0.16599999 24 16 0
2.9809999 -0.164 -0.17200001 25 16 0
2.9649999 -0.17 -0.178 24 16 0
2.9449999 -0.175 -0.184 24 16 0
2.937 -0.18099999 -0.191 25 16 0
2.921 -0.186 -0.197 25 16 0
2.904 -0.191 -0.20299999 26 16 0
2.891 -0.197 -0.20900001 26 16 0
2.8710001 -0.20200001 -0.214 26 16 0
2.858 -0.207 -0.22 24 16 0
2.848 -0.212 -0.227 26 16 0
2.8369999 -0.21799999 -0.233 25 16 0
2.8169999 -0.222 -0.23800001 26 16 0
2.8050001 -0.227 -0.244 27 16 0
2.793 -0.23199999 -0.25 26 16 0
2.7780001 -0.237 -0.255 26 16 0
2.7679999 -0.242 -0.26100001 26 16 0
2.757 -0.24699999 -0.26699999 27 16 0
2.74 -0.25099999 -0.27200001 26 16 0
2.7260001 -0.25600001 -0.278 26 16 0
2.7219999 -0.26100001 -0.28400001 27 16 0
2.7119999 -0.266 -0.28999999 26 16 0
2.698 -0.27000001 -0.29499999 27 16 0
2.6819999 -0.27399999 -0.30000001 28 16 0
2.668 -0.27900001 -0.30500001 26 16 0
2.6630001 -0.28400001 -0.31099999 27 16 0
2.6500001 -0.28799999 -0.31600001 28 16 0
2.635 -0.292 -0.32100001 28 16 0
2.625 -0.296 -0.32699999 27 16 0
2.6140001 -0.30000001 -0.33199999 27 16 0
2.6010001 -0.30399999 -0.33700001 27 16 0
2.589 -0.308 -0.34200001 27 16 0
2.579 -0.31200001 -0.347 27 16 0
2.5710001 -0.317 -0.35299999 26 16 0
2.559 -0.32100001 -0.35800001 26 16 0
2.5480001 -0.32499999 -0.36300001 26 16 0
2.5350001 -0.32800001 -0.36700001 26 16 0
2.527 -0.33199999 -0.373 26 16 0
2.517 -0.336 -0.37799999 27 16 0
2.503 -0.33899999 -0.382 26 16 0
2.4979999 -0.34400001 -0.38800001 26 16 0
2.4849999 -0.347 -0.39199999 27 16 0
2.4760001 -0.35100001 -0.398 27 16 0
2.4679999 -0.35499999 -0.403 28 16 0
2.457 -0.35800001 -0.40700001 28 16 0
2.45 -0.36199999 -0.41299999 28 16 0
2.441 -0.366 -0.41800001 28 16 0
2.431 -0.36899999 -0.42199999 29 16 0
2.4189999 -0.37200001 -0.42699999 26 16 0
2.411 -0.37599999 -0.43200001 29 16 0
2.404 -0.37900001 -0.43700001 28 16 0
2.391 -0.382 -0.44100001 28 16 0
2.381 -0.38499999 -0.44499999 27 16 0
2.3710001 -0.38800001 -0.44999999 27 16 0
2.3610001 -0.391 -0.45500001 25 16 0
2.3570001 -0.39500001 -0.46000001 28 16 0
2.346 -0.398 -0.46399999 27 16 0
2.335 -0.40099999 -0.46900001 29 16 0
2.3239999 -0.403 -0.47299999 32 16 0
2.3199999 -0.40700001 -0.47799999 34 16 0
2.3069999 -0.41 -0.48199999 33 16 0
2.302 -0.41299999 -0.48699999 28 16 0
2.286 -0.41499999 -0.49000001 28 16 0
2.2809999 -0.41800001 -0.495 30 16 0
2.27 -0.421 -0.49900001 30 16 0
2.2690001 -0.42500001 -0.505 37 16 0
2.26 -0.42699999 -0.509 35 16 0
2.2520001 -0.43000001 -0.514 58 16 0
2.2390001 -0.43200001 -0.51700002 58 16 0
2.234 -0.435 -0.52200001 55 16 0
2.224 -0.43700001 -0.52600002 57 16 0
2.22 -0.44100001 -0.53100002 56 16 0
2.211 -0.44299999 -0.53500003 55 16 0
2.204 -0.44600001 -0.54000002 56 16 0
2.197 -0.44800001 -0.54400003 59 16 0
2.1900001 -0.45100001 -0.54900002 55 16 0
2.1819999 -0.454 -0.55299997 55 16 0
2.177 -0.456 -0.55800003 56 16 0
2.1630001 -0.458 -0.56099999 55 16 0
2.1600001 -0.461 -0.56599998 61 16 0
2.152 -0.463 -0.56999999 64 16 0
2.1440001 -0.465 -0.574 57 16 0
2.1340001 -0.46700001 -0.57800001 64 16 0
2.132 -0.47 -0.583 65 16 0
2.1229999 -0.472 -0.58700001 63 16 0
2.118 -0.47499999 -0.59200001 64 16 0
2.1029999 -0.47499999 -0.59399998 62 16 0
2.095 -0.477 -0.59799999 68 16 0
2.092 -0.47999999 -0.60299999 70 16 0
2.085 -0.48199999 -0.60699999 69 16 0
2.0829999 -0.48500001 -0.61199999 70 16 0
2.079 -0.48800001 -0.61699998 76 16 0
2.066 -0.48800001 -0.61900002 64 16 0
2.0610001 -0.49000001 -0.62400001 59 16 0
2.056 -0.493 -0.62900001 73 16 0
2.053 -0.49599999 -0.634 70 16 0
2.0450001 -0.49700001 -0.63800001 75 16 0
2.0369999 -0.49900001 -0.64099997 74 16 0
2.03 -0.5 -0.64499998 63 16 0
2.0280001 -0.50300002 -0.64999998 69 16 0
2.02 -0.50400001 -0.65399998 74 16 0
2.01 -0.505 -0.65700001 68 16 0
2.01 -0.50800002 -0.662 106 16 0
2.0050001 -0.50999999 -0.667 108 16 0
1.999 -0.51200002 -0.671 100 16 0
1.992 -0.51300001 -0.67500001 102 16 0
1.988 -0.51599997 -0.67900002 114 16 0
1.984 -0.51800001 -0.68400002 104 16 0
1.972 -0.51800001 -0.68599999 101 16 0
1.9680001 -0.51899999 -0.69 104 16 0
1.964 -0.52100003 -0.69499999 112 16 0
1.959 -0.523 -0.699 108 16 0
1.952 -0.52399999 -0.70200002 110 16 0
1.947 -0.52600002 -0.70700002 116 16 0
1.942 -0.52700001 -0.71100003 111 16 0
1.938 -0.52899998 -0.71499997 113 16 0
1.9349999 -0.53100002 -0.72000003 106 16 0
1.924 -0.53100002 -0.722 115 16 0
1.928 -0.53399998 -0.72899997 117 16 0
1.9170001 -0.53399998 -0.73100001 107 16 0
1.915 -0.53600001 -0.736 103 16 0
1.911 -0.53799999 -0.74000001 111 16 0
1.903 -0.53799999 -0.74299997 114 16 0
1.9 -0.54000002 -0.74800003 124 16 0
1.898 -0.542 -0.75300002 115 16 0
1.89 -0.542 -0.755 113 16 0
1.888 -0.54400003 -0.75999999 119 16 0
1.878 -0.54299998 -0.76200002 120 16 0
1.877 -0.54500002 -0.76800001 114 16 0
1.873 -0.54699999 -0.77200001 112 16 0
1.869 -0.54799998 -0.77600002 109 16 0
1.8660001 -0.54900002 -0.77999997 107 16 0
1.863 -0.551 -0.78500003 112 16 0
1.855 -0.55000001 -0.787 114 16 0
1.853 -0.55199999 -0.792 113 16 0
1.85 -0.55299997 -0.79699999 114 16 0
1.846 -0.55400002 -0.80000001 111 16 0
1.841 -0.55500001 -0.80400002 113 16 0
1.841 -0.55599999 -0.80900002 140 16 0
1.839 -0.55800003 -0.81400001 149 16 0
1.831 -0.55699998 -0.81599998 145 16 0
1.826 -0.55800003 -0.81900001 135 16 0
1.823 -0.55900002 -0.824 141 16 0
1.821 -0.56 -0.82800001 146 16 0
1.818 -0.56099999 -0.833 144 16 0
1.816 -0.56199998 -0.83700001 150 16 0
1.813 -0.56300002 -0.84100002 150 16 0
1.807 -0.56199998 -0.84399998 142 16 0
1.804 -0.56300002 -0.84799999 150 16 0
1.802 -0.56400001 -0.85299999 150 16 0
1.799 -0.565 -0.85600001 150 16 0
1.798 -0.56599998 -0.861 150 16 0
1.7920001 -0.565 -0.86400002 150 16 0
1.79 -0.56599998 -0.86799997 150 16 0
1.79 -0.56699997 -0.87300003 150 16 0
1.785 -0.56699997 -0.87599999 150 16 0
1.784 -0.56800002 -0.88099998 150 16 0
1.781 -0.56800002 -0.88499999 150 16 0
1.779 -0.56900001 -0.889 150 16 0
1.777 -0.56900001 -0.89300001 150 16 0
1.774 -0.56999999 -0.89700001 150 16 0
1.771 -0.56900001 -0.89999998 150 16 0
1.768 -0.56999999 -0.90399998 150 16 0
1.768 -0.56999999 -0.90899998 150 16 0
1.762 -0.56900001 -0.91100001 150 16 0
1.7640001 -0.57099998 -0.917 150 16 0
1.76 -0.56999999 -0.92000002 150 16 0
1.758 -0.57099998 -0.92400002 150 16 0
1.7539999 -0.56999999 -0.926 150 16 0
1.757 -0.57099998 -0.93199998 150 16 0
1.751 -0.56999999 -0.93400002 150 16 0
1.752 -0.57099998 -0.93900001 150 16 0
1.75 -0.57099998 -0.94300002 150 16 0
1.749 -0.57099998 -0.94700003 150 16 0
1.7460001 -0.57099998 -0.94999999 150 16 0
1.747 -0.57099998 -0.95499998 150 16 0
1.743 -0.56999999 -0.958 150 16 0
1.743 -0.57099998 -0.96200001 150 16 0
1.74 -0.56999999 -0.96499997 150 16 0
1.74 -0.56999999 -0.96899998 150 16 0
1.743 -0.57099998 -0.97500002 150 16 0
1.739 -0.56999999 -0.977 150 16 0
1.739 -0.56999999 -0.98199999 150 16 0
1.735 -0.56900001 -0.98400003 150 16 0
1.7359999 -0.56900001 -0.98799998 150 16 0
1.734 -0.56800002 -0.99199998 150 16 0
1.733 -0.56800002 -0.995 150 16 0
1.7309999 -0.56699997 -0.99800003 150 16 0
1.73 -0.56599998 -1.001 150 16 0
1.735 -0.56699997 -1.008 150 16 0
1.734 -0.56699997 -1.011 150 16 0
1.728 -0.56400001 -1.012 150 16 0
1.7309999 -0.565 -1.017 150 16 0
1.732 -0.56400001 -1.021 150 16 0
1.7309999 -0.56300002 -1.024 148 16 0
1.733 -0.56300002 -1.029 150 16 0
1.7309999 -0.56199998 -1.031 150 16 0
1.73 -0.56099999 -1.034 150 16 0
1.734 -0.56199998 -1.04 150 16 0
1.733 -0.56 -1.0420001 150 16 0
1.732 -0.55900002 -1.045 149 16 0
1.733 -0.55900002 -1.049 141 16 0
1.734 -0.55800003 -1.053 148 16 0
1.733 -0.55699998 -1.0549999 150 16 0
1.7359999 -0.55599999 -1.0599999 147 16 0
1.735 -0.55500001 -1.062 150 16 0
1.735 -0.55400002 -1.0650001 150 16 0
1.738 -0.55299997 -1.069 149 16 0
1.739 -0.55199999 -1.073 145 16 0
1.7410001 -0.55199999 -1.077 150 16 0
1.74 -0.55000001 -1.079 150 16 0
1.744 -0.55000001 -1.0829999 150 16 0
1.743 -0.54799998 -1.085 150 16 0
1.743 -0.546 -1.0880001 150 16 0
1.7460001 -0.546 -1.092 150 16 0
1.747 -0.54400003 -1.094 150 16 0
1.747 -0.54299998 -1.097 150 16 0
1.752 -0.542 -1.101 150 16 0
1.749 -0.54000002 -1.101 150 16 0
1.751 -0.53799999 -1.105 150 16 0
1.757 -0.53799999 -1.11 146 19 0
1.757 -0.53600001 -1.112 150 16 0
1.7589999 -0.53500003 -1.115 150 16 0
1.762 -0.53399998 -1.118 148 16 0
1.765 -0.53299999 -1.1210001 150 16 0
1.765 -0.53100002 -1.123 149 16 0
1.765 -0.528 -1.124 147 16 0
1.768 -0.52700001 -1.127 144 16 0
1.776 -0.52700001 -1.133 148 16 0
1.778 -0.52499998 -1.135 146 16 0
1.778 -0.523 -1.136 148 16 0
1.779 -0.52100003 -1.138 143 16 0
1.783 -0.51899999 -1.141 142 16 0
1.785 -0.51800001 -1.142 146 16 0
1.789 -0.51599997 -1.146 142 16 0
1.793 -0.51499999 -1.149 145 16 0
1.796 -0.51300001 -1.151 141 16 0
1.802 -0.51200002 -1.155 147 16 0
1.802 -0.509 -1.155 141 16 0
1.803 -0.50700003 -1.156 134 16 0
1.811 -0.50599998 -1.161 133 19 0
1.8150001 -0.505 -1.163 133 16 0
1.816 -0.50199997 -1.164 135 16 0
1.819 -0.5 -1.165 128 16 0
1.823 -0.498 -1.1670001 138 16 0
1.8279999 -0.49700001 -1.17 133 16 0
1.83 -0.49399999 -1.171 135 16 0
1.836 -0.493 -1.174 131 16 0
1.837 -0.49000001 -1.174 131 16 0
1.841 -0.48800001 -1.176 135 16 0
1.842 -0.48500001 -1.175 132 16 0
1.847 -0.48300001 -1.177 133 16 0
1.858 -0.48300001 -1.183 131 18 0
1.865 -0.48100001 -1.186 133 16 0
1.868 -0.479 -1.187 133 16 0
1.872 -0.477 -1.188 133 16 0
1.875 -0.47400001 -1.188 129 16 0
1.882 -0.47299999 -1.191 125 16 0
1.8839999 -0.47 -1.1900001 120 16 0
1.885 -0.46700001 -1.1900001 126 16 0
1.895 -0.46599999 -1.194 123 19 0
1.899 -0.463 -1.194 127 16 0
1.904 -0.461 -1.196 123 16 0
1.91 -0.45899999 -1.197 128 16 0
1.911 -0.456 -1.196 118 16 0
1.9220001 -0.45500001 -1.2 125 16 0
1.931 -0.45300001 -1.2029999 130 16 0
1.929 -0.449 -1.199 123 16 0
1.9349999 -0.447 -1.2 133 16 0
1.942 -0.44499999 -1.202 130 16 0
1.942 -0.44100001 -1.199 118 16 0
1.951 -0.44 -1.202 129 16 0
1.9579999 -0.43799999 -1.2029999 122 16 0
1.961 -0.435 -1.202 133 16 0
1.969 -0.433 -1.204 120 16 0
1.972 -0.43000001 -1.202 123 16 0
1.976 -0.42699999 -1.202 128 16 0
1.984 -0.42500001 -1.2029999 118 16 0
1.989 -0.42199999 -1.202 125 16 0
1.9960001 -0.41999999 -1.2029999 116 16 0
2.0009999 -0.417 -1.202 120 16 0
2.0090001 -0.41499999 -1.2029999 102 16 0
2.0139999 -0.412 -1.202 100 16 0
2.017 -0.40900001 -1.201 105 16 0
2.027 -0.40700001 -1.2029999 108 16 0
2.03 -0.40400001 -1.2 88 16 0
2.04 -0.403 -1.202 94 16 0
2.0450001 -0.40000001 -1.201 100 16 0
2.049 -0.396 -1.198 92 16 0
2.0580001 -0.39399999 -1.199 88 16 0
2.066 -0.39199999 -1.2 85 16 0
2.0680001 -0.389 -1.196 80 16 0
2.079 -0.38699999 -1.198 80 16 0
2.082 -0.384 -1.1950001 79 16 0
2.089 -0.38100001 -1.194 93 16 0
2.0969999 -0.37900001 -1.194 84 16 0
2.1029999 -0.37599999 -1.193 101 16 0
2.1129999 -0.37400001 -1.193 100 16 0
2.115 -0.37099999 -1.1900001 102 16 0
2.1270001 -0.36899999 -1.191 110 16 0
2.1270001 -0.36500001 -1.186 100 16 0
2.138 -0.36300001 -1.187 113 16 0
2.1459999 -0.361 -1.186 105 16 0
2.151 -0.35800001 -1.183 98 16 0
2.158 -0.35499999 -1.181 101 16 0
2.165 -0.352 -1.1799999 108 16 0
2.1700001 -0.34900001 -1.177 103 16 0
2.177 -0.347 -1.175 99 16 0
2.1800001 -0.34299999 -1.171 103 16 0
2.1900001 -0.34099999 -1.171 100 16 0
2.1960001 -0.338 -1.168 94 16 0
2.2060001 -0.336 -1.1670001 102 16 0
2.211 -0.333 -1.164 100 16 0
2.2160001 -0.33000001 -1.161 102 16 0
2.2260001 -0.32800001 -1.16 101 16 0
2.23 -0.32499999 -1.156 95 16 0
2.2390001 -0.322 -1.154 107 16 0
2.244 -0.31900001 -1.15 94 16 0
2.2520001 -0.317 -1.148 97 16 0
2.2579999 -0.31400001 -1.145 95 16 0
2.263 -0.31099999 -1.141 96 16 0
2.2720001 -0.308 -1.1390001 105 16 0
2.2809999 -0.30599999 -1.137 99 16 0
2.2909999 -0.30399999 -1.136 92 16 0
2.2950001 -0.301 -1.131 97 16 0
2.3010001 -0.29800001 -1.127 94 16 0
2.3069999 -0.29499999 -1.123 106 16 0
2.3199999 -0.29300001 -1.123 96 16 0
2.326 -0.28999999 -1.119 97 16 0
2.3329999 -0.287 -1.115 98 16 0
2.3380001 -0.28400001 -1.1109999 90 16 0
2.348 -0.28200001 -1.108 77 16 0
2.3529999 -0.27900001 -1.104 78 16 0
2.3640001 -0.27700001 -1.102 80 16 0
2.368 -0.27399999 -1.096 82 16 0
2.3759999 -0.271 -1.0930001 89 16 0
2.3829999 -0.26899999 -1.089 82 16 0
2.388 -0.266 -1.084 84 16 0
2.4000001 -0.264 -1.082 81 16 0
2.405 -0.26100001 -1.077 79 16 0
2.411 -0.25799999 -1.072 78 16 0
2.4200001 -0.25600001 -1.068 84 16 0
2.4300001 -0.25299999 -1.066 83 16 0
2.4349999 -0.25 -1.0599999 78 16 0
2.441 -0.248 -1.0549999 80 16 0
2.45 -0.245 -1.051 80 16 0
2.4590001 -0.243 -1.048 81 16 0
2.467 -0.23999999 -1.043 83 16 0
2.474 -0.23800001 -1.038 67 16 0
2.4820001 -0.235 -1.034 66 16 0
2.4890001 -0.233 -1.029 66 16 0
2.4960001 -0.23 -1.024 72 16 0
2.506 -0.228 -1.02 76 16 0
2.5139999 -0.22499999 -1.016 59 16 0
2.517 -0.223 -1.0089999 49 16 0
2.5320001 -0.221 -1.007 47 16 0
2.5369999 -0.21799999 -1.001 42 16 0
2.5409999 -0.215 -0.99400002 43 16 0
2.5469999 -0.213 -0.98900002 38 16 0
2.5539999 -0.20999999 -0.98299998 42 16 0
2.562 -0.208 -0.97799999 42 16 0
2.5669999 -0.205 -0.972 37 16 0
2.575 -0.20299999 -0.96700001 43 16 0
2.579 -0.2 -0.95999998 38 16 0
2.592 -0.198 -0.95599997 42 16 0
2.602 -0.19599999 -0.95200002 43 16 0
2.6059999 -0.193 -0.94499999 41 16 0
2.6140001 -0.191 -0.93900001 39 16 0
2.6229999 -0.189 -0.93400002 40 16 0
2.6259999 -0.186 -0.92699999 38 16 0
2.6340001 -0.184 -0.921 38 16 0
2.6459999 -0.182 -0.917 40 16 0
2.652 -0.17900001 -0.91000003 37 16 0
2.661 -0.177 -0.90499997 36 16 0
2.6670001 -0.175 -0.898 39 16 0
2.6760001 -0.17200001 -0.89200002 42 16 0
2.681 -0.17 -0.88499999 36 16 0
2.6900001 -0.168 -0.88 36 16 0
2.6919999 -0.16500001 -0.87099999 34 16 0
2.7049999 -0.163 -0.86699998 34 16 0
2.714 -0.161 -0.861 35 16 0
2.721 -0.15899999 -0.85399997 33 16 0
2.7260001 -0.15700001 -0.847 34 16 0
2.73 -0.154 -0.83899999 35 16 0
2.7409999 -0.152 -0.83399999 33 16 0
2.7539999 -0.15000001 -0.829 34 16 0
2.756 -0.148 -0.82099998 34 16 0
2.7590001 -0.145 -0.81199998 32 16 0
2.779 -0.14399999 -0.80900002 35 16 0
2.7820001 -0.142 -0.801 35 16 0
2.786 -0.139 -0.79299998 34 16 0
2.7909999 -0.13699999 -0.78500003 34 16 0
2.8039999 -0.13500001 -0.77999997 35 16 0
2.8069999 -0.133 -0.77200001 35 16 0
2.8180001 -0.131 -0.76599997 35 16 0
2.826 -0.12899999 -0.759 35 16 0
2.8269999 -0.127 -0.75 35 16 0
2.8410001 -0.125 -0.74400002 34 16 0
2.8469999 -0.123 -0.73699999 34 16 0
2.859 -0.121 -0.73100001 34 16 0
2.8640001 -0.119 -0.722 34 16 0
2.872 -0.117 -0.71499997 35 16 0
2.878 -0.115 -0.70700002 34 16 0
2.882 -0.113 -0.699 34 16 0
2.8940001 -0.111 -0.69199997 34 16 0
2.9030001 -0.109 -0.685 34 16 0
2.905 -0.107 -0.676 33 16 0
2.915 -0.105 -0.66900003 34 16 0
2.921 -0.103 -0.66100001 33 16 0
2.9289999 -0.101 -0.653 33 16 0
2.9349999 -0.098999999 -0.64499998 35 16 0
2.9400001 -0.097000003 -0.63599998 36 16 0
2.957 -0.096000001 -0.63099998 35 16 0
2.961 -0.093999997 -0.62199998 34 16 0
2.9719999 -0.092 -0.61400002 34 16 0
2.9749999 -0.090000004 -0.60600001 36 16 0
2.983 -0.088 -0.597 37 16 0
2.9909999 -0.086000003 -0.58899999 36 16 0
2.9990001 -0.085000001 -0.58099997 37 16 0
3.01 -0.082999997 -0.574 45 16 0
3.016 -0.081 -0.565 69 16 0
3.0250001 -0.079000004 -0.55699998 126 16 0
3.0220001 -0.077 -0.546 130 16 0
3.027 -0.075999998 -0.53799999 150 16 0
3.0339999 -0.074000001 -0.52899998 150 16 0
3.0380001 -0.071999997 -0.51999998 150 16 0
3.04 -0.07 -0.50999999 150 16 0
3.0420001 -0.068999998 -0.50099999 150 16 0
3.0469999 -0.067000002 -0.49200001 150 16 0
3.0510001 -0.064999998 -0.48300001 150 16 0
3.0569999 -0.063000001 -0.47400001 150 16 0
3.0610001 -0.061999999 -0.46399999 150 16 0
3.0639999 -0.059999999 -0.45500001 150 16 0
3.066 -0.057999998 -0.44499999 150 16 0
3.0669999 -0.057 -0.43599999 150 16 0
3.0710001 -0.055 -0.426 150 16 0
3.076 -0.052999999 -0.417 150 16 0
3.076 -0.052000001 -0.40700001 150 16 0
3.0780001 -0.050000001 -0.39700001 150 16 0
3.0869999 -0.048999999 -0.38800001 150 16 0
3.0910001 -0.046999998 -0.37900001 150 16 0
3.0929999 -0.046 -0.36899999 150 16 0
3.0999999 -0.044 -0.36000001 150 16 0
3.102 -0.043000001 -0.34999999 150 16 0
3.1070001 -0.041000001 -0.34099999 150 16 0
3.1099999 -0.039999999 -0.331 150 16 0
3.1140001 -0.037999999 -0.322 150 16 0
3.1199999 -0.037 -0.31200001 150 16 0
3.1210001 -0.035 -0.30199999 150 16 0
3.125 -0.034000002 -0.292 150 16 0
3.132 -0.033 -0.28299999 150 16 0
3.1340001 -0.030999999 -0.273 150 16 0
3.1370001 -0.029999999 -0.26300001 150 16 0
3.1400001 -0.028000001 -0.25299999 150 16 0
3.142 -0.027000001 -0.244 150 16 0
3.1440001 -0.026000001 -0.234 150 16 0
3.1530001 -0.024 -0.22400001 150 16 0
3.1570001 -0.023 -0.214 134 16 0
3.1600001 -0.022 -0.204 121 16 0
3.164 -0.021 -0.19400001 89 16 0
3.165 -0.018999999 -0.184 62 16 0
3.178 -0.017999999 -0.175 46 16 0
3.177 -0.017000001 -0.164 36 16 0
3.188 -0.016000001 -0.155 35 16 0
3.1930001 -0.015 -0.145 29 16 0
3.1989999 -0.013 -0.13500001 27 16 0
3.1989999 -0.012 -0.124 26 16 0
3.2 -0.011 -0.114 23 16 0
3.2090001 -0.0099999998 -0.104 22 16 0
3.2149999 -0.0089999996 -0.093999997 21 16 0
3.22 -0.0080000004 -0.083999999 20 16 0
3.23 -0.0070000002 -0.072999999 19 16 0
3.2349999 -0.0060000001 -0.063000001 19 16 0
3.244 -0.0049999999 -0.052999999 18 16 0
3.2460001 -0.0040000002 -0.041999999 18 16 0
3.2509999 -0.003 -0.032000002 19 16 0
3.26 -0.0020000001 -0.022 18 16 0
3.2690001 -0.001 -0.011 19 16 0
3.2720001 0 -0.001 19 16 0
3.29 0 0.0089999996 19 16 0
3.29 0.001 0.02 20 16 0
3.296 0.0020000001 0.029999999 20 16 0
3.3039999 0.003 0.041000001 20 16 0
3.3069999 0.0040000002 0.052000001 20 16 0
3.313 0.0049999999 0.063000001 20 16 0
3.3180001 0.0060000001 0.072999999 20 16 0
3.3269999 0.0070000002 0.083999999 23 16 0
3.3169999 0.0070000002 0.094999999 36 16 0
3.303 0.0080000004 0.105 40 16 0
3.2869999 0.0089999996 0.115 139 16 0
3.289 0.0099999998 0.126 150 16 0
3.2920001 0.011 0.13699999 150 16 0
3.293 0.011 0.147 150 16 0
3.303 0.012 0.15800001 150 16 0
3.306 0.013 0.169 150 16 0
3.3110001 0.013 0.18000001 150 16 0
3.316 0.014 0.191 150 16 0
3.3239999 0.015 0.20200001 150 16 0
3.322 0.015 0.213 150 16 0
3.326 0.016000001 0.22400001 150 16 0
3.336 0.017000001 0.236 150 16 0
3.3310001 0.017000001 0.24600001 150 16 0
3.339 0.017999999 0.25799999 150 16 0
3.3440001 0.017999999 0.26899999 150 16 0
3.348 0.018999999 0.28 150 16 0
3.355 0.018999999 0.292 150 16 0
3.3570001 0.02 0.303 150 16 0
3.3629999 0.02 0.31400001 150 16 0
3.365 0.021 0.32499999 150 16 0
3.368 0.021 0.336 150 16 0
3.3659999 0.022 0.347 97 16 0
3.3499999 0.022 0.35699999 39 16 0
3.3239999 0.022 0.36500001 37 16 0
3.312 0.022 0.37400001 43 16 0
3.293 0.023 0.38299999 42 16 0
3.273 0.023 0.391 45 16 0
3.2520001 0.023 0.39899999 42 16 0
3.2320001 0.023 0.40700001 42 16 0
3.217 0.023 0.41600001 45 16 0
3.1949999 0.023 0.42399999 44 16 0
3.178 0.023 0.43200001 44 16 0
3.1559999 0.023 0.43900001 43 16 0
3.1359999 0.023 0.44600001 42 16 0
3.1240001 0.023 0.45500001 45 16 0
3.1040001 0.023 0.46200001 44 16 0
3.0810001 0.023 0.46900001 43 16 0
3.0669999 0.023 0.477 44 16 0
3.0510001 0.023 0.484 47 16 0
3.027 0.023 0.49000001 46 16 0
3.0150001 0.023 0.49900001 46 16 0
2.9990001 0.023 0.50599998 42 16 0
2.9879999 0.022 0.514 40 16 0
2.974 0.022 0.52100003 40 16 0
2.96 0.022 0.528 42 16 0
2.938 0.022 0.53399998 42 16 0
2.927 0.022 0.542 42 16 0
2.905 0.021 0.54699999 43 16 0
2.885 0.021 0.55299997 50 16 0
2.8699999 0.021 0.56 44 16 0
2.8529999 0.02 0.56599998 72 16 0
2.8369999 0.02 0.57200003 72 16 0
2.8329999 0.02 0.58099997 52 16 0
2.8199999 0.018999999 0.58700001 49 16 0
2.809 0.018999999 0.59399998 49 16 0
2.7969999 0.018999999 0.60100001 51 16 0
2.776 0.017999999 0.60600001 52 16 0
2.7679999 0.017999999 0.61299998 48 16 0
2.7590001 0.017000001 0.62 57 16 0
2.7379999 0.017000001 0.625 57 16 0
2.7260001 0.016000001 0.63099998 57 16 0
2.7049999 0.016000001 0.63499999 66 16 0
2.6949999 0.016000001 0.64200002 71 16 0
2.681 0.015 0.648 78 16 0
2.6719999 0.014 0.65399998 79 16 0
2.6659999 0.014 0.662 73 16 0
2.652 0.013 0.667 69 16 0
2.635 0.013 0.67199999 80 16 0
2.6300001 0.012 0.67900002 75 16 0
2.6159999 0.012 0.68400002 78 16 0
2.599 0.011 0.68800002 97 16 0
2.585 0.0099999998 0.69300002 109 16 0
2.5739999 0.0099999998 0.699 109 16 0
2.559 0.0089999996 0.704 115 16 0
2.546 0.0080000004 0.708 112 16 0
2.539 0.0080000004 0.71499997 121 16 0
2.523 0.0070000002 0.71899998 118 16 0
2.5150001 0.0060000001 0.72500002 126 16 0
2.5009999 0.0049999999 0.73000002 150 16 0
2.49 0.0049999999 0.73500001 150 16 0
2.4779999 0.0040000002 0.74000001 150 16 0
2.4649999 0.003 0.74400002 150 16 0
2.4489999 0.0020000001 0.74699998 150 16 0
2.444 0.001 0.75400001 150 16 0
2.4330001 0.001 0.759 150 16 0
2.4260001 0 0.76499999 150 16 0
2.4119999 0 0.76800001 150 16 0
2.4000001 -0.001 0.773 150 16 0
2.3940001 -0.0020000001 0.77899998 150 16 0
2.385 -0.003 0.78399998 150 16 0
2.3729999 -0.0040000002 0.78799999 150 16 0
2.365 -0.0049999999 0.79299998 150 16 0
2.3599999 -0.0060000001 0.79900002 150 16 0
2.352 -0.0070000002 0.80500001 150 16 0
2.3380001 -0.0080000004 0.80800003 150 16 0
2.329 -0.0089999996 0.81300002 150 16 0
2.3199999 -0.0099999998 0.81699997 150 16 0
2.3080001 -0.011 0.82099998 150 16 0
2.3 -0.012 0.82599998 150 16 0
2.2880001 -0.013 0.829 150 16 0
2.2809999 -0.014 0.83399999 150 16 0
2.2709999 -0.015 0.83899999 150 16 0
2.26 -0.016000001 0.84200001 150 16 0
2.253 -0.017000001 0.847 150 16 0
2.237 -0.017999999 0.84799999 150 16 0
2.2309999 -0.02 0.85299999 150 16 0
2.2279999 -0.021 0.86000001 150 16 0
2.217 -0.022 0.86299998 150 16 0
2.2019999 -0.023 0.86500001 150 16 0
2.2 -0.025 0.87099999 150 16 0
2.184 -0.026000001 0.87300003 150 16 0
2.175 -0.027000001 0.87599999 150 16 0
2.1689999 -0.028000001 0.88099998 150 16 0
2.161 -0.029999999 0.88499999 150 16 0
2.1500001 -0.030999999 0.88800001 150 16 0
2.1400001 -0.032000002 0.89099997 150 16 0
2.1340001 -0.033 0.89499998 150 16 0
2.131 -0.035 0.90100002 150 16 0
2.1210001 -0.035999998 0.90399998 150 16 0
2.112 -0.037 0.90700001 150 16 0
2.1040001 -0.039000001 0.91100001 150 16 0
2.0940001 -0.039999999 0.91299999 150 16 0
2.089 -0.041999999 0.91799998 150 16 0
2.0799999 -0.043000001 0.921 150 16 0
2.076 -0.045000002 0.926 150 16 0
2.0669999 -0.046 0.92900002 150 16 0
2.0599999 -0.048 0.93199998 150 16 0
2.049 -0.048999999 0.93400002 150 16 0
2.0439999 -0.050000001 0.93900001 150 16 0
2.0339999 -0.052000001 0.94099998 150 16 0
2.026 -0.052999999 0.94400001 150 16 0
2.0209999 -0.055 0.94800001 150 16 0
2.0139999 -0.057 0.95099998 150 16 0
2.006 -0.057999998 0.954 150 16 0
1.995 -0.059999999 0.95499998 150 16 0
1.985 -0.061000001 0.95700002 150 16 0
1.978 -0.063000001 0.95999998 150 16 0
1.975 -0.064999998 0.96499997 150 16 0
1.967 -0.066 0.96700001 150 16 0
1.962 -0.068000004 0.97100002 150 16 0
1.95 -0.068999998 0.97100002 150 16 0
1.9450001 -0.071000002 0.97500002 150 16 0
1.938 -0.072999999 0.97799999 150 16 0
1.932 -0.074000001 0.98100001 150 16 0
1.925 -0.075999998 0.98299998 150 16 0
1.9170001 -0.078000002 0.98500001 150 16 0
1.911 -0.079999998 0.98799998 150 16 0
1.904 -0.081 0.99000001 150 16 0
1.9 -0.082999997 0.99400002 150 16 0
1.898 -0.085000001 0.99900001 150 16 0
1.887 -0.086999997 0.99900001 150 16 0
1.885 -0.089000002 1.003 150 16 0
1.8710001 -0.090000004 1.002 150 16 0
1.8660001 -0.092 1.005 150 16 0
1.857 -0.093999997 1.006 150 16 0
1.855 -0.096000001 1.01 150 16 0
1.85 -0.097999997 1.013 150 16 0
1.846 -0.1 1.016 150 16 0
1.8380001 -0.101 1.017 150 16 0
1.832 -0.103 1.0190001 150 16 0
1.829 -0.105 1.023 150 16 0
1.823 -0.107 1.025 150 16 0
1.821 -0.11 1.028 150 16 0
1.812 -0.111 1.028 150 16 0
1.8049999 -0.113 1.03 150 16 0
1.803 -0.115 1.033 150 16 0
1.7970001 -0.117 1.035 150 16 0
1.7920001 -0.119 1.0369999 150 16 0
1.774 -0.12 1.0319999 150 19 0
1.771 -0.123 1.035 150 16 0
1.77 -0.125 1.039 150 16 0
1.7640001 -0.127 1.04 150 16 0
1.76 -0.12899999 1.0420001 150 16 0
1.7539999 -0.131 1.044 150 16 0
1.752 -0.133 1.0470001 150 16 0
1.75 -0.13500001 1.05 150 16 0
1.7460001 -0.138 1.052 150 16 0
1.743 -0.14 1.0549999 150 16 0
1.7410001 -0.142 1.058 150 16 0
1.737 -0.14399999 1.059 150 16 0
1.735 -0.147 1.062 150 16 0
1.729 -0.149 1.063 150 16 0
1.726 -0.15099999 1.0650001 150 16 0
1.719 -0.153 1.0650001 150 16 0
1.717 -0.155 1.068 150 16 0
1.716 -0.15800001 1.0700001 150 16 0
1.714 -0.16 1.073 150 16 0
1.711 -0.162 1.075 150 16 0
1.7 -0.164 1.072 150 16 0
1.7 -0.16599999 1.075 150 16 0
1.696 -0.169 1.077 150 16 0
1.693 -0.171 1.0779999 150 16 0
1.6900001 -0.17299999 1.08 150 16 0
1.688 -0.176 1.081 150 16 0
1.6849999 -0.178 1.0829999 150 16 0
1.683 -0.18000001 1.085 150 16 0
1.686 -0.183 1.09 150 16 0
1.681 -0.185 1.09 141 16 0
1.677 -0.18799999 1.09 150 16 0
1.671 -0.189 1.089 150 16 0
1.665 -0.191 1.0880001 150 16 0
1.664 -0.19400001 1.09 150 16 0
1.661 -0.19599999 1.091 150 16 0
1.658 -0.199 1.092 150 16 0
1.6569999 -0.20100001 1.0930001 150 16 0
1.6569999 -0.204 1.096 150 16 0
1.654 -0.206 1.096 150 16 0
1.651 -0.208 1.096 150 16 0
1.652 -0.211 1.099 150 16 0
1.648 -0.213 1.099 150 16 0
1.647 -0.21600001 1.1 150 16 0
1.646 -0.21799999 1.101 150 16 0
1.643 -0.22 1.101 150 16 0
1.64 -0.222 1.101 150 16 0
1.6390001 -0.22499999 1.102 150 16 0
1.632 -0.227 1.099 150 19 0
1.628 -0.229 1.098 150 16 0
1.6289999 -0.23100001 1.1 150 16 0
1.628 -0.234 1.101 150 16 0
1.6339999 -0.237 1.1059999 150 19 0
1.627 -0.23800001 1.102 150 16 0
1.624 -0.241 1.102 150 16 0
1.624 -0.243 1.102 150 16 0
1.623 -0.24600001 1.103 150 16 0
1.625 -0.248 1.105 150 16 0
1.622 -0.25 1.103 150 16 0
1.6210001 -0.25299999 1.104 150 16 0
1.622 -0.255 1.105 150 16 0
1.62 -0.257 1.104 150 16 0
1.62 -0.25999999 1.104 150 16 0
1.619 -0.26199999 1.104 150 16 0
1.618 -0.264 1.104 150 16 0
1.618 -0.26699999 1.104 150 16 0
1.626 -0.27000001 1.11 150 18 0
1.617 -0.271 1.103 150 16 0
1.624 -0.27500001 1.108 150 16 0
1.624 -0.27700001 1.108 150 16 0
1.63 -0.28 1.1109999 150 19 0
1.625 -0.28200001 1.108 150 16 0
1.6289999 -0.285 1.11 150 16 0
1.627 -0.287 1.108 150 16 0
1.627 -0.289 1.108 150 16 0
1.627 -0.29100001 1.107 150 16 0
1.6289999 -0.294 1.107 150 16 0
1.63 -0.296 1.108 150 16 0
1.6289999 -0.29800001 1.1059999 150 16 0
1.632 -0.301 1.1059999 150 16 0
1.631 -0.303 1.105 150 16 0
1.636 -0.30500001 1.107 150 16 0
1.632 -0.30700001 1.103 150 16 0
1.635 -0.30899999 1.103 150 16 0
1.637 -0.31200001 1.103 150 16 0
1.636 -0.31299999 1.101 150 16 0
1.636 -0.315 1.099 150 16 0
1.642 -0.31799999 1.102 150 19 0
1.6440001 -0.32100001 1.101 150 16 0
1.6440001 -0.32300001 1.1 150 16 0
1.645 -0.324 1.098 150 16 0
1.647 -0.32600001 1.097 150 16 0
1.649 -0.329 1.096 150 16 0
1.65 -0.331 1.095 150 16 0
1.65 -0.33199999 1.0930001 150 16 0
1.6569999 -0.33500001 1.095 150 16 0
1.658 -0.33700001 1.0930001 150 16 0
1.661 -0.33899999 1.092 150 16 0
1.665 -0.34200001 1.092 150 16 0
1.665 -0.34299999 1.09 150 16 0
1.6670001 -0.345 1.0880001 150 16 0
1.677 -0.34900001 1.092 150 19 0
1.678 -0.34999999 1.09 150 16 0
1.679 -0.352 1.087 150 16 0
1.684 -0.354 1.087 150 16 0
1.6849999 -0.35600001 1.085 150 16 0
1.688 -0.35699999 1.0829999 150 16 0
1.691 -0.359 1.082 150 16 0
1.692 -0.361 1.079 150 16 0
1.694 -0.36199999 1.077 150 16 0
1.698 -0.36399999 1.076 150 16 0
1.701 -0.366 1.074 150 16 0
1.7029999 -0.36700001 1.072 150 16 0
1.704 -0.36899999 1.069 150 16 0
1.706 -0.37 1.066 150 16 0
1.712 -0.37200001 1.066 150 16 0
1.716 -0.37400001 1.0650001 150 16 0
1.717 -0.375 1.061 150 16 0
1.721 -0.377 1.0599999 150 16 0
1.723 -0.37799999 1.057 150 16 0
1.738 -0.382 1.062 150 18 0
1.742 -0.384 1.0599999 150 16 0
1.749 -0.38600001 1.0599999 150 16 0
1.749 -0.38699999 1.0549999 150 16 0
1.7589999 -0.389 1.056 150 16 0
1.7640001 -0.391 1.0549999 150 16 0
1.773 -0.39300001 1.056 145 16 0
1.779 -0.39500001 1.054 117 16 0
1.78 -0.396 1.05 109 16 0
1.7869999 -0.398 1.05 142 16 0
1.789 -0.398 1.046 150 16 0
1.79 -0.39899999 1.0420001 150 16 0
1.793 -0.40000001 1.039 150 16 0
1.799 -0.40099999 1.0369999 150 16 0
1.806 -0.403 1.036 150 16 0
1.814 -0.405 1.035 150 16 0
1.8200001 -0.40599999 1.034 150 16 0
1.8279999 -0.40799999 1.033 150 16 0
1.83 -0.40900001 1.029 150 16 0
1.839 -0.41100001 1.028 150 16 0
1.842 -0.41100001 1.025 150 16 0
1.846 -0.412 1.022 150 16 0
1.849 -0.41299999 1.018 150 16 0
1.858 -0.414 1.017 150 16 0
1.864 -0.41600001 1.015 150 16 0
1.87 -0.417 1.013 150 16 0
1.875 -0.417 1.01 150 16 0
1.882 -0.419 1.007 150 16 0
1.8890001 -0.41999999 1.005 150 16 0
1.8940001 -0.41999999 1.002 150 16 0
1.9 -0.421 0.99900001 150 16 0
1.903 -0.421 0.995 150 16 0
1.913 -0.42300001 0.995 150 16 0
1.921 -0.42399999 0.99299997 150 16 0
1.923 -0.42399999 0.98799998 150 16 0
1.933 -0.42500001 0.98699999 150 16 0
1.937 -0.426 0.98299998 150 16 0
1.942 -0.426 0.97899997 150 16 0
1.956 -0.428 0.98000002 150 16 0
1.961 -0.428 0.97600001 150 16 0
1.967 -0.42899999 0.97299999 150 16 0
1.979 -0.43000001 0.972 150 16 0
1.982 -0.43000001 0.96799999 150 16 0
1.988 -0.43099999 0.96399999 150 16 0
1.997 -0.43099999 0.96200001 150 16 0
2.0079999 -0.433 0.96100003 150 16 0
2.0139999 -0.433 0.95700002 150 16 0
2.0179999 -0.433 0.95300001 150 16 0
2.029 -0.43399999 0.95099998 150 16 0
2.0339999 -0.43399999 0.94700003 150 16 0
2.043 -0.43399999 0.94499999 150 16 0
2.046 -0.433 0.93900001 150 16 0
2.056 -0.43399999 0.93699998 150 16 0
2.063 -0.43399999 0.93400002 150 16 0
2.0710001 -0.43399999 0.93000001 150 16 0
2.079 -0.435 0.92699999 150 16 0
2.085 -0.43399999 0.92299998 150 16 0
2.095 -0.435 0.921 103 16 0
2.1029999 -0.435 0.91799998 117 16 0
2.1099999 -0.435 0.91399997 121 16 0
2.1159999 -0.435 0.91000003 118 16 0
2.1289999 -0.435 0.90799999 117 16 0
2.1359999 -0.435 0.90399998 118 16 0
2.145 -0.435 0.90100002 114 16 0
2.1530001 -0.435 0.89700001 109 16 0
2.164 -0.435 0.89399999 115 16 0
2.1670001 -0.43399999 0.889 112 16 0
2.177 -0.43399999 0.88599998 102 16 0
2.1830001 -0.433 0.88099998 93 16 0
2.194 -0.433 0.87800002 98 16 0
2.2049999 -0.43399999 0.87599999 91 16 0
2.2149999 -0.43399999 0.87199998 117 16 0
2.223 -0.433 0.86799997 110 16 0
2.23 -0.43200001 0.86400002 104 16 0
2.2379999 -0.43200001 0.86000001 111 16 0
2.2479999 -0.43099999 0.85600001 107 16 0
2.2590001 -0.43099999 0.85299999 103 16 0
2.2690001 -0.43099999 0.84899998 76 16 0
2.273 -0.42899999 0.84299999 70 16 0
2.289 -0.43000001 0.84200001 79 16 0
2.2969999 -0.42899999 0.83700001 82 16 0
2.306 -0.428 0.833 81 16 0
2.3110001 -0.42699999 0.82700002 83 16 0
2.323 -0.426 0.824 84 16 0
2.329 -0.42500001 0.81900001 77 16 0
2.339 -0.42399999 0.815 79 16 0
2.349 -0.42300001 0.81099999 80 16 0
2.3570001 -0.42199999 0.80599999 72 16 0
2.3659999 -0.421 0.801 66 16 0
2.3759999 -0.41999999 0.79699999 67 16 0
2.3859999 -0.419 0.79299998 67 16 0
2.4000001 -0.419 0.79000002 66 16 0
2.4059999 -0.417 0.78399998 65 16 0
2.414 -0.41499999 0.77899998 66 16 0
2.424 -0.414 0.77399999 62 16 0
2.4360001 -0.41299999 0.77100003 57 16 0
2.4489999 -0.412 0.76700002 63 16 0
2.4590001 -0.41100001 0.76200002 62 16 0
2.467 -0.40900001 0.75700003 60 16 0
2.48 -0.40799999 0.75300002 58 16 0
2.4879999 -0.40700001 0.74699998 60 16 0
2.5 -0.405 0.74299997 56 16 0
2.5139999 -0.405 0.73900002 63 16 0
2.52 -0.40200001 0.73299998 39 16 0
2.5320001 -0.40099999 0.72899997 35 16 0
2.5469999 -0.40000001 0.72500002 35 16 0
2.5480001 -0.39700001 0.71700001 34 16 0
2.566 -0.396 0.71499997 36 16 0
2.5799999 -0.39500001 0.70999998 36 16 0
2.586 -0.39199999 0.704 34 16 0
2.595 -0.38999999 0.69800001 34 16 0
2.6099999 -0.389 0.69400001 34 16 0
2.6210001 -0.38699999 0.68900001 35 16 0
2.632 -0.38499999 0.68400002 32 16 0
2.641 -0.38299999 0.67799997 34 16 0
2.6500001 -0.38100001 0.67199999 34 16 0
2.664 -0.37900001 0.667 31 16 0
2.674 -0.377 0.662 32 16 0
2.6860001 -0.375 0.65600002 32 16 0
2.691 -0.37200001 0.64899999 32 16 0
2.7090001 -0.37 0.64600003 35 16 0
2.717 -0.368 0.639 33 16 0
2.7320001 -0.366 0.634 32 16 0
2.744 -0.36300001 0.62900001 32 16 0
2.756 -0.361 0.62300003 32 16 0
2.7720001 -0.359 0.61799997 32 16 0
2.786 -0.35699999 0.61299998 32 16 0
2.7980001 -0.354 0.60799998 32 16 0
2.812 -0.352 0.602 32 16 0
2.822 -0.34900001 0.59600002 33 16 0
2.8329999 -0.34599999 0.58899999 33 16 0
2.845 -0.34400001 0.58399999 35 16 0
2.862 -0.34200001 0.57800001 37 16 0
2.8699999 -0.338 0.57099998 44 16 0
2.8800001 -0.33500001 0.565 42 16 0
2.898 -0.333 0.56 40 16 0
2.901 -0.329 0.55199999 32 16 0
2.9089999 -0.32499999 0.54500002 28 16 0
2.914 -0.32100001 0.537 27 16 0
2.9159999 -0.317 0.52899998 26 16 0
2.9200001 -0.31299999 0.52100003 26 16 0
2.931 -0.31 0.514 26 16 0
2.934 -0.30599999 0.50599998 26 16 0
2.9460001 -0.30199999 0.5 26 16 0
2.9489999 -0.29800001 0.49200001 25 16 0
2.951 -0.294 0.48300001 26 16 0
2.9579999 -0.28999999 0.47600001 26 16 0
2.961 -0.285 0.46799999 26 16 0
2.9649999 -0.28099999 0.46000001 23 16 0
2.9790001 -0.278 0.45300001 22 16 0
2.9809999 -0.273 0.44499999 21 16 0
2.9949999 -0.27000001 0.43799999 22 16 0
3.0020001 -0.266 0.43099999 22 16 0
3.0090001 -0.26100001 0.42300001 22 16 0
3.0079999 -0.257 0.414 21 16 0
3.0220001 -0.25299999 0.40700001 22 16 0
3.027 -0.249 0.39899999 22 16 0
3.0350001 -0.244 0.39199999 22 16 0
3.0439999 -0.23999999 0.384 22 16 0
3.0469999 -0.235 0.37599999 22 16 0
3.053 -0.23100001 0.368 22 16 0
3.0650001 -0.227 0.361 21 16 0
3.069 -0.222 0.35299999 22 16 0
3.075 -0.21699999 0.34400001 21 16 0
3.0799999 -0.213 0.336 21 16 0
3.0899999 -0.208 0.329 22 16 0
3.092 -0.20299999 0.31999999 22 16 0
3.105 -0.199 0.31299999 22 16 0
3.1129999 -0.19400001 0.30500001 22 16 0
3.1159999 -0.189 0.296 22 16 0
3.1289999 -0.185 0.289 22 16 0
3.1359999 -0.18000001 0.28099999 23 16 0
3.141 -0.175 0.27200001 22 16 0
3.152 -0.17 0.26499999 22 16 0
3.1570001 -0.16500001 0.25600001 23 16 0
3.164 -0.16 0.248 22 16 0
3.177 -0.155 0.23999999 22 16 0
3.1860001 -0.15099999 0.23199999 23 16 0
3.1900001 -0.145 0.22400001 23 16 0
3.2030001 -0.14 0.21600001 23 16 0
3.207 -0.13500001 0.207 23 16 0
3.217 -0.13 0.199 22 16 0
3.227 -0.125 0.19 24 16 0
3.234 -0.119 0.182 23 16 0
3.2420001 -0.114 0.17399999 23 16 0
3.2520001 -0.109 0.16500001 23 16 0
3.263 -0.103 0.15700001 23 16 0
3.2690001 -0.097999997 0.148 23 16 0
3.276 -0.092 0.14 23 16 0
3.289 -0.086999997 0.131 23 16 0
3.2939999 -0.081 0.122 23 16 0
3.3099999 -0.075999998 0.114 25 16 0
3.3099999 -0.07 0.105 39 16 0
3.306 -0.064000003 0.096000001 83 16 0
3.3039999 -0.057999998 0.086999997 100 16 0
3.3010001 -0.052000001 0.078000002 76 16 0
3.2909999 -0.046 0.068999998 80 16 0
3.283 -0.039999999 0.059999999 80 16 0
3.28 -0.034000002 0.050999999 91 16 0
3.263 -0.028000001 0.041999999 81 16 0
3.2609999 -0.022 0.033 51 16 0
3.2590001 -0.016000001 0.024 27 16 0
3.26 -0.0099999998 0.015 17 16 0
3.2739999 -0.0040000002 0.0070000002 15 16 0
3.2820001 0.001 -0.001 15 16 0
3.2920001 0.0070000002 -0.0099999998 15 16 0
3.3050001 0.013 -0.018999999 16 16 0
3.313 0.018999999 -0.027000001 20 16 0
3.3169999 0.025 -0.035999998 34 16 0
3.3080001 0.030999999 -0.045000002 45 16 0
3.2939999 0.037 -0.054000001 46 16 0
3.2920001 0.043000001 -0.061999999 46 16 0
3.283 0.048999999 -0.071000002 37 16 0
3.2780001 0.055 -0.079000004 34 16 0
3.2750001 0.061000001 -0.088 41 16 0
3.2690001 0.067000002 -0.097000003 46 16 0
3.2590001 0.072999999 -0.105 48 16 0
3.244 0.079000004 -0.113 50 16 0
3.24 0.085000001 -0.121 46 16 0
3.24 0.090999998 -0.13 48 16 0
3.2349999 0.097000003 -0.138 51 16 0
3.227 0.103 -0.146 50 16 0
3.221 0.109 -0.154 51 16 0
3.2049999 0.115 -0.162 52 16 0
3.2019999 0.121 -0.17 50 16 0
3.201 0.127 -0.17900001 54 16 0
3.188 0.132 -0.186 48 16 0
3.188 0.138 -0.19400001 50 16 0
3.178 0.14399999 -0.20200001 51 16 0
3.1689999 0.15000001 -0.20999999 49 16 0
3.1630001 0.156 -0.21799999 58 16 0
3.158 0.162 -0.226 54 16 0
3.1500001 0.168 -0.233 45 16 0
3.1440001 0.17399999 -0.241 48 16 0
3.138 0.17900001 -0.248 49 16 0
3.125 0.185 -0.25600001 50 16 0
3.1240001 0.191 -0.264 51 16 0
3.118 0.197 -0.271 60 16 0
3.1110001 0.20200001 -0.27900001 50 16 0
3.1070001 0.208 -0.28600001 58 16 0
3.099 0.214 -0.29300001 75 16 0
3.0910001 0.22 -0.301 82 16 0
3.0840001 0.22499999 -0.308 76 16 0
3.0810001 0.23199999 -0.315 88 16 0
3.069 0.237 -0.322 73 16 0
3.0599999 0.242 -0.329 81 16 0
3.059 0.249 -0.33700001 81 16 0
3.0510001 0.25400001 -0.34400001 82 16 0
3.0450001 0.25999999 -0.35100001 81 16 0
3.0450001 0.266 -0.359 93 16 0
3.033 0.271 -0.36500001 77 16 0
3.026 0.27700001 -0.37200001 83 16 0
3.0250001 0.28299999 -0.37900001 81 16 0
3.0150001 0.289 -0.38600001 69 16 0
3.007 0.294 -0.39199999 73 16 0
3.0039999 0.30000001 -0.39899999 76 16 0
3.0009999 0.30599999 -0.40700001 75 16 0
2.99 0.31099999 -0.41299999 77 16 0
2.9879999 0.317 -0.41999999 93 16 0
2.977 0.32300001 -0.426 87 16 0
2.9719999 0.32800001 -0.433 86 16 0
2.9660001 0.33399999 -0.43900001 89 16 0
2.9560001 0.33899999 -0.44499999 96 16 0
2.954 0.345 -0.45300001 91 16 0
2.95 0.35100001 -0.45899999 100 16 0
2.941 0.35600001 -0.465 97 16 0
2.9389999 0.36300001 -0.472 93 16 0
2.9319999 0.368 -0.47799999 117 16 0
2.9170001 0.373 -0.48300001 100 16 0
2.908 0.37799999 -0.48899999 102 16 0
2.908 0.384 -0.49599999 105 16 0
2.901 0.38999999 -0.50199997 98 16 0
2.8970001 0.396 -0.509 102 16 0
2.8940001 0.40200001 -0.51599997 101 16 0
2.8889999 0.40700001 -0.52200001 100 16 0
2.882 0.41299999 -0.528 110 16 0
2.8789999 0.419 -0.53399998 109 16 0
2.869 0.42399999 -0.53899997 101 16 0
2.865 0.43000001 -0.546 101 16 0
2.8540001 0.435 -0.551 111 16 0
2.849 0.44 -0.55699998 101 16 0
2.845 0.44600001 -0.56300002 108 16 0
2.842 0.45199999 -0.56900001 115 16 0
2.8329999 0.45699999 -0.574 124 16 0
2.8310001 0.463 -0.58099997 111 16 0
2.826 0.46900001 -0.58700001 115 16 0
2.8239999 0.47499999 -0.59299999 146 16 0
2.8150001 0.47999999 -0.59799999 128 16 0
2.8080001 0.48500001 -0.60299999 150 16 0
2.8010001 0.491 -0.60900003 138 16 0
2.799 0.49700001 -0.61500001 150 16 0
2.7939999 0.50300002 -0.62099999 150 16 0
2.7920001 0.509 -0.62699997 150 16 0
2.779 0.51300001 -0.63099998 150 16 0
2.776 0.51899999 -0.63700002 150 16 0
2.7720001 0.52499998 -0.64200002 150 16 0
2.763 0.52999997 -0.64700001 150 16 0
2.7590001 0.53600001 -0.653 150 16 0
2.756 0.542 -0.65799999 150 16 0
2.747 0.54699999 -0.66299999 150 16 0
2.744 0.55299997 -0.66900003 150 16 0
2.7379999 0.55800003 -0.67400002 150 16 0
2.7290001 0.56300002 -0.67799997 150 16 0
2.7249999 0.56900001 -0.68300003 150 16 0
2.723 0.57499999 -0.68900001 150 16 0
2.7149999 0.57999998 -0.69300002 150 16 0
2.71 0.58600003 -0.699 150 16 0
2.701 0.58999997 -0.70200002 150 16 0
2.7019999 0.597 -0.70899999 150 16 0
2.6989999 0.60299999 -0.71399999 150 16 0
2.6900001 0.60799998 -0.71799999 150 16 0
2.688 0.61400002 -0.72399998 150 16 0
2.6819999 0.62 -0.72799999 150 16 0
2.6760001 0.625 -0.73299998 150 16 0
2.6670001 0.63 -0.73699999 150 16 0
2.6719999 0.63800001 -0.74400002 150 16 0
2.6589999 0.64099997 -0.74599999 150 16 0
2.655 0.64700001 -0.75099999 150 16 0
2.6530001 0.653 -0.75700003 150 16 0
2.642 0.65700001 -0.759 150 16 0
2.632 0.662 -0.76300001 150 16 0
2.6329999 0.66900003 -0.76899999 150 16 0
2.632 0.67500001 -0.77399999 150 16 0
2.625 0.68000001 -0.778 150 16 0
2.6210001 0.68599999 -0.78299999 150 16 0
2.6140001 0.69099998 -0.78600001 150 16 0
2.6140001 0.69800001 -0.792 150 16 0
2.6059999 0.70200002 -0.79500002 150 16 0
2.602 0.708 -0.80000001 150 16 0
2.599 0.71399999 -0.80400002 150 16 0
2.5929999 0.71899998 -0.80800003 150 16 0
2.5869999 0.72500002 -0.81199998 150 16 0
2.5840001 0.73100001 -0.81599998 150 16 0
2.572 0.73400003 -0.81800002 150 16 0
2.569 0.74000001 -0.82200003 150 16 0
2.566 0.74599999 -0.82700002 150 16 0
2.563 0.75199997 -0.83099997 150 16 0
2.553 0.75599998 -0.833 150 16 0
2.55 0.76200002 -0.838 150 16 0
2.55 0.76899999 -0.84299999 150 16 0
2.5439999 0.77399999 -0.84600002 150 16 0
2.5409999 0.77999997 -0.85000002 150 16 0
2.536 0.78500003 -0.85299999 150 16 0
2.529 0.79000002 -0.85600001 150 16 0
2.526 0.796 -0.86000001 150 16 0
2.5220001 0.80199999 -0.86400002 150 16 0
2.5190001 0.80800003 -0.86799997 150 16 0
2.516 0.81400001 -0.87199998 150 16 0
2.513 0.81999999 -0.875 150 16 0
2.5079999 0.82499999 -0.87900001 150 16 0
2.5009999 0.82999998 -0.88099998 150 16 0
2.4979999 0.83499998 -0.884 150 16 0
2.494 0.84100002 -0.88800001 150 16 0
2.4909999 0.847 -0.89200002 150 16 0
2.487 0.85299999 -0.89499998 150 16 0
2.4779999 0.85600001 -0.89600003 150 16 0
2.48 0.86400002 -0.90100002 21 16 0
2.4460001 0.85900003 -0.89300001 4 18 0
2.4059999 0.85100001 -0.88300002 10 16 0
2.4070001 0.85900003 -0.88700002 22 16 0
2.405 0.86500001 -0.89099997 26 16 0
2.4230001 0.87800002 -0.90200001 65 19 0
2.421 0.884 -0.90499997 154 16 0
2.4100001 0.88700002 -0.90499997 160 16 0
2.411 0.89399999 -0.90899998 156 16 0
2.438 0.91100001 -0.92400002 151 18 0
2.4400001 0.91799998 -0.92799997 150 16 0
2.437 0.92400002 -0.93099999 150 16 0
2.4330001 0.92900002 -0.93400002 150 16 0
2.4300001 0.935 -0.93599999 150 16 0
2.4189999 0.93800002 -0.93599999 150 16 0
2.421 0.94499999 -0.94 150 16 0
2.4319999 0.95599997 -0.94800001 151 16 0
2.4319999 0.963 -0.95200002 151 16 0
2.418 0.96399999 -0.94999999 151 16 0
2.404 0.96499997 -0.94800001 150 16 0
2.401 0.97100002 -0.94999999 150 16 0
2.3929999 0.97399998 -0.94999999 150 16 0
2.3929999 0.98100001 -0.954 150 16 0
2.3900001 0.986 -0.95599997 150 16 0
