# .PCD v0.7 - Point Cloud Data file format
VERSION 0.7
FIELDS x y z intensity tag line
SIZE 4 4 4 4 1 1
TYPE F F F F U U
COUNT 1 1 1 1 1 1
WIDTH 1367
HEIGHT 1
VIEWPOINT 0 0 0 1 0 0 0
POINTS 1367
DATA ascii
2.289 0.81400001 -1.381 150 16 0
2.2839999 0.815 -1.377 150 16 0
2.2839999 0.81900001 -1.376 150 16 0
2.2809999 0.82099998 -1.374 150 16 0
2.2839999 0.82499999 -1.375 150 16 0
2.2820001 0.82800001 -1.373 150 16 0
2.2820001 0.83099997 -1.372 150 16 0
2.279 0.833 -1.369 150 16 0
2.2720001 0.833 -1.364 150 16 0
2.2720001 0.83600003 -1.362 150 16 0
2.2750001 0.83999997 -1.363 150 16 0
2.2720001 0.84200001 -1.359 150 16 0
2.2720001 0.84500003 -1.357 150 16 0
2.2720001 0.847 -1.3559999 150 16 0
2.2720001 0.85000002 -1.354 150 16 0
2.2720001 0.852 -1.351 150 16 0
2.273 0.85500002 -1.35 150 16 0
2.2720001 0.85699999 -1.347 150 16 0
2.2690001 0.85799998 -1.3430001 150 16 0
2.273 0.86199999 -1.3430001 150 16 0
2.2720001 0.86400002 -1.34 150 16 0
2.2720001 0.866 -1.337 150 16 0
2.2739999 0.86900002 -1.336 150 16 0
2.27 0.86900002 -1.33 150 16 0
2.2709999 0.87199998 -1.3279999 150 16 0
2.276 0.875 -1.3279999 150 16 0
2.2720001 0.87599999 -1.323 150 16 0
2.276 0.87900001 -1.322 150 16 0
2.279 0.88099998 -1.3200001 150 16 0
2.2750001 0.88099998 -1.314 150 16 0
2.276 0.88300002 -1.311 150 16 0
2.277 0.88499999 -1.308 150 16 0
2.2780001 0.88700002 -1.3049999 150 16 0
2.283 0.889 -1.304 150 16 0
2.2839999 0.89099997 -1.301 150 16 0
2.2820001 0.89099997 -1.296 150 16 0
2.283 0.89300001 -1.2920001 150 16 0
2.2880001 0.89600003 -1.291 150 16 0
2.2850001 0.89499998 -1.285 150 16 0
2.2909999 0.898 -1.284 150 16 0
2.289 0.898 -1.278 150 16 0
2.289 0.89899999 -1.274 150 16 0
2.2909999 0.89999998 -1.271 150 16 0
2.293 0.90100002 -1.267 150 16 0
2.2969999 0.903 -1.2640001 150 16 0
2.293 0.90200001 -1.257 150 16 0
2.2980001 0.90399998 -1.255 150 16 0
2.296 0.90399998 -1.25 150 16 0
2.2969999 0.90399998 -1.245 150 16 0
2.3039999 0.90600002 -1.243 150 16 0
2.3050001 0.90700001 -1.239 150 16 0
2.303 0.90600002 -1.233 150 16 0
2.309 0.90799999 -1.23 150 16 0
2.3080001 0.90700001 -1.225 150 16 0
2.3099999 0.90799999 -1.221 150 16 0
2.313 0.90799999 -1.216 150 16 0
2.316 0.90899998 -1.2130001 150 16 0
2.319 0.91000003 -1.209 150 16 0
2.3180001 0.90799999 -1.2029999 150 16 0
2.3210001 0.90899998 -1.198 150 16 0
2.323 0.90899998 -1.193 150 16 0
2.3280001 0.91000003 -1.1900001 150 16 0
2.3280001 0.90899998 -1.184 150 16 0
2.3299999 0.90799999 -1.179 150 16 0
2.335 0.90899998 -1.176 150 16 0
2.335 0.90799999 -1.17 150 16 0
2.3380001 0.90799999 -1.165 150 16 0
2.342 0.90799999 -1.161 150 16 0
2.3429999 0.90700001 -1.155 150 16 0
2.342 0.90499997 -1.149 150 16 0
2.348 0.90600002 -1.145 150 16 0
2.3510001 0.90499997 -1.14 150 16 0
2.3499999 0.903 -1.1339999 150 16 0
2.359 0.90499997 -1.131 150 16 0
2.359 0.903 -1.125 150 16 0
2.362 0.90200001 -1.12 150 16 0
2.365 0.90100002 -1.115 150 16 0
2.3699999 0.90100002 -1.1109999 150 16 0
2.3729999 0.89999998 -1.105 150 16 0
2.3729999 0.898 -1.099 150 16 0
2.381 0.89899999 -1.096 150 16 0
2.382 0.89600003 -1.089 150 16 0
2.382 0.89399999 -1.0829999 150 16 0
2.385 0.89300001 -1.077 150 16 0
2.388 0.89099997 -1.072 150 16 0
2.3929999 0.89099997 -1.067 150 16 0
2.3940001 0.88800001 -1.061 150 16 0
2.3989999 0.88700002 -1.056 150 16 0
2.4030001 0.88599998 -1.051 150 16 0
2.405 0.884 -1.045 150 16 0
2.4059999 0.88200003 -1.039 150 16 0
2.4119999 0.88099998 -1.034 150 16 0
2.4119999 0.87800002 -1.028 150 16 0
2.4219999 0.87900001 -1.025 150 16 0
2.4200001 0.875 -1.017 150 16 0
2.428 0.87400001 -1.013 150 16 0
2.4319999 0.87300003 -1.008 150 16 0
2.4349999 0.87 -1.002 150 16 0
2.4360001 0.86699998 -0.995 150 16 0
2.441 0.866 -0.99000001 150 16 0
2.4419999 0.86299998 -0.98299998 150 16 0
2.4449999 0.86000001 -0.97799999 150 16 0
2.451 0.85900003 -0.97299999 150 16 0
2.4549999 0.85699999 -0.96700001 150 16 0
2.4579999 0.85399997 -0.96100003 150 16 0
2.464 0.852 -0.95599997 150 16 0
2.464 0.84899998 -0.949 150 16 0
2.4690001 0.84600002 -0.94400001 150 16 0
2.4749999 0.84500003 -0.93900001 150 16 0
2.4719999 0.83999997 -0.93099999 150 16 0
2.46 0.83200002 -0.91900003 22 16 0
2.4300001 0.81800002 -0.90100002 14 16 0
2.448 0.81999999 -0.89999998 17 16 0
2.4790001 0.82599998 -0.90499997 77 16 0
2.494 0.82700002 -0.903 150 16 0
2.4960001 0.824 -0.89600003 150 16 0
2.5120001 0.824 -0.89499998 33 16 0
2.5190001 0.82200003 -0.88999999 16 16 0
2.52 0.81900001 -0.88300002 33 16 0
2.5150001 0.81300002 -0.87400001 150 16 0
2.5239999 0.81099999 -0.87 150 16 0
2.526 0.80699998 -0.86299998 150 16 0
2.529 0.80299997 -0.85699999 150 16 0
2.5320001 0.80000001 -0.85100001 150 16 0
2.539 0.79799998 -0.84600002 150 16 0
2.5439999 0.79500002 -0.83999997 150 16 0
2.5450001 0.79000002 -0.833 150 16 0
2.55 0.787 -0.82800001 150 16 0
2.553 0.78299999 -0.82200003 150 16 0
2.5580001 0.77999997 -0.81599998 150 16 0
2.562 0.77700001 -0.81 150 16 0
2.5650001 0.773 -0.80400002 150 16 0
2.569 0.76899999 -0.79699999 150 16 0
2.573 0.76499999 -0.79100001 150 16 0
2.576 0.76099998 -0.78500003 150 16 0
2.579 0.75700003 -0.77899998 150 16 0
2.585 0.75400001 -0.773 150 16 0
2.585 0.74900001 -0.76599997 150 16 0
2.605 0.74900001 -0.76499999 150 16 0
2.6099999 0.745 -0.759 150 16 0
2.6129999 0.741 -0.75300002 150 16 0
2.6159999 0.73699999 -0.74599999 150 16 0
2.619 0.73199999 -0.74000001 150 16 0
2.625 0.72899997 -0.73400003 150 16 0
2.628 0.72399998 -0.72799999 150 16 0
2.6340001 0.72100002 -0.722 150 16 0
2.6359999 0.71600002 -0.71600002 150 16 0
2.6429999 0.713 -0.70999998 150 16 0
2.6459999 0.708 -0.704 150 16 0
2.651 0.704 -0.69800001 150 16 0
2.6570001 0.69999999 -0.69199997 150 16 0
2.6600001 0.69499999 -0.68599999 150 16 0
2.6689999 0.69199997 -0.68099999 150 16 0
2.675 0.68800002 -0.676 150 16 0
2.6800001 0.68300003 -0.67000002 150 16 0
2.6819999 0.67799997 -0.66299999 150 16 0
2.6849999 0.67299998 -0.65700001 150 16 0
2.6919999 0.66900003 -0.65100002 150 16 0
2.6989999 0.66500002 -0.64600003 150 16 0
2.7030001 0.66000003 -0.63999999 150 16 0
2.7060001 0.65499997 -0.63300002 150 16 0
2.7119999 0.65100002 -0.62699997 150 16 0
2.72 0.64700001 -0.62199998 150 16 0
2.723 0.64200002 -0.616 150 16 0
2.7249999 0.63599998 -0.60900003 150 16 0
2.7309999 0.63200003 -0.60299999 150 16 0
2.737 0.62699997 -0.59799999 150 16 0
2.7420001 0.62199998 -0.59200001 150 16 0
2.7449999 0.61699998 -0.58499998 150 16 0
2.7490001 0.61199999 -0.579 150 16 0
2.76 0.60799998 -0.574 150 16 0
2.767 0.60399997 -0.56900001 150 16 0
2.7690001 0.59799999 -0.56199998 150 16 0
2.7780001 0.59399998 -0.55699998 150 16 0
2.7809999 0.588 -0.55000001 150 16 0
2.7850001 0.583 -0.54400003 150 16 0
2.789 0.57700002 -0.53799999 150 16 0
2.7920001 0.57200003 -0.53200001 150 16 0
2.8010001 0.56699997 -0.52600002 150 16 0
2.803 0.56099999 -0.51999998 150 16 0
2.812 0.55699998 -0.514 150 16 0
2.819 0.55199999 -0.509 150 16 0
2.823 0.546 -0.50199997 150 16 0
2.8310001 0.54100001 -0.49700001 150 16 0
2.8380001 0.53600001 -0.491 150 16 0
2.836 0.52899998 -0.484 150 16 0
2.849 0.52499998 -0.479 150 16 0
2.8529999 0.51899999 -0.47299999 150 16 0
2.858 0.514 -0.46700001 150 16 0
2.8629999 0.50800002 -0.461 150 16 0
2.8659999 0.50199997 -0.454 150 16 0
2.8759999 0.49700001 -0.449 150 16 0
2.881 0.491 -0.442 150 16 0
2.885 0.48500001 -0.43599999 150 16 0
2.8870001 0.479 -0.43000001 150 16 0
2.9030001 0.47499999 -0.42500001 150 16 0
2.902 0.46799999 -0.41800001 150 16 0
2.9100001 0.46200001 -0.412 150 16 0
2.915 0.456 -0.40599999 150 16 0
2.9200001 0.44999999 -0.40000001 150 16 0
2.9289999 0.44499999 -0.39399999 150 16 0
2.937 0.43900001 -0.389 150 16 0
2.944 0.433 -0.38299999 150 16 0
2.9460001 0.42699999 -0.37599999 150 16 0
2.9549999 0.421 -0.37 150 16 0
2.9579999 0.414 -0.36399999 150 16 0
2.9630001 0.40799999 -0.35800001 150 16 0
2.9749999 0.403 -0.352 150 16 0
2.9760001 0.396 -0.34599999 150 16 0
2.977 0.389 -0.33899999 150 16 0
2.99 0.384 -0.333 150 16 0
2.994 0.377 -0.32699999 150 16 0
3.0009999 0.37099999 -0.32100001 150 16 0
3.003 0.36399999 -0.31400001 150 16 0
3.0079999 0.35699999 -0.308 150 16 0
3.016 0.35100001 -0.30199999 150 16 0
3.0239999 0.345 -0.296 150 16 0
3.026 0.338 -0.28999999 150 16 0
3.0320001 0.331 -0.28299999 150 16 0
3.0409999 0.32499999 -0.27700001 150 16 0
3.0469999 0.31799999 -0.271 150 16 0
3.052 0.31099999 -0.26499999 150 16 0
3.0599999 0.30500001 -0.259 150 16 0
3.066 0.29800001 -0.25299999 150 16 0
3.0710001 0.29100001 -0.24600001 150 16 0
3.075 0.28400001 -0.23999999 150 16 0
3.086 0.27700001 -0.234 150 16 0
3.092 0.27000001 -0.228 150 16 0
3.1029999 0.264 -0.222 150 16 0
3.1099999 0.257 -0.215 150 16 0
3.118 0.25 -0.20900001 150 16 0
3.1199999 0.242 -0.20299999 150 16 0
3.1259999 0.235 -0.19599999 140 16 0
3.1289999 0.228 -0.19 137 16 0
3.142 0.221 -0.184 150 16 0
3.145 0.214 -0.177 150 16 0
3.1559999 0.207 -0.171 150 16 0
3.1619999 0.199 -0.16500001 142 16 0
3.1700001 0.192 -0.15800001 150 16 0
3.174 0.184 -0.152 141 16 0
3.1800001 0.177 -0.145 131 16 0
3.1900001 0.169 -0.139 130 16 0
3.1919999 0.162 -0.132 129 16 0
3.204 0.154 -0.126 131 16 0
3.214 0.147 -0.12 120 16 0
3.22 0.139 -0.113 128 16 0
3.2279999 0.131 -0.107 134 16 0
3.234 0.124 -0.1 135 16 0
3.2409999 0.116 -0.093999997 134 16 0
3.2479999 0.108 -0.086999997 130 16 0
3.2539999 0.1 -0.081 114 16 0
3.2579999 0.092 -0.074000001 116 16 0
3.2679999 0.083999999 -0.068000004 114 16 0
3.279 0.075999998 -0.061000001 118 16 0
3.2780001 0.068000004 -0.054000001 108 16 0
3.29 0.059999999 -0.048 50 16 0
3.2939999 0.052000001 -0.041000001 68 16 0
3.2980001 0.043000001 -0.035 107 16 0
3.312 0.035 -0.028000001 102 16 0
3.322 0.027000001 -0.021 40 16 0
3.3080001 0.017999999 -0.015 22 16 0
3.2920001 0.0099999998 -0.0080000004 20 16 0
3.279 0.0020000001 -0.001 19 16 0
3.2609999 -0.0060000001 0.0040000002 20 16 0
3.2490001 -0.014 0.011 40 16 0
3.2579999 -0.022 0.017000001 150 16 0
3.266 -0.030999999 0.024 150 16 0
3.27 -0.039000001 0.029999999 150 16 0
3.277 -0.048 0.037 150 16 0
3.2880001 -0.056000002 0.044 150 16 0
3.2920001 -0.064999998 0.050000001 150 16 0
3.2839999 -0.072999999 0.057 36 16 0
3.2679999 -0.081 0.063000001 33 16 0
3.253 -0.089000002 0.068999998 32 16 0
3.2379999 -0.097000003 0.075000003 34 16 0
3.2190001 -0.105 0.081 31 16 0
3.2090001 -0.113 0.086999997 32 16 0
3.191 -0.12 0.093000002 32 16 0
3.1789999 -0.12800001 0.097999997 31 16 0
3.1630001 -0.13600001 0.104 31 16 0
3.152 -0.14300001 0.11 32 16 0
3.131 -0.15099999 0.115 31 16 0
3.1140001 -0.15800001 0.12 30 16 0
3.102 -0.16500001 0.126 30 16 0
3.0899999 -0.17299999 0.131 30 16 0
3.076 -0.18000001 0.13699999 31 16 0
3.0599999 -0.18700001 0.142 31 16 0
3.043 -0.19400001 0.147 32 16 0
3.0309999 -0.20100001 0.152 31 16 0
3.016 -0.208 0.15700001 32 16 0
2.9949999 -0.215 0.162 31 16 0
2.9849999 -0.222 0.167 31 16 0
2.971 -0.229 0.171 31 16 0
2.9590001 -0.236 0.176 31 16 0
2.944 -0.242 0.18099999 32 16 0
2.9300001 -0.249 0.186 32 16 0
2.9159999 -0.25600001 0.19 32 16 0
2.902 -0.26199999 0.19499999 33 16 0
2.8889999 -0.26899999 0.199 33 16 0
2.878 -0.27500001 0.204 33 16 0
2.8670001 -0.28200001 0.208 32 16 0
2.8540001 -0.28799999 0.213 32 16 0
2.8340001 -0.294 0.21600001 33 16 0
2.832 -0.30199999 0.221 33 16 0
2.8150001 -0.30700001 0.22499999 35 16 0
2.8 -0.31299999 0.229 35 16 0
2.7880001 -0.31999999 0.233 36 16 0
2.7780001 -0.32600001 0.23800001 36 16 0
2.766 -0.33199999 0.242 38 16 0
2.757 -0.33899999 0.24600001 37 16 0
2.7490001 -0.345 0.25 36 16 0
2.7260001 -0.34999999 0.25299999 38 16 0
2.721 -0.35699999 0.257 37 16 0
2.714 -0.36300001 0.26199999 39 16 0
2.7019999 -0.36899999 0.26499999 36 16 0
2.6889999 -0.375 0.26899999 43 16 0
2.6789999 -0.38100001 0.273 45 16 0
2.6659999 -0.38600001 0.27599999 47 16 0
2.6600001 -0.39300001 0.28 51 16 0
2.645 -0.398 0.28299999 50 16 0
2.6300001 -0.403 0.28600001 48 16 0
2.6199999 -0.40900001 0.28999999 55 16 0
2.609 -0.414 0.29300001 61 16 0
2.6010001 -0.41999999 0.29699999 60 16 0
2.5910001 -0.426 0.30000001 60 16 0
2.5799999 -0.43099999 0.303 60 16 0
2.5669999 -0.43700001 0.30599999 57 16 0
2.559 -0.442 0.31 59 16 0
2.549 -0.44800001 0.31299999 63 16 0
2.539 -0.45300001 0.31600001 64 16 0
2.5220001 -0.458 0.31799999 63 16 0
2.5120001 -0.463 0.32100001 66 16 0
2.503 -0.46799999 0.32499999 71 16 0
2.4960001 -0.47400001 0.32800001 76 16 0
2.4809999 -0.479 0.33000001 74 16 0
2.473 -0.484 0.333 64 16 0
2.46 -0.48899999 0.336 70 16 0
2.45 -0.49399999 0.338 76 16 0
2.444 -0.5 0.34200001 70 16 0
2.4360001 -0.505 0.34400001 75 16 0
2.427 -0.50999999 0.347 80 16 0
2.4130001 -0.514 0.34900001 76 16 0
2.4059999 -0.51999998 0.352 74 16 0
2.395 -0.52399999 0.35499999 73 16 0
2.385 -0.52899998 0.35699999 73 16 0
2.372 -0.53299999 0.359 74 16 0
2.3629999 -0.53799999 0.361 64 16 0
2.3559999 -0.54400003 0.36399999 87 16 0
2.345 -0.54799998 0.366 73 16 0
2.3369999 -0.55299997 0.36899999 75 16 0
2.3280001 -0.55800003 0.37099999 102 16 0
2.3169999 -0.56199998 0.373 101 16 0
2.3039999 -0.56599998 0.375 88 16 0
2.296 -0.57099998 0.377 90 16 0
2.2880001 -0.57499999 0.37900001 107 16 0
2.279 -0.57999998 0.38100001 112 16 0
2.2679999 -0.58399999 0.38299999 106 16 0
2.26 -0.58899999 0.38499999 101 16 0
2.25 -0.59299999 0.38699999 104 16 0
2.2420001 -0.597 0.389 107 16 0
2.2309999 -0.60100001 0.38999999 106 16 0
2.2249999 -0.60600001 0.39300001 110 16 0
2.2149999 -0.611 0.39399999 112 16 0
2.2019999 -0.61299998 0.39500001 106 16 0
2.1960001 -0.61900002 0.398 110 16 0
2.181 -0.62099999 0.398 111 16 0
2.178 -0.62699997 0.40099999 114 16 0
2.1689999 -0.63099998 0.40200001 133 16 0
2.161 -0.63499999 0.40400001 118 16 0
2.151 -0.639 0.405 101 16 0
2.142 -0.64300001 0.40700001 121 16 0
2.135 -0.64700001 0.40799999 128 16 0
2.125 -0.65100002 0.40900001 129 16 0
2.1199999 -0.65600002 0.412 131 16 0
2.108 -0.65899998 0.412 139 16 0
2.0969999 -0.662 0.41299999 137 16 0
2.095 -0.667 0.41499999 141 16 0
2.0739999 -0.667 0.414 132 19 0
2.0680001 -0.67199999 0.41600001 117 16 0
2.063 -0.67699999 0.41800001 143 16 0
2.0539999 -0.68000001 0.41800001 135 16 0
2.046 -0.68400002 0.41999999 137 16 0
2.0409999 -0.68900001 0.421 150 16 0
2.0280001 -0.69099998 0.421 143 16 0
2.0239999 -0.69599998 0.42300001 150 16 0
2.016 -0.699 0.42399999 150 16 0
2.007 -0.70200002 0.42500001 150 16 0
2 -0.70599997 0.426 150 16 0
1.988 -0.70899999 0.426 150 16 0
1.9859999 -0.71399999 0.428 142 16 0
1.977 -0.71700001 0.42899999 150 16 0
1.973 -0.722 0.43000001 150 16 0
1.96 -0.72299999 0.43000001 150 16 0
1.952 -0.727 0.43000001 150 16 0
1.943 -0.72899997 0.43099999 150 16 0
1.938 -0.73400003 0.43200001 150 16 0
1.931 -0.73699999 0.43200001 150 16 0
1.925 -0.741 0.433 150 16 0
1.9170001 -0.74400002 0.43399999 150 16 0
1.91 -0.74699998 0.43399999 150 16 0
1.903 -0.75099999 0.435 150 16 0
1.893 -0.75300002 0.435 150 16 0
1.885 -0.75599998 0.435 150 16 0
1.88 -0.75999999 0.43599999 150 16 0
1.872 -0.76300001 0.43599999 150 16 0
1.8660001 -0.76599997 0.43700001 150 16 0
1.85 -0.76599997 0.435 150 16 0
1.845 -0.76999998 0.435 150 16 0
1.841 -0.77399999 0.43599999 150 16 0
1.837 -0.778 0.43700001 150 16 0
1.83 -0.78100002 0.43700001 150 16 0
1.825 -0.78399998 0.43799999 2 0 0
1.8200001 -0.78799999 0.43799999 2 0 0
1.811 -0.79000002 0.43799999 150 16 0
1.806 -0.79299998 0.43799999 150 16 0
1.796 -0.79500002 0.43700001 2 0 0
1.7920001 -0.79900002 0.43799999 150 16 0
1.7819999 -0.80000001 0.43700001 150 16 0
1.773 -0.80199999 0.43599999 150 16 0
1.768 -0.80500001 0.43700001 150 16 0
1.765 -0.80900002 0.43700001 150 16 0
1.761 -0.81300002 0.43799999 150 16 0
1.755 -0.81599998 0.43799999 150 16 0
1.7410001 -0.815 0.435 150 16 0
1.7359999 -0.81800002 0.43599999 150 16 0
1.732 -0.82200003 0.43599999 150 16 0
1.73 -0.82599998 0.43599999 150 16 0
1.723 -0.82800001 0.43599999 150 16 0
1.712 -0.82800001 0.43399999 150 16 0
1.7079999 -0.83099997 0.43399999 150 16 0
1.704 -0.83499998 0.43399999 150 16 0
1.696 -0.83700001 0.433 150 16 0
1.6900001 -0.83899999 0.433 150 16 0
1.683 -0.84100002 0.43200001 150 16 0
1.681 -0.84500003 0.43200001 150 16 0
1.674 -0.847 0.43099999 3 0 0
1.669 -0.84899998 0.43099999 150 16 0
1.664 -0.852 0.43000001 150 16 0
1.658 -0.85299999 0.42899999 150 16 0
1.65 -0.85500002 0.428 4 0 0
1.649 -0.85900003 0.42899999 150 16 0
1.6390001 -0.85799998 0.426 2 0 0
1.6339999 -0.861 0.426 3 0 0
1.632 -0.86500001 0.426 5 0 0
1.63 -0.86799997 0.426 6 0 0
1.627 -0.87199998 0.426 4 0 0
1.622 -0.87400001 0.42500001 4 0 0
1.612 -0.87300003 0.42300001 135 0 0
1.607 -0.875 0.42199999 111 0 0
1.6 -0.87599999 0.41999999 126 0 0
1.597 -0.87900001 0.41999999 150 0 0
1.591 -0.88 0.41800001 150 0 0
1.586 -0.88200003 0.417 144 0 0
1.584 -0.88499999 0.417 115 0 0
1.58 -0.88700002 0.41600001 150 0 0
1.574 -0.88800001 0.414 130 0 0
1.571 -0.89099997 0.414 142 0 0
1.562 -0.88999999 0.41100001 128 0 0
1.5599999 -0.89300001 0.41100001 142 0 0
1.5549999 -0.89499998 0.41 131 0 0
1.548 -0.89499998 0.40799999 150 0 0
1.5470001 -0.898 0.40700001 140 0 0
1.545 -0.90100002 0.40700001 134 0 0
1.538 -0.90100002 0.405 150 0 0
1.536 -0.90399998 0.40400001 128 0 0
1.53 -0.90399998 0.40200001 150 0 0
1.528 -0.90600002 0.40099999 148 0 0
1.525 -0.90799999 0.40000001 117 0 0
1.521 -0.91000003 0.398 145 0 0
1.513 -0.90899998 0.396 123 0 0
1.511 -0.91100001 0.39500001 148 0 0
1.508 -0.91299999 0.39399999 138 0 0
1.498 -0.91000003 0.38999999 150 3 0
1.495 -0.912 0.389 142 0 0
1.493 -0.91399997 0.38800001 150 0 0
1.49 -0.91500002 0.38600001 145 0 0
1.488 -0.917 0.38499999 124 0 0
1.487 -0.92000002 0.384 150 0 0
1.4809999 -0.91900003 0.382 140 0 0
1.48 -0.921 0.38100001 125 0 0
1.479 -0.92400002 0.38 146 0 0
1.475 -0.92500001 0.37799999 135 0 0
1.474 -0.92699999 0.377 105 0 0
1.472 -0.92799997 0.375 150 0 0
1.464 -0.926 0.37200001 150 3 0
1.4680001 -0.93099999 0.37200001 150 0 0
1.464 -0.93099999 0.37 6 0 0
1.461 -0.93199998 0.368 137 0 0
1.46 -0.93400002 0.36700001 93 0 0
1.452 -0.93099999 0.36300001 150 3 0
1.451 -0.93300003 0.36199999 81 0 0
1.45 -0.93400002 0.361 134 0 0
1.449 -0.93599999 0.359 105 0 0
1.441 -0.93300003 0.35600001 122 2 0
1.444 -0.93699998 0.35499999 132 0 0
1.441 -0.93699998 0.35299999 112 0 0
1.436 -0.93599999 0.34999999 92 0 0
1.4349999 -0.93699998 0.34900001 113 0 0
1.4349999 -0.93900001 0.347 91 0 0
1.434 -0.94 0.34599999 143 0 0
1.4299999 -0.93900001 0.34299999 121 0 0
1.4299999 -0.94 0.34099999 117 0 0
1.4299999 -0.94199997 0.34 96 0 0
1.4299999 -0.94300002 0.338 104 0 0
1.426 -0.94199997 0.336 123 0 0
1.42 -0.93900001 0.33199999 100 0 0
1.423 -0.94300002 0.33199999 145 0 0
1.424 -0.94400001 0.33000001 110 0 0
1.418 -0.94099998 0.32699999 107 3 0
1.419 -0.94300002 0.32499999 91 0 0
1.418 -0.94300002 0.32300001 111 0 0
1.418 -0.94400001 0.32100001 118 0 0
1.413 -0.94099998 0.31900001 104 3 0
1.413 -0.94199997 0.317 117 0 0
1.416 -0.94499999 0.315 91 0 0
1.41 -0.94199997 0.31200001 88 0 0
1.41 -0.94199997 0.31 72 0 0
1.413 -0.94400001 0.30899999 100 0 0
1.411 -0.94300002 0.30599999 85 0 0
1.41 -0.94300002 0.30399999 99 0 0
1.411 -0.94400001 0.30199999 108 0 0
1.411 -0.94400001 0.30000001 102 0 0
1.411 -0.94400001 0.29800001 87 0 0
1.409 -0.94199997 0.296 102 0 0
1.409 -0.94199997 0.294 150 0 0
1.408 -0.94099998 0.29100001 118 0 0
1.4069999 -0.94099998 0.289 86 0 0
1.408 -0.94099998 0.287 130 0 0
1.408 -0.94099998 0.285 95 0 0
1.406 -0.93900001 0.28200001 85 0 0
1.4119999 -0.94199997 0.28099999 85 0 0
1.4069999 -0.93800002 0.278 85 0 0
1.409 -0.93800002 0.27599999 105 0 0
1.409 -0.93800002 0.27399999 79 0 0
1.4119999 -0.93900001 0.27200001 102 0 0
1.409 -0.93599999 0.26899999 125 0 0
1.411 -0.93599999 0.26699999 81 0 0
1.41 -0.935 0.26499999 91 0 0
1.413 -0.935 0.26300001 103 0 0
1.4119999 -0.93300003 0.26100001 83 0 0
1.413 -0.93300003 0.25799999 120 0 0
1.413 -0.93199998 0.25600001 90 0 0
1.414 -0.93000001 0.25400001 104 0 0
1.411 -0.92699999 0.25099999 94 0 0
1.416 -0.92900002 0.249 103 0 0
1.4170001 -0.92799997 0.24699999 87 0 0
1.418 -0.92699999 0.245 90 0 0
1.419 -0.926 0.243 108 0 0
1.425 -0.92799997 0.242 100 0 0
1.426 -0.926 0.23899999 118 0 0
1.4220001 -0.92199999 0.236 114 0 0
1.426 -0.92199999 0.234 127 0 0
1.4299999 -0.92299998 0.233 118 0 0
1.428 -0.92000002 0.23 120 0 0
1.432 -0.92000002 0.228 103 0 0
1.431 -0.917 0.226 90 0 0
1.436 -0.917 0.22400001 67 0 0
1.437 -0.91600001 0.222 84 0 0
1.438 -0.91399997 0.219 99 0 0
1.4450001 -0.91600001 0.21799999 73 0 0
1.4400001 -0.91000003 0.215 104 0 0
1.442 -0.90899998 0.213 77 0 0
1.446 -0.90899998 0.211 105 0 0
1.452 -0.91000003 0.20900001 101 0 0
1.452 -0.90700001 0.207 106 0 0
1.456 -0.90600002 0.205 3 0 0
1.455 -0.903 0.20299999 107 0 0
1.459 -0.90200001 0.20100001 77 0 0
1.461 -0.89999998 0.199 96 0 0
1.4630001 -0.89899999 0.19599999 68 0 0
1.47 -0.89899999 0.19499999 77 0 0
1.472 -0.89700001 0.193 81 0 0
1.472 -0.89399999 0.191 72 0 0
1.477 -0.89399999 0.189 64 0 0
1.476 -0.88999999 0.186 100 0 0
1.488 -0.89300001 0.185 94 3 0
1.488 -0.88999999 0.183 103 0 0
1.49 -0.88700002 0.18099999 102 0 0
1.497 -0.88800001 0.17900001 65 0 0
1.495 -0.88300002 0.177 54 0 0
1.499 -0.88200003 0.175 76 0 0
1.502 -0.88 0.17299999 113 0 0
1.503 -0.87699997 0.171 111 0 0
1.5089999 -0.87699997 0.169 79 0 0
1.511 -0.87400001 0.167 75 0 0
1.513 -0.87099999 0.16500001 68 0 0
1.517 -0.86900002 0.163 66 0 0
1.5190001 -0.86699998 0.161 74 0 0
1.53 -0.86799997 0.16 63 0 0
1.523 -0.861 0.15700001 75 0 0
1.533 -0.86199999 0.155 63 0 0
1.536 -0.85900003 0.154 75 0 0
1.539 -0.85699999 0.152 76 0 0
1.5420001 -0.85399997 0.15000001 75 0 0
1.5470001 -0.85299999 0.148 84 0 0
1.55 -0.85000002 0.146 78 0 0
1.552 -0.847 0.14399999 69 0 0
1.5599999 -0.84600002 0.14300001 81 0 0
1.562 -0.84299999 0.141 62 0 0
1.566 -0.84100002 0.139 101 0 0
1.568 -0.838 0.13699999 82 0 0
1.571 -0.83399999 0.13500001 81 0 0
1.576 -0.83200002 0.133 66 0 0
1.589 -0.83399999 0.132 55 0 0
1.591 -0.83099997 0.13 61 0 0
1.597 -0.829 0.12899999 58 0 0
1.601 -0.82599998 0.127 55 0 0
1.604 -0.82300001 0.125 65 0 0
1.608 -0.81999999 0.124 65 0 0
1.614 -0.81800002 0.122 54 0 0
1.62 -0.81699997 0.12 60 0 0
1.622 -0.81300002 0.119 65 0 0
1.628 -0.81 0.117 51 0 0
1.631 -0.80699998 0.115 47 0 0
1.64 -0.80599999 0.114 53 0 0
1.642 -0.80199999 0.112 56 0 0
1.65 -0.801 0.111 49 0 0
1.65 -0.796 0.109 48 0 0
1.666 -0.79799998 0.108 1 3 0
1.668 -0.79400003 0.106 2 0 0
1.671 -0.79000002 0.104 1 0 0
1.6799999 -0.78899997 0.103 54 0 0
1.683 -0.78500003 0.102 58 0 0
1.692 -0.78399998 0.1 1 0 0
1.7 -0.78200001 0.098999999 41 0 0
1.7029999 -0.778 0.097000003 2 0 0
1.707 -0.77399999 0.096000001 35 0 0
1.712 -0.77100003 0.093999997 34 0 0
1.717 -0.76800001 0.093000002 32 0 0
1.732 -0.76899999 0.092 3 0 0
1.739 -0.76599997 0.090000004 2 0 0
1.7410001 -0.76099998 0.089000002 29 0 0
1.748 -0.759 0.086999997 2 0 0
1.755 -0.75599998 0.086000003 1 0 0
1.758 -0.75199997 0.083999999 1 0 0
1.7589999 -0.74599999 0.082999997 140 16 0
1.768 -0.745 0.082000002 1 0 0
1.781 -0.74400002 0.081 146 16 0
1.786 -0.74000001 0.079000004 124 16 0
1.7920001 -0.73699999 0.078000002 139 16 0
1.7970001 -0.73299998 0.075999998 131 16 0
1.8 -0.72799999 0.075000003 135 16 0
1.8099999 -0.72600001 0.074000001 140 16 0
1.814 -0.722 0.071999997 137 16 0
1.823 -0.72000003 0.071000002 133 16 0
1.839 -0.72000003 0.07 132 16 0
1.841 -0.71499997 0.068999998 130 16 0
1.848 -0.71100003 0.068000004 129 16 0
1.854 -0.70700002 0.066 125 16 0
1.862 -0.704 0.064999998 1 0 0
1.868 -0.69999999 0.064000003 119 16 0
1.877 -0.69700003 0.063000001 1 0 0
1.8890001 -0.69599998 0.061999999 1 0 0
1.89 -0.68900001 0.059999999 113 16 0
1.898 -0.68599999 0.059 115 16 0
1.9069999 -0.68300003 0.057999998 1 0 0
1.911 -0.67799997 0.057 120 16 0
1.918 -0.67400002 0.056000002 123 16 0
1.926 -0.671 0.055 109 16 0
1.929 -0.66500002 0.052999999 113 16 0
1.949 -0.66600001 0.052999999 110 19 0
1.957 -0.662 0.050999999 122 16 0
1.961 -0.65700001 0.050000001 113 16 0
1.967 -0.65200001 0.048999999 114 16 0
1.98 -0.64999998 0.048 111 16 0
1.984 -0.64399999 0.046999998 108 16 0
1.994 -0.64099997 0.046 101 16 0
2.0020001 -0.63700002 0.045000002 105 16 0
2.0150001 -0.634 0.044 109 16 0
2.0220001 -0.63 0.043000001 87 16 0
2.0350001 -0.62699997 0.041999999 99 16 0
2.0369999 -0.62099999 0.041000001 83 16 0
2.0480001 -0.61699998 0.039999999 91 16 0
2.056 -0.61299998 0.039000001 93 16 0
2.0669999 -0.60900003 0.037999999 82 16 0
2.079 -0.60600001 0.037 85 16 0
2.085 -0.60100001 0.035999998 86 16 0
2.0929999 -0.59600002 0.035 79 16 0
2.1040001 -0.59200001 0.035 77 16 0
2.1129999 -0.588 0.034000002 83 16 0
2.122 -0.583 0.033 87 16 0
2.135 -0.57999998 0.032000002 83 16 0
2.1429999 -0.57499999 0.030999999 88 16 0
2.155 -0.57099998 0.029999999 80 16 0
2.1619999 -0.56599998 0.028999999 88 16 0
2.1789999 -0.56300002 0.028999999 81 16 0
2.1889999 -0.55800003 0.028000001 74 16 0
2.1960001 -0.55199999 0.027000001 73 16 0
2.2130001 -0.54900002 0.026000001 76 16 0
2.2190001 -0.54299998 0.025 65 16 0
2.2290001 -0.53899997 0.025 64 16 0
2.24 -0.53399998 0.024 63 16 0
2.25 -0.52899998 0.023 60 16 0
2.2639999 -0.52499998 0.022 70 16 0
2.27 -0.51800001 0.022 61 16 0
2.283 -0.514 0.021 62 16 0
2.2950001 -0.509 0.02 63 16 0
2.3080001 -0.50400001 0.018999999 45 16 0
2.3199999 -0.49900001 0.018999999 47 16 0
2.3299999 -0.49399999 0.017999999 43 16 0
2.342 -0.48800001 0.017000001 48 16 0
2.3540001 -0.48300001 0.017000001 47 16 0
2.3670001 -0.47799999 0.016000001 41 16 0
2.3789999 -0.47299999 0.015 35 16 0
2.3889999 -0.46700001 0.015 47 16 0
2.408 -0.463 0.014 46 16 0
2.4200001 -0.45699999 0.013 52 16 0
2.428 -0.44999999 0.013 46 16 0
2.441 -0.44499999 0.012 43 16 0
2.4579999 -0.44 0.012 46 16 0
2.461 -0.43200001 0.011 40 16 0
2.48 -0.42699999 0.011 45 16 0
2.49 -0.421 0.0099999998 40 16 0
2.5050001 -0.41499999 0.0089999996 38 16 0
2.5139999 -0.40900001 0.0089999996 32 16 0
2.529 -0.403 0.0080000004 33 16 0
2.546 -0.39700001 0.0080000004 30 16 0
2.559 -0.391 0.0070000002 29 16 0
2.575 -0.38499999 0.0070000002 29 16 0
2.5840001 -0.37799999 0.0060000001 29 16 0
2.6029999 -0.37200001 0.0060000001 29 16 0
2.6140001 -0.36500001 0.0049999999 28 16 0
2.628 -0.35800001 0.0049999999 30 16 0
2.645 -0.352 0.0049999999 30 16 0
2.6570001 -0.345 0.0040000002 30 16 0
2.674 -0.338 0.0040000002 29 16 0
2.6849999 -0.331 0.003 29 16 0
2.7060001 -0.32499999 0.003 31 16 0
2.721 -0.31799999 0.003 29 16 0
2.7320001 -0.31 0.0020000001 29 16 0
2.7490001 -0.303 0.0020000001 27 16 0
2.763 -0.29499999 0.0020000001 28 16 0
2.779 -0.28799999 0.001 28 16 0
2.796 -0.28099999 0.001 29 16 0
2.8099999 -0.273 0.001 28 16 0
2.835 -0.266 0.001 27 16 0
2.8429999 -0.25799999 0 28 16 0
2.8599999 -0.25 0 28 16 0
2.8789999 -0.242 0 27 16 0
2.8989999 -0.235 0 27 16 0
2.9189999 -0.227 0 28 16 0
2.9360001 -0.21799999 0 27 16 0
2.9530001 -0.20999999 0 26 16 0
2.973 -0.20200001 0 26 16 0
2.9909999 -0.193 0 27 16 0
3.01 -0.185 0 25 16 0
3.033 -0.176 -0.001 26 16 0
3.053 -0.168 -0.001 26 16 0
3.075 -0.15899999 -0.001 27 16 0
3.0929999 -0.15000001 -0.001 26 16 0
3.1129999 -0.141 -0.001 26 16 0
3.135 -0.131 -0.001 28 16 0
3.1570001 -0.122 -0.001 27 16 0
3.174 -0.112 -0.001 27 16 0
3.2 -0.103 -0.001 28 16 0
3.22 -0.093000002 -0.001 27 16 0
3.2420001 -0.082999997 -0.001 29 16 0
3.2709999 -0.072999999 -0.001 41 16 0
3.2709999 -0.063000001 -0.001 150 16 0
3.263 -0.052000001 0 127 16 0
3.2609999 -0.041999999 0 125 16 0
3.2520001 -0.030999999 0 127 16 0
3.2460001 -0.02 0 49 16 0
3.2550001 -0.0099999998 0 20 16 0
3.279 0 0 17 16 0
3.302 0.0099999998 0 18 16 0
3.3280001 0.021 0 26 16 0
3.3280001 0.032000002 0 50 16 0
3.3169999 0.043000001 0.001 52 16 0
3.3169999 0.052999999 0.001 40 16 0
3.309 0.064000003 0.001 46 16 0
3.309 0.075000003 0.0020000001 56 16 0
3.302 0.085000001 0.0020000001 52 16 0
3.293 0.096000001 0.0020000001 59 16 0
3.2880001 0.106 0.003 53 16 0
3.2839999 0.117 0.003 61 16 0
3.2780001 0.127 0.0040000002 53 16 0
3.2780001 0.138 0.0040000002 54 16 0
3.2709999 0.148 0.0040000002 61 16 0
3.2609999 0.15800001 0.0049999999 66 16 0
3.2579999 0.168 0.0049999999 62 16 0
3.2520001 0.17900001 0.0060000001 69 16 0
3.2539999 0.189 0.0060000001 64 16 0
3.247 0.199 0.0070000002 72 16 0
3.244 0.20999999 0.0080000004 76 16 0
3.2349999 0.22 0.0080000004 78 16 0
3.2349999 0.23 0.0089999996 73 16 0
3.2309999 0.23999999 0.0089999996 74 16 0
3.2219999 0.25 0.0099999998 76 16 0
3.217 0.25999999 0.011 76 16 0
3.2130001 0.27000001 0.011 77 16 0
3.204 0.28 0.012 72 16 0
3.2019999 0.28999999 0.013 84 16 0
3.194 0.30000001 0.013 69 16 0
3.1930001 0.31 0.014 68 16 0
3.1849999 0.31999999 0.015 73 16 0
3.1819999 0.33000001 0.016000001 73 16 0
3.177 0.34 0.017000001 75 16 0
3.1689999 0.34900001 0.017000001 62 16 0
3.1689999 0.359 0.017999999 74 16 0
3.1589999 0.368 0.018999999 70 16 0
3.155 0.37799999 0.02 72 16 0
3.154 0.38800001 0.021 68 16 0
3.1459999 0.398 0.022 77 16 0
3.145 0.40799999 0.023 78 16 0
3.1389999 0.417 0.023 65 16 0
3.1289999 0.426 0.024 67 16 0
3.128 0.43599999 0.025 89 16 0
3.1229999 0.44600001 0.026000001 80 16 0
3.118 0.45500001 0.027000001 83 16 0
3.1140001 0.465 0.028000001 85 16 0
3.1099999 0.47400001 0.028999999 85 16 0
3.1040001 0.48300001 0.029999999 89 16 0
3.0969999 0.49200001 0.030999999 104 16 0
3.096 0.50199997 0.033 91 16 0
3.0880001 0.51099998 0.034000002 89 16 0
3.0869999 0.52100003 0.035 96 16 0
3.082 0.52999997 0.035999998 95 16 0
3.0799999 0.54000002 0.037 101 16 0
3.0769999 0.55000001 0.037999999 97 16 0
3.073 0.55900002 0.039000001 101 16 0
3.0639999 0.56699997 0.041000001 112 16 0
3.062 0.57700002 0.041999999 110 16 0
3.0599999 0.58700001 0.043000001 108 16 0
3.0539999 0.59500003 0.044 100 16 0
3.046 0.60399997 0.046 99 16 0
3.0439999 0.61299998 0.046999998 103 16 0
3.0409999 0.62300003 0.048 109 16 0
3.036 0.63200003 0.050000001 106 16 0
3.0320001 0.64099997 0.050999999 117 16 0
3.023 0.64899999 0.052000001 106 16 0
3.0220001 0.65899998 0.054000001 107 16 0
3.02 0.66799998 0.055 103 16 0
3.0139999 0.67699999 0.056000002 104 16 0
3.01 0.68599999 0.057999998 96 16 0
3.0020001 0.69400001 0.059 101 16 0
2.9990001 0.70300001 0.061000001 92 16 0
2.997 0.71200001 0.061999999 115 16 0
2.994 0.722 0.064000003 119 16 0
2.9920001 0.73100001 0.066 112 16 0
2.983 0.73900002 0.067000002 110 16 0
2.98 0.74800003 0.068999998 96 16 0
2.9820001 0.75800002 0.07 113 16 0
2.9790001 0.76700002 0.071999997 132 16 0
2.971 0.77499998 0.074000001 121 16 0
2.964 0.78299999 0.075000003 125 16 0
2.961 0.792 0.077 126 16 0
2.9590001 0.801 0.079000004 122 16 0
2.9530001 0.80900002 0.079999998 116 16 0
2.951 0.81800002 0.082000002 118 16 0
2.9460001 0.82700002 0.083999999 115 16 0
2.947 0.83700001 0.086000003 112 16 0
2.9430001 0.84500003 0.088 112 16 0
2.9389999 0.85399997 0.089000002 121 16 0
2.928 0.86000001 0.090999998 121 16 0
2.9260001 0.86900002 0.093000002 123 16 0
2.9230001 0.87800002 0.094999999 142 16 0
2.9200001 0.88700002 0.097000003 136 16 0
2.9170001 0.89600003 0.098999999 117 16 0
2.915 0.90499997 0.101 119 16 0
2.908 0.912 0.103 120 16 0
2.908 0.92199999 0.105 119 16 0
2.905 0.93000001 0.107 134 16 0
2.8989999 0.93800002 0.109 147 16 0
2.8970001 0.94700003 0.111 123 16 0
2.8959999 0.95599997 0.113 133 16 0
2.888 0.963 0.115 128 16 0
2.895 0.97500002 0.118 33 16 0
2.891 0.98299998 0.12 37 16 0
2.878 0.98799998 0.122 134 16 0
2.875 0.99699998 0.124 121 16 0
2.8729999 1.005 0.126 144 16 0
2.869 1.013 0.12899999 140 16 0
2.8659999 1.022 0.131 121 16 0
2.8640001 1.03 0.133 136 16 0
2.8570001 1.0369999 0.13600001 113 16 0
2.8559999 1.0470001 0.138 120 16 0
2.8540001 1.0549999 0.141 120 16 0
2.8499999 1.063 0.14300001 115 16 0
2.8469999 1.071 0.145 117 16 0
2.8440001 1.079 0.148 116 16 0
2.8380001 1.086 0.15000001 116 16 0
2.8369999 1.095 0.153 120 16 0
2.832 1.103 0.155 144 16 0
2.8310001 1.1109999 0.15800001 120 16 0
2.8280001 1.119 0.161 121 16 0
2.8280001 1.1289999 0.163 142 16 0
2.8210001 1.135 0.16599999 111 16 0
2.8180001 1.143 0.168 120 16 0
2.8150001 1.151 0.171 121 16 0
2.8110001 1.159 0.17399999 121 16 0
2.8110001 1.168 0.177 128 16 0
2.8050001 1.174 0.18000001 120 16 0
2.8039999 1.183 0.182 116 16 0
2.7980001 1.1900001 0.185 120 16 0
2.8 1.2 0.18799999 120 16 0
2.7909999 1.204 0.191 107 16 0
2.7939999 1.214 0.19400001 127 16 0
2.79 1.222 0.197 127 16 0
2.7880001 1.23 0.2 150 16 0
2.78 1.2359999 0.20299999 150 16 0
2.78 1.244 0.206 150 16 0
2.773 1.25 0.20900001 150 16 0
2.7739999 1.2589999 0.212 149 16 0
2.77 1.266 0.215 145 16 0
2.767 1.273 0.21799999 136 16 0
2.763 1.28 0.221 144 16 0
2.766 1.29 0.22499999 150 16 0
2.76 1.296 0.228 137 16 0
2.76 1.3049999 0.23100001 148 16 0
2.7579999 1.312 0.235 139 16 0
2.753 1.318 0.23800001 142 16 0
2.7509999 1.326 0.241 147 16 0
2.7479999 1.3329999 0.245 138 16 0
2.747 1.341 0.248 150 16 0
2.744 1.348 0.25099999 139 16 0
2.74 1.354 0.255 142 16 0
2.7420001 1.364 0.259 145 16 0
2.7390001 1.37 0.26199999 141 16 0
2.7349999 1.376 0.26499999 139 16 0
2.7309999 1.383 0.26899999 150 16 0
2.734 1.392 0.273 150 16 0
2.707 1.386 0.27399999 150 19 0
2.671 1.376 0.27399999 131 16 0
2.668 1.382 0.278 150 16 0
2.664 1.388 0.28099999 150 16 0
2.664 1.396 0.285 150 16 0
2.6600001 1.401 0.28799999 142 16 0
2.6559999 1.4069999 0.292 128 16 0
2.6559999 1.414 0.296 145 16 0
2.658 1.423 0.30000001 132 16 0
2.654 1.428 0.30399999 146 16 0
2.652 1.434 0.30700001 138 16 0
2.654 1.443 0.31200001 116 16 0
2.6570001 1.452 0.31600001 90 16 0
2.6530001 1.457 0.31999999 50 16 0
2.658 1.467 0.324 36 16 0
2.6719999 1.482 0.33000001 27 16 0
2.6900001 1.5 0.33700001 29 16 0
2.6960001 1.51 0.34200001 38 16 0
2.6930001 1.515 0.34599999 43 16 0
2.671 1.51 0.347 39 19 0
2.6500001 1.505 0.34900001 36 16 0
2.6329999 1.502 0.35100001 33 16 0
2.631 1.508 0.35499999 27 16 0
2.632 1.515 0.359 26 16 0
2.6389999 1.525 0.36399999 29 16 0
2.6340001 1.529 0.368 32 16 0
2.625 1.53 0.37099999 31 16 0
2.6170001 1.5319999 0.375 32 16 0
2.608 1.533 0.377 35 16 0
2.6059999 1.5369999 0.382 44 16 0
2.596 1.538 0.38499999 75 16 0
2.592 1.541 0.38800001 120 16 0
2.5929999 1.548 0.39300001 150 16 0
2.5899999 1.552 0.39700001 150 16 0
2.5899999 1.557 0.40099999 140 16 0
2.589 1.563 0.40599999 143 16 0
2.5880001 1.567 0.41 143 16 0
2.589 1.574 0.41499999 144 16 0
2.5880001 1.5779999 0.419 137 16 0
2.586 1.582 0.42300001 150 16 0
2.5880001 1.5880001 0.428 147 16 0
2.5910001 1.596 0.433 149 16 0
2.5899999 1.6 0.43700001 135 16 0
2.582 1.6 0.44 141 16 0
2.5880001 1.608 0.44600001 135 16 0
2.586 1.612 0.44999999 138 16 0
2.582 1.614 0.454 130 16 0
2.5799999 1.617 0.458 126 16 0
2.5810001 1.622 0.463 128 16 0
2.5829999 1.628 0.46799999 119 16 0
2.5810001 1.631 0.472 126 16 0
2.586 1.638 0.477 123 16 0
2.5829999 1.64 0.48100001 119 16 0
2.5829999 1.6440001 0.486 118 16 0
2.5829999 1.648 0.491 126 16 0
2.585 1.652 0.495 117 16 0
2.586 1.656 0.5 121 16 0
2.5840001 1.659 0.50400001 124 16 0
2.585 1.663 0.509 116 16 0
2.585 1.666 0.514 110 16 0
2.5869999 1.671 0.51800001 118 16 0
2.5869999 1.673 0.523 141 16 0
2.5840001 1.674 0.52700001 136 16 0
2.5829999 1.677 0.53100002 114 16 0
2.5869999 1.681 0.53600001 132 16 0
2.5910001 1.686 0.54100001 122 16 0
2.5880001 1.687 0.54500002 124 16 0
2.5869999 1.689 0.54900002 120 16 0
2.5869999 1.6900001 0.55400002 141 16 0
2.592 1.696 0.55900002 133 16 0
2.5880001 1.6950001 0.56199998 130 16 0
2.595 1.701 0.56800002 141 16 0
2.598 1.704 0.57300001 138 16 0
2.596 1.705 0.57700002 135 16 0
2.596 1.706 0.58099997 129 16 0
2.596 1.707 0.58499998 135 16 0
2.596 1.7079999 0.58999997 132 16 0
2.598 1.711 0.59399998 127 16 0
2.602 1.714 0.59899998 123 16 0
2.605 1.717 0.60399997 112 16 0
2.605 1.717 0.60799998 121 16 0
2.605 1.717 0.61199999 120 16 0
2.6059999 1.7180001 0.616 115 16 0
2.6110001 1.722 0.62099999 129 16 0
2.6110001 1.722 0.625 142 16 0
2.612 1.722 0.62900001 138 16 0
2.6110001 1.722 0.63300002 146 16 0
2.6129999 1.722 0.63700002 145 16 0
2.619 1.725 0.64200002 146 16 0
2.6140001 1.721 0.64499998 145 16 0
2.6159999 1.722 0.64899999 122 16 0
2.6129999 1.719 0.65200001 64 16 0
2.6099999 1.716 0.65499997 42 16 0
2.6029999 1.71 0.65600002 38 16 0
2.598 1.706 0.65799999 35 16 0
2.595 1.702 0.66100001 35 16 0
2.586 1.6950001 0.662 34 16 0
2.582 1.6900001 0.66399997 34 16 0
2.579 1.686 0.66600001 35 16 0
2.573 1.6799999 0.66799998 36 16 0
2.5710001 1.677 0.671 35 16 0
2.569 1.673 0.67299998 36 16 0
2.563 1.6670001 0.67400002 35 16 0
2.556 1.659 0.67500001 34 16 0
2.556 1.6569999 0.67799997 36 16 0
2.549 1.649 0.67900002 35 16 0
2.546 1.6440001 0.68099999 35 16 0
2.543 1.64 0.68300003 35 16 0
2.5409999 1.635 0.685 35 16 0
2.5369999 1.6289999 0.68599999 35 16 0
2.536 1.626 0.68800002 37 16 0
2.533 1.62 0.69 36 16 0
2.5250001 1.612 0.69 37 16 0
2.526 1.608 0.69199997 37 16 0
2.5239999 1.603 0.69400001 37 16 0
2.52 1.597 0.69499999 37 16 0
2.5120001 1.5880001 0.69499999 36 16 0
2.513 1.584 0.69700003 37 16 0
2.5120001 1.579 0.69800001 37 16 0
2.5079999 1.572 0.699 37 16 0
2.507 1.567 0.69999999 37 16 0
2.5 1.559 0.69999999 37 16 0
2.503 1.5549999 0.70200002 36 16 0
2.5009999 1.55 0.70300001 40 16 0
2.4909999 1.539 0.70200002 38 19 0
2.493 1.535 0.704 39 16 0
2.494 1.531 0.70599997 39 16 0
2.4909999 1.524 0.70599997 38 16 0
2.4890001 1.517 0.70700002 40 16 0
2.4909999 1.513 0.708 41 16 0
2.4890001 1.506 0.70899999 41 16 0
2.4849999 1.499 0.70899999 39 16 0
2.4860001 1.494 0.70999998 42 16 0
2.484 1.487 0.70999998 35 16 0
2.483 1.4809999 0.71100003 36 16 0
2.484 1.475 0.71100003 35 16 0
2.4809999 1.4680001 0.71100003 36 16 0
2.4820001 1.462 0.71200001 35 16 0
2.4820001 1.456 0.71200001 36 16 0
2.4820001 1.45 0.713 36 16 0
2.4790001 1.442 0.71200001 36 16 0
2.4809999 1.438 0.713 37 16 0
2.4820001 1.432 0.71399999 37 16 0
2.4809999 1.425 0.713 38 16 0
2.4820001 1.419 0.71399999 38 16 0
2.4820001 1.4119999 0.71399999 38 16 0
2.4820001 1.406 0.71399999 39 16 0
2.4860001 1.402 0.71499997 41 16 0
2.4849999 1.395 0.71399999 39 16 0
2.4809999 1.386 0.713 40 16 0
2.483 1.38 0.713 41 16 0
2.4820001 1.372 0.713 40 16 0
2.4890001 1.369 0.71399999 42 16 0
2.487 1.3609999 0.713 42 16 0
2.4860001 1.354 0.71200001 42 16 0
2.487 1.347 0.71200001 41 16 0
2.49 1.342 0.71200001 42 16 0
2.4860001 1.332 0.70999998 42 16 0
2.4890001 1.327 0.70999998 41 16 0
2.4909999 1.321 0.70999998 43 16 0
2.497 1.317 0.71100003 42 16 0
2.4920001 1.307 0.708 41 16 0
2.4960001 1.302 0.708 42 16 0
2.4990001 1.296 0.708 42 16 0
2.4979999 1.288 0.70700002 39 16 0
2.5009999 1.2819999 0.70599997 41 16 0
2.5039999 1.276 0.70599997 41 16 0
2.507 1.27 0.70499998 41 16 0
2.513 1.265 0.70499998 45 16 0
2.513 1.258 0.704 42 16 0
2.5109999 1.249 0.70200002 47 16 0
2.5139999 1.243 0.70099998 41 16 0
2.5179999 1.238 0.70099998 42 16 0
2.5209999 1.2309999 0.69999999 44 16 0
2.5239999 1.225 0.699 41 16 0
2.527 1.219 0.69800001 45 16 0
2.5250001 1.21 0.69599998 43 16 0
2.5339999 1.206 0.69599998 48 16 0
2.5369999 1.2 0.69499999 44 16 0
2.539 1.193 0.69300002 46 16 0
2.5380001 1.1849999 0.69099998 50 16 0
2.5450001 1.1799999 0.69099998 54 16 0
2.549 1.173 0.69 53 16 0
2.546 1.164 0.68699998 51 16 0
2.5550001 1.16 0.68699998 55 16 0
2.559 1.154 0.68599999 54 16 0
2.559 1.146 0.68300003 53 16 0
2.563 1.14 0.68199998 58 16 0
2.569 1.1339999 0.68099999 54 16 0
2.569 1.126 0.67900002 57 16 0
2.573 1.12 0.67699999 56 16 0
2.579 1.114 0.676 57 16 0
2.582 1.107 0.67400002 63 16 0
2.5829999 1.1 0.67199999 71 16 0
2.589 1.094 0.671 61 16 0
2.592 1.087 0.66900003 63 16 0
2.595 1.08 0.667 59 16 0
2.6029999 1.076 0.66600001 61 16 0
2.6070001 1.069 0.66399997 65 16 0
2.6099999 1.062 0.662 63 16 0
2.6159999 1.056 0.66000003 61 16 0
2.6199999 1.049 0.65799999 63 16 0
2.6240001 1.0420001 0.65600002 66 16 0
2.6270001 1.035 0.65399998 64 16 0
2.638 1.0319999 0.653 59 16 0
2.6400001 1.024 0.64999998 41 16 0
2.645 1.018 0.648 41 16 0
2.6489999 1.011 0.64600003 40 16 0
2.6530001 1.0039999 0.64399999 40 16 0
2.6559999 0.99699998 0.64099997 41 16 0
2.661 0.99000001 0.639 40 16 0
2.664 0.98299998 0.63599998 40 16 0
2.6700001 0.977 0.634 40 16 0
2.6789999 0.972 0.63300002 43 16 0
2.6849999 0.96499997 0.63 39 16 0
2.6900001 0.95899999 0.62800002 40 16 0
2.6989999 0.954 0.62599999 41 16 0
2.704 0.94700003 0.62400001 41 16 0
2.71 0.94099998 0.62099999 41 16 0
2.7160001 0.93400002 0.61900002 41 16 0
2.72 0.92699999 0.616 40 16 0
2.7249999 0.921 0.61299998 41 16 0
2.733 0.91500002 0.611 41 16 0
2.7390001 0.90799999 0.60900003 37 16 0
2.744 0.90200001 0.60600001 40 16 0
2.75 0.89499998 0.60299999 41 16 0
2.7590001 0.889 0.60100001 40 16 0
2.767 0.88300002 0.59799999 40 16 0
2.77 0.87599999 0.59500003 40 16 0
2.7780001 0.87 0.59200001 40 16 0
2.7839999 0.86299998 0.58999997 39 16 0
2.7920001 0.85699999 0.58700001 40 16 0
2.796 0.85000002 0.58399999 41 16 0
2.8050001 0.84399998 0.58099997 38 16 0
2.812 0.838 0.57800001 41 16 0
2.8150001 0.82999998 0.574 40 16 0
2.822 0.824 0.57200003 39 16 0
2.8280001 0.81699997 0.56800002 39 16 0
2.8380001 0.81099999 0.56599998 40 16 0
2.849 0.80599999 0.56300002 40 16 0
2.855 0.79900002 0.56 40 16 0
2.862 0.792 0.55699998 40 16 0
2.8710001 0.78600001 0.55400002 39 16 0
2.8800001 0.77999997 0.551 41 16 0
2.885 0.773 0.54699999 39 16 0
2.8929999 0.76700002 0.54400003 38 16 0
2.901 0.75999999 0.54100001 38 16 0
2.9100001 0.75400001 0.537 37 16 0
2.9200001 0.74800003 0.53399998 38 16 0
2.928 0.741 0.53100002 38 16 0
2.9330001 0.73400003 0.52700001 37 16 0
2.941 0.727 0.523 34 16 0
2.954 0.722 0.52100003 35 16 0
2.957 0.71399999 0.51599997 33 16 0
2.97 0.708 0.514 34 16 0
2.983 0.70300001 0.51099998 34 16 0
2.9860001 0.69499999 0.50599998 34 16 0
2.9920001 0.68699998 0.50199997 33 16 0
3.0039999 0.68199998 0.49900001 33 16 0
3.0109999 0.67500001 0.495 33 16 0
3.0179999 0.667 0.49000001 33 16 0
3.0380001 0.66299999 0.48800001 35 16 0
3.0350001 0.65399998 0.48300001 34 16 0
3.05 0.648 0.47999999 35 16 0
3.0580001 0.64099997 0.47600001 35 16 0
3.073 0.63599998 0.472 35 16 0
3.0780001 0.62800002 0.46799999 37 16 0
3.0899999 0.62199998 0.46399999 38 16 0
3.1010001 0.61500001 0.46000001 46 16 0
3.1099999 0.60799998 0.456 74 16 0
3.1140001 0.60000002 0.45100001 126 16 0
3.1170001 0.59200001 0.44600001 150 16 0
3.1210001 0.58399999 0.44100001 150 16 0
3.125 0.57599998 0.435 150 16 0
3.1270001 0.56800002 0.43000001 150 16 0
3.1259999 0.55900002 0.42399999 150 16 0
3.132 0.551 0.419 142 16 0
3.1300001 0.542 0.41299999 140 16 0
3.1359999 0.53399998 0.40799999 141 16 0
3.1340001 0.52600002 0.40200001 146 16 0
3.135 0.51700002 0.39700001 134 16 0
3.1370001 0.509 0.391 139 16 0
3.1400001 0.50099999 0.38600001 150 16 0
3.142 0.49200001 0.38 141 16 0
3.1489999 0.48500001 0.375 143 16 0
3.1459999 0.47600001 0.36899999 141 16 0
3.148 0.46700001 0.36300001 138 16 0
3.155 0.46000001 0.35800001 141 16 0
3.152 0.45100001 0.352 144 16 0
3.1500001 0.442 0.345 135 16 0
3.1559999 0.43399999 0.34 134 16 0
3.1570001 0.426 0.33399999 137 16 0
3.158 0.41800001 0.32800001 141 16 0
3.161 0.41 0.32300001 150 16 0
3.1619999 0.40099999 0.317 150 16 0
3.1689999 0.39399999 0.31099999 126 16 0
3.1659999 0.38499999 0.30500001 132 16 0
3.1670001 0.377 0.29899999 132 16 0
3.1689999 0.368 0.29300001 127 16 0
3.1689999 0.36000001 0.287 132 16 0
3.1719999 0.352 0.28099999 128 16 0
3.178 0.34400001 0.27500001 145 16 0
3.1830001 0.33700001 0.26899999 138 16 0
3.181 0.32800001 0.26300001 150 16 0
3.184 0.31999999 0.257 119 16 0
3.1830001 0.31200001 0.25099999 110 16 0
3.1849999 0.303 0.245 122 16 0
3.1860001 0.29499999 0.23899999 118 16 0
3.187 0.287 0.23199999 150 16 0
3.187 0.27900001 0.226 130 16 0
3.1889999 0.271 0.22 115 16 0
3.191 0.26199999 0.214 109 16 0
3.1919999 0.25400001 0.207 115 16 0
3.1989999 0.24699999 0.20100001 126 16 0
3.194 0.23800001 0.19499999 131 16 0
3.177 0.228 0.18700001 46 16 0
3.132 0.21699999 0.178 28 16 0
3.1819999 0.213 0.175 51 16 0
3.1570001 0.20299999 0.167 26 16 0
3.141 0.19400001 0.16 21 16 0
3.1889999 0.189 0.156 40 18 0
3.207 0.18099999 0.15000001 79 16 0
3.2130001 0.17399999 0.14399999 46 16 0
3.2249999 0.16599999 0.138 33 16 0
3.243 0.15899999 0.132 30 16 0
3.26 0.15099999 0.126 29 16 0
3.27 0.14399999 0.12 29 16 0
3.286 0.13600001 0.114 29 16 0
3.3050001 0.12899999 0.108 31 16 0
3.3180001 0.121 0.101 39 16 0
3.3210001 0.113 0.094999999 65 16 0
3.3199999 0.104 0.088 81 16 0
3.326 0.096000001 0.081 63 16 0
3.3269999 0.088 0.074000001 18 16 0
3.3299999 0.079999998 0.068000004 1 16 0
3.29 0.071000002 0.059999999 0 19 0
3.3099999 0.063000001 0.052999999 4 16 0
3.3310001 0.055 0.046999998 17 16 0
3.3310001 0.046999998 0.039999999 52 16 0
3.335 0.037999999 0.033 56 16 0
3.3399999 0.029999999 0.026000001 56 16 0
3.339 0.022 0.018999999 29 16 0
3.313 0.014 0.012 18 16 0
3.2909999 0.0060000001 0.0049999999 17 16 0
3.27 -0.0020000001 -0.001 16 16 0
3.2520001 -0.0099999998 -0.0080000004 18 16 0
3.2320001 -0.017000001 -0.015 32 16 0
3.234 -0.025 -0.022 101 16 0
3.2360001 -0.033 -0.028999999 104 16 0
3.24 -0.041000001 -0.035999998 121 16 0
3.24 -0.048999999 -0.043000001 130 16 0
3.2420001 -0.057 -0.050000001 150 16 0
3.2420001 -0.064999998 -0.057 145 16 0
3.2390001 -0.072999999 -0.064000003 48 16 0
3.22 -0.079999998 -0.07 27 16 0
3.201 -0.086999997 -0.077 26 16 0
3.1830001 -0.093999997 -0.082999997 26 16 0
3.1619999 -0.101 -0.089000002 26 16 0
3.1400001 -0.108 -0.096000001 25 16 0
3.1300001 -0.115 -0.102 25 16 0
3.1099999 -0.122 -0.108 25 16 0
3.0880001 -0.12899999 -0.114 25 16 0
3.0710001 -0.13500001 -0.12 25 16 0
3.049 -0.141 -0.126 26 16 0
3.0369999 -0.148 -0.132 25 16 0
3.017 -0.154 -0.138 24 16 0
2.9990001 -0.161 -0.14399999 25 16 0
2.9820001 -0.167 -0.15000001 24 16 0
2.9679999 -0.17299999 -0.156 25 16 0
2.9530001 -0.17900001 -0.161 25 16 0
2.938 -0.185 -0.167 25 16 0
2.9130001 -0.19 -0.17200001 25 16 0
2.905 -0.197 -0.178 26 16 0
2.888 -0.20200001 -0.184 25 16 0
2.8729999 -0.208 -0.189 25 16 0
2.855 -0.214 -0.19499999 25 16 0
2.842 -0.219 -0.2 25 16 0
2.829 -0.22499999 -0.206 25 16 0
2.8139999 -0.23 -0.211 26 16 0
2.7969999 -0.235 -0.21600001 26 16 0
2.783 -0.241 -0.221 26 16 0
2.7709999 -0.24600001 -0.227 25 16 0
2.757 -0.25099999 -0.23199999 26 16 0
2.7409999 -0.25600001 -0.237 26 16 0
2.733 -0.26199999 -0.242 27 16 0
2.723 -0.26699999 -0.248 25 16 0
2.7119999 -0.27200001 -0.25299999 25 16 0
2.6949999 -0.27700001 -0.25799999 26 16 0
2.684 -0.28200001 -0.26300001 28 16 0
2.671 -0.28600001 -0.26800001 26 16 0
2.664 -0.292 -0.273 27 16 0
2.648 -0.296 -0.278 28 16 0
2.6329999 -0.301 -0.28299999 28 16 0
2.618 -0.30500001 -0.287 28 16 0
2.612 -0.31 -0.29300001 27 16 0
2.5940001 -0.31400001 -0.29699999 28 16 0
2.5840001 -0.31900001 -0.30199999 28 16 0
2.573 -0.32300001 -0.30700001 26 16 0
2.562 -0.32699999 -0.31099999 27 16 0
2.543 -0.331 -0.315 28 16 0
2.536 -0.336 -0.32100001 28 16 0
2.529 -0.34099999 -0.32600001 28 16 0
2.516 -0.34400001 -0.33000001 27 16 0
2.4990001 -0.34799999 -0.33399999 27 16 0
2.4920001 -0.352 -0.33899999 28 16 0
2.4860001 -0.35699999 -0.34400001 29 16 0
2.47 -0.36000001 -0.34799999 27 16 0
2.4660001 -0.36500001 -0.354 28 16 0
2.451 -0.36899999 -0.35699999 28 16 0
2.4430001 -0.373 -0.36199999 28 16 0
2.4349999 -0.377 -0.36700001 29 16 0
2.428 -0.38100001 -0.37200001 27 16 0
2.4130001 -0.384 -0.37599999 29 16 0
2.405 -0.38800001 -0.38 29 16 0
2.3929999 -0.39199999 -0.384 27 16 0
2.381 -0.39500001 -0.38800001 27 16 0
2.3710001 -0.39899999 -0.39300001 27 16 0
2.362 -0.40200001 -0.39700001 28 16 0
2.349 -0.405 -0.40099999 24 16 0
2.3429999 -0.40900001 -0.40599999 35 16 0
2.335 -0.41299999 -0.41 38 16 0
2.3199999 -0.41499999 -0.414 38 16 0
2.3099999 -0.419 -0.41800001 35 16 0
2.3039999 -0.42199999 -0.42199999 41 16 0
2.296 -0.426 -0.42699999 33 16 0
2.283 -0.428 -0.43000001 35 16 0
2.2750001 -0.43200001 -0.435 43 16 0
2.27 -0.43599999 -0.43900001 40 16 0
2.256 -0.43799999 -0.44299999 36 16 0
2.2490001 -0.44100001 -0.447 46 16 0
2.2420001 -0.44499999 -0.45199999 45 16 0
2.233 -0.44800001 -0.45500001 45 16 0
2.227 -0.45100001 -0.46000001 44 16 0
2.2160001 -0.454 -0.46399999 40 16 0
2.2079999 -0.45699999 -0.46799999 51 16 0
2.2030001 -0.46000001 -0.472 55 16 0
2.194 -0.463 -0.47600001 57 16 0
2.181 -0.465 -0.479 54 16 0
2.175 -0.46799999 -0.484 63 16 0
2.1689999 -0.47099999 -0.48800001 62 16 0
2.161 -0.47400001 -0.49200001 63 16 0
2.152 -0.477 -0.49599999 66 16 0
2.1459999 -0.47999999 -0.5 65 16 0
2.138 -0.48300001 -0.50400001 69 16 0
2.1229999 -0.48300001 -0.50599998 71 16 0
