# .PCD v0.7 - Point Cloud Data file format
VERSION 0.7
FIELDS x y z intensity tag line
SIZE 4 4 4 4 1 1
TYPE F F F F U U
COUNT 1 1 1 1 1 1
WIDTH 1357
HEIGHT 1
VIEWPOINT 0 0 0 1 0 0 0
POINTS 1357
DATA ascii
2.3659999 0.56999999 -1.4809999 150 16 0
2.3710001 0.57300001 -1.479 150 16 0
2.3699999 0.574 -1.473 150 16 0
2.372 0.57499999 -1.469 150 16 0
2.3740001 0.57700002 -1.465 150 16 0
2.3699999 0.57700002 -1.457 150 16 0
2.375 0.579 -1.454 150 16 0
2.378 0.58099997 -1.451 150 16 0
2.3770001 0.58200002 -1.4450001 150 16 0
2.3800001 0.583 -1.441 150 16 0
2.3840001 0.58499998 -1.437 150 16 0
2.381 0.58499998 -1.4299999 150 16 0
2.3829999 0.58600003 -1.425 150 16 0
2.3859999 0.588 -1.421 150 16 0
2.388 0.58899999 -1.416 150 16 0
2.392 0.58999997 -1.4119999 150 16 0
2.392 0.59100002 -1.406 150 16 0
2.392 0.59100002 -1.399 150 16 0
2.3970001 0.59299999 -1.396 150 16 0
2.3970001 0.59299999 -1.39 150 16 0
2.3989999 0.59399998 -1.385 150 16 0
2.402 0.59399998 -1.38 150 16 0
2.405 0.59500003 -1.375 150 16 0
2.4070001 0.59600002 -1.369 150 16 0
2.4100001 0.597 -1.364 150 16 0
2.4130001 0.597 -1.359 150 16 0
2.4130001 0.597 -1.352 150 16 0
2.4170001 0.59799999 -1.348 150 16 0
2.4200001 0.59799999 -1.342 150 16 0
2.4189999 0.59799999 -1.335 150 16 0
2.4219999 0.59799999 -1.33 150 16 0
2.428 0.59899998 -1.325 150 16 0
2.428 0.59899998 -1.318 150 16 0
2.431 0.59899998 -1.313 150 16 0
2.437 0.60000002 -1.309 150 16 0
2.4400001 0.60000002 -1.303 150 16 0
2.4389999 0.59899998 -1.295 150 16 0
2.4419999 0.59899998 -1.29 150 16 0
2.4449999 0.59899998 -1.284 150 16 0
2.4489999 0.59899998 -1.278 150 16 0
2.451 0.59899998 -1.272 150 16 0
2.4549999 0.59899998 -1.266 150 16 0
2.4579999 0.59799999 -1.26 150 16 0
2.4590001 0.59799999 -1.253 150 16 0
2.4630001 0.59799999 -1.248 150 16 0
2.4630001 0.59600002 -1.24 150 16 0
2.47 0.597 -1.2359999 150 16 0
2.473 0.59600002 -1.229 150 16 0
2.477 0.59600002 -1.224 150 16 0
2.4790001 0.59500003 -1.217 150 16 0
2.4790001 0.59399998 -1.209 150 16 0
2.4809999 0.59299999 -1.202 150 16 0
2.4879999 0.59299999 -1.198 150 16 0
2.4879999 0.59100002 -1.189 150 16 0
2.493 0.59100002 -1.184 150 16 0
2.4979999 0.58999997 -1.178 150 16 0
2.4979999 0.588 -1.17 150 16 0
2.5 0.58700001 -1.163 150 16 0
2.507 0.58700001 -1.158 150 16 0
2.5079999 0.58600003 -1.151 150 16 0
2.5150001 0.58499998 -1.146 150 16 0
2.516 0.58399999 -1.138 150 16 0
2.5220001 0.583 -1.133 150 16 0
2.5220001 0.58099997 -1.125 150 16 0
2.5250001 0.57999998 -1.118 150 16 0
2.5309999 0.579 -1.113 150 16 0
2.536 0.57800001 -1.1059999 150 16 0
2.5380001 0.57599998 -1.099 150 16 0
2.5420001 0.57499999 -1.0930001 150 16 0
2.5450001 0.57300001 -1.086 150 16 0
2.5480001 0.57200003 -1.079 150 16 0
2.5510001 0.56999999 -1.072 150 16 0
2.559 0.56900001 -1.067 150 16 0
2.5599999 0.56699997 -1.059 150 16 0
2.5639999 0.565 -1.052 150 16 0
2.573 0.565 -1.048 150 16 0
2.576 0.56300002 -1.041 150 16 0
2.582 0.56099999 -1.035 150 16 0
2.5829999 0.55900002 -1.027 150 16 0
2.5940001 0.55900002 -1.023 67 16 0
2.5880001 0.55500001 -1.012 4 16 0
2.523 0.53799999 -0.97899997 0 17 0
2.4300001 0.51599997 -0.935 0 18 0
2.467 0.52100003 -0.94099998 0 16 0
2.5769999 0.54100001 -0.97500002 0 18 0
0 0 0 0 16 0
2.5439999 0.52899998 -0.94599998 0 16 0
0 0 0 0 16 0
2.7249999 0.56 -0.99599999 0 16 0
2.648 0.54100001 -0.95899999 0 16 0
2.5739999 0.523 -0.92400002 0 16 0
2.654 0.53600001 -0.94400001 2 16 0
2.6500001 0.53200001 -0.93400002 32 16 0
2.6440001 0.528 -0.92400002 150 16 0
2.6470001 0.52499998 -0.91600001 150 16 0
2.6500001 0.52200001 -0.90899998 150 16 0
2.6600001 0.52100003 -0.90399998 150 16 0
2.6589999 0.51700002 -0.89499998 150 16 0
2.6659999 0.51499999 -0.889 150 16 0
2.6719999 0.51300001 -0.88300002 150 16 0
2.675 0.50999999 -0.875 150 16 0
2.678 0.50700003 -0.86799997 150 16 0
2.681 0.50400001 -0.86000001 150 16 0
2.684 0.50099999 -0.85299999 150 16 0
2.6919999 0.49900001 -0.847 150 16 0
2.6960001 0.49599999 -0.83999997 150 16 0
2.701 0.49399999 -0.833 150 16 0
2.704 0.491 -0.82499999 150 16 0
2.7090001 0.48800001 -0.81800002 150 16 0
2.7130001 0.48500001 -0.81099999 150 16 0
2.714 0.48100001 -0.80299997 150 16 0
2.7309999 0.48100001 -0.80000001 150 16 0
2.724 0.47499999 -0.78899997 150 16 0
2.734 0.47299999 -0.78299999 150 16 0
2.74 0.47 -0.77700001 150 16 0
2.744 0.46700001 -0.76999998 150 16 0
2.7539999 0.465 -0.764 150 16 0
2.757 0.461 -0.75599998 150 16 0
2.7620001 0.458 -0.74900001 150 16 0
2.7650001 0.45500001 -0.741 150 16 0
2.7690001 0.45199999 -0.73400003 150 16 0
2.7720001 0.44800001 -0.72600001 150 16 0
2.776 0.44499999 -0.71899998 150 16 0
2.7820001 0.44100001 -0.71200001 150 16 0
2.7909999 0.43900001 -0.70599997 150 16 0
2.796 0.435 -0.699 150 16 0
2.8 0.43200001 -0.69099998 150 16 0
2.8069999 0.42899999 -0.685 150 16 0
2.813 0.42500001 -0.67799997 150 16 0
2.813 0.421 -0.66900003 150 16 0
2.823 0.41800001 -0.66299999 150 16 0
2.8210001 0.41299999 -0.65399998 150 16 0
2.832 0.41100001 -0.648 150 16 0
2.8380001 0.40700001 -0.64099997 150 16 0
2.839 0.403 -0.63300002 150 16 0
2.846 0.39899999 -0.62599999 150 16 0
2.849 0.39500001 -0.61799997 150 16 0
2.8570001 0.39199999 -0.611 150 16 0
2.865 0.38800001 -0.60500002 150 16 0
2.8670001 0.384 -0.597 150 16 0
2.8710001 0.38 -0.58899999 150 16 0
2.8729999 0.37599999 -0.58099997 150 16 0
2.882 0.37200001 -0.574 150 16 0
2.8840001 0.368 -0.56599998 150 16 0
2.898 0.36500001 -0.56099999 150 16 0
2.9000001 0.361 -0.55299997 150 16 0
2.905 0.35699999 -0.54500002 150 16 0
2.914 0.35299999 -0.53799999 150 16 0
2.9159999 0.34799999 -0.52999997 150 16 0
2.918 0.34400001 -0.52200001 150 16 0
2.9330001 0.34099999 -0.51700002 150 16 0
2.938 0.336 -0.509 150 16 0
2.941 0.33199999 -0.50099999 150 16 0
2.951 0.32800001 -0.49399999 150 16 0
2.9549999 0.324 -0.48699999 150 16 0
2.957 0.31900001 -0.47799999 150 16 0
2.9660001 0.315 -0.47099999 150 16 0
2.97 0.31 -0.46399999 150 16 0
2.974 0.30599999 -0.456 150 16 0
2.9820001 0.30199999 -0.44800001 150 16 0
2.9890001 0.29699999 -0.44100001 150 16 0
2.994 0.29300001 -0.433 150 16 0
2.997 0.28799999 -0.42500001 150 16 0
3.0039999 0.28299999 -0.41800001 150 16 0
3.0039999 0.278 -0.40900001 150 16 0
3.0120001 0.27399999 -0.40200001 150 16 0
3.0220001 0.26899999 -0.39500001 150 16 0
3.023 0.264 -0.38699999 150 16 0
3.0309999 0.25999999 -0.37900001 150 16 0
3.0339999 0.255 -0.37099999 150 16 0
3.0409999 0.25 -0.36300001 150 16 0
3.049 0.245 -0.35600001 150 16 0
3.0550001 0.23999999 -0.34799999 150 16 0
3.062 0.235 -0.34099999 150 16 0
3.0639999 0.23 -0.33199999 150 16 0
3.0739999 0.226 -0.32499999 150 16 0
3.079 0.22 -0.317 150 16 0
3.0840001 0.215 -0.30899999 150 16 0
3.0929999 0.20999999 -0.30199999 150 16 0
3.098 0.205 -0.294 150 16 0
3.1110001 0.20100001 -0.28600001 150 16 0
3.1129999 0.19499999 -0.278 150 16 0
3.119 0.19 -0.27000001 150 16 0
3.1259999 0.185 -0.26199999 150 16 0
3.1289999 0.17900001 -0.25400001 150 16 0
3.1359999 0.17399999 -0.24600001 150 16 0
3.1440001 0.169 -0.23800001 150 16 0
3.154 0.164 -0.23 150 16 0
3.1600001 0.15800001 -0.222 150 16 0
3.1670001 0.153 -0.214 150 16 0
3.171 0.147 -0.206 150 16 0
3.177 0.141 -0.198 141 16 0
3.184 0.13600001 -0.19 150 16 0
3.1919999 0.13 -0.182 142 16 0
3.1919999 0.125 -0.17299999 125 16 0
3.204 0.119 -0.16500001 142 16 0
3.217 0.113 -0.15700001 150 16 0
3.221 0.108 -0.149 134 16 0
3.2260001 0.102 -0.141 144 16 0
3.2349999 0.096000001 -0.133 131 16 0
3.2390001 0.090000004 -0.124 132 16 0
3.247 0.083999999 -0.116 136 16 0
3.256 0.078000002 -0.108 131 16 0
3.2609999 0.071999997 -0.098999999 121 16 0
3.2709999 0.066 -0.090999998 110 16 0
3.277 0.059999999 -0.082000002 53 16 0
3.277 0.054000001 -0.074000001 54 16 0
3.2820001 0.048 -0.064999998 115 16 0
3.293 0.041999999 -0.057 109 16 0
3.2980001 0.035999998 -0.048 93 16 0
3.3110001 0.028999999 -0.039999999 51 16 0
3.3150001 0.023 -0.030999999 27 16 0
3.299 0.017000001 -0.023 21 16 0
3.2909999 0.0099999998 -0.014 20 16 0
3.2820001 0.0040000002 -0.0049999999 20 16 0
3.2639999 -0.0020000001 0.0020000001 19 16 0
3.2539999 -0.0080000004 0.011 24 16 0
3.2539999 -0.014 0.018999999 45 16 0
3.2590001 -0.021 0.028000001 150 16 0
3.27 -0.027000001 0.035999998 150 16 0
3.2750001 -0.033 0.044 150 16 0
3.2809999 -0.039999999 0.052999999 150 16 0
3.2920001 -0.046999998 0.061999999 150 16 0
3.2969999 -0.052999999 0.07 150 16 0
3.3069999 -0.059999999 0.079000004 150 16 0
3.3050001 -0.066 0.086999997 87 16 0
3.2969999 -0.072999999 0.096000001 33 16 0
3.286 -0.079000004 0.104 30 16 0
3.273 -0.085000001 0.112 30 16 0
3.2650001 -0.092 0.12 30 16 0
3.2550001 -0.097999997 0.12800001 31 16 0
3.24 -0.104 0.13500001 31 16 0
3.2309999 -0.11 0.14300001 31 16 0
3.221 -0.116 0.15099999 31 16 0
3.2149999 -0.123 0.15899999 31 16 0
3.204 -0.12899999 0.16599999 29 16 0
3.1949999 -0.13500001 0.17399999 30 16 0
3.1819999 -0.141 0.18099999 30 16 0
3.171 -0.147 0.189 29 16 0
3.161 -0.153 0.19599999 30 16 0
3.1500001 -0.15899999 0.20299999 29 16 0
3.1370001 -0.16500001 0.20999999 29 16 0
3.1259999 -0.171 0.21699999 28 16 0
3.1170001 -0.177 0.22499999 28 16 0
3.1059999 -0.182 0.23199999 28 16 0
3.095 -0.18799999 0.23899999 30 16 0
3.086 -0.19400001 0.245 30 16 0
3.0739999 -0.2 0.252 30 16 0
3.0639999 -0.206 0.259 29 16 0
3.0569999 -0.212 0.266 29 16 0
3.04 -0.21699999 0.27200001 30 16 0
3.0309999 -0.223 0.27900001 30 16 0
3.0250001 -0.229 0.28600001 30 16 0
3.0139999 -0.234 0.292 31 16 0
3.0009999 -0.23899999 0.29800001 32 16 0
2.984 -0.244 0.30399999 30 16 0
2.9760001 -0.25 0.31099999 30 16 0
2.973 -0.25600001 0.31799999 29 16 0
2.961 -0.26199999 0.324 30 16 0
2.95 -0.26699999 0.33000001 30 16 0
2.9449999 -0.273 0.33700001 30 16 0
2.9289999 -0.278 0.34200001 30 16 0
2.9189999 -0.28299999 0.34799999 30 16 0
2.914 -0.289 0.354 30 16 0
2.904 -0.29499999 0.36000001 31 16 0
2.892 -0.30000001 0.366 32 16 0
2.8800001 -0.30500001 0.37099999 31 16 0
2.8670001 -0.31 0.377 31 16 0
2.8610001 -0.315 0.38299999 32 16 0
2.8540001 -0.32100001 0.389 32 16 0
2.8429999 -0.32600001 0.39399999 31 16 0
2.832 -0.331 0.40000001 32 16 0
2.822 -0.336 0.405 31 16 0
2.816 -0.34200001 0.41100001 32 16 0
2.8050001 -0.347 0.41600001 33 16 0
2.7950001 -0.352 0.42199999 31 16 0
2.789 -0.35800001 0.42699999 32 16 0
2.776 -0.36199999 0.43200001 32 16 0
2.766 -0.36700001 0.43700001 32 16 0
2.7590001 -0.373 0.44299999 33 16 0
2.7520001 -0.37799999 0.44800001 33 16 0
2.7390001 -0.382 0.45300001 32 16 0
2.7320001 -0.38800001 0.458 34 16 0
2.7219999 -0.39300001 0.463 35 16 0
2.7130001 -0.398 0.46799999 35 16 0
2.7049999 -0.403 0.47299999 35 16 0
2.694 -0.40700001 0.477 35 16 0
2.688 -0.41299999 0.48300001 36 16 0
2.677 -0.417 0.48699999 34 16 0
2.6730001 -0.42300001 0.49200001 34 16 0
2.661 -0.42699999 0.49599999 36 16 0
2.6500001 -0.43200001 0.50099999 45 16 0
2.6470001 -0.43799999 0.50599998 51 16 0
2.6400001 -0.44299999 0.51099998 47 16 0
2.6270001 -0.447 0.51499999 46 16 0
2.619 -0.45199999 0.51999998 51 16 0
2.6110001 -0.45699999 0.52399999 54 16 0
2.609 -0.463 0.52999997 53 16 0
2.5940001 -0.46700001 0.53299999 50 16 0
2.582 -0.47099999 0.53600001 52 16 0
2.573 -0.47499999 0.54000002 46 16 0
2.5669999 -0.47999999 0.54500002 51 16 0
2.556 -0.484 0.54799998 48 16 0
2.553 -0.49000001 0.55400002 58 16 0
2.54 -0.49399999 0.55699998 66 16 0
2.5339999 -0.49900001 0.56099999 60 16 0
2.5220001 -0.50300002 0.56400001 61 16 0
2.513 -0.50800002 0.56800002 59 16 0
2.5079999 -0.51300001 0.57300001 56 16 0
2.4949999 -0.51599997 0.57499999 62 16 0
2.4879999 -0.52100003 0.579 55 16 0
2.484 -0.52600002 0.58399999 66 16 0
2.47 -0.52999997 0.58600003 67 16 0
2.4649999 -0.53500003 0.59100002 70 16 0
2.45 -0.53799999 0.59299999 76 16 0
2.4419999 -0.542 0.59600002 67 16 0
2.4360001 -0.54699999 0.60000002 62 16 0
2.4289999 -0.55199999 0.60399997 63 16 0
2.425 -0.55699998 0.60799998 73 16 0
2.4100001 -0.56 0.61000001 70 16 0
2.402 -0.56400001 0.61299998 73 16 0
2.398 -0.56999999 0.61699998 67 16 0
2.385 -0.57300001 0.61900002 77 16 0
2.382 -0.57800001 0.62400001 79 16 0
2.369 -0.58099997 0.625 75 16 0
2.362 -0.58600003 0.62900001 83 16 0
2.352 -0.58999997 0.63099998 73 16 0
2.348 -0.59500003 0.63499999 78 16 0
2.3410001 -0.59899998 0.63800001 85 16 0
2.332 -0.60299999 0.64099997 74 16 0
2.3239999 -0.60699999 0.64300001 84 16 0
2.3199999 -0.61199999 0.64700001 87 16 0
2.309 -0.616 0.64899999 74 16 0
2.3 -0.61900002 0.65100002 83 16 0
2.29 -0.62300003 0.653 82 16 0
2.283 -0.62699997 0.65600002 82 16 0
2.2750001 -0.63099998 0.65899998 78 16 0
2.2679999 -0.63499999 0.66100001 127 16 0
2.2620001 -0.63999999 0.66399997 119 16 0
2.2520001 -0.64300001 0.66600001 126 16 0
2.2420001 -0.64600003 0.66799998 123 16 0
2.234 -0.64999998 0.67000002 128 16 0
2.2279999 -0.65399998 0.67199999 128 16 0
2.221 -0.65799999 0.67500001 134 16 0
2.2079999 -0.66100001 0.67500001 103 16 0
2.198 -0.66399997 0.676 110 16 0
2.1960001 -0.66900003 0.68000001 111 16 0
2.1889999 -0.67299998 0.68199998 120 16 0
2.1800001 -0.676 0.68400002 130 16 0
2.174 -0.68099999 0.68599999 134 16 0
2.1619999 -0.68300003 0.68699998 115 16 0
2.1589999 -0.68800002 0.69 127 16 0
2.1470001 -0.69 0.69 121 16 0
2.1359999 -0.69300002 0.69099998 123 16 0
2.1289999 -0.69599998 0.69199997 125 16 0
2.1240001 -0.70099998 0.69499999 125 16 0
2.119 -0.70499998 0.69700003 126 16 0
2.109 -0.708 0.69800001 133 16 0
2.1029999 -0.71100003 0.699 128 16 0
2.095 -0.71499997 0.69999999 121 16 0
2.0829999 -0.71600002 0.69999999 121 16 0
2.0799999 -0.722 0.70300001 128 16 0
2.072 -0.72500002 0.704 131 16 0
2.063 -0.727 0.70499998 137 16 0
2.0550001 -0.73000002 0.70499998 132 16 0
2.0510001 -0.73500001 0.70700002 136 16 0
2.0409999 -0.73699999 0.70700002 137 16 0
2.0339999 -0.74000001 0.708 130 16 0
2.0309999 -0.745 0.71100003 125 16 0
2.02 -0.74699998 0.71100003 143 16 0
2.0179999 -0.75199997 0.713 136 16 0
2.007 -0.75400001 0.71200001 133 16 0
2.0039999 -0.75800002 0.71399999 132 16 0
1.994 -0.75999999 0.71399999 137 16 0
1.989 -0.764 0.71499997 137 16 0
1.98 -0.76599997 0.71499997 149 16 0
1.969 -0.76700002 0.71399999 132 16 0
1.9579999 -0.76899999 0.713 144 16 0
1.952 -0.77200001 0.71399999 139 16 0
1.949 -0.77600002 0.71600002 145 16 0
1.943 -0.77999997 0.71700001 137 16 0
1.939 -0.78399998 0.71799999 137 16 0
1.929 -0.78500003 0.71700001 150 16 0
1.926 -0.78899997 0.71799999 150 16 0
1.9170001 -0.79100001 0.71799999 150 16 0
1.905 -0.79100001 0.71600002 150 16 0
1.902 -0.796 0.71700001 150 16 0
1.9 -0.80000001 0.71899998 150 16 0
1.895 -0.80400002 0.71899998 150 16 0
1.885 -0.80500001 0.71799999 150 16 0
1.876 -0.80599999 0.71700001 150 16 0
1.875 -0.81099999 0.71899998 150 16 0
1.868 -0.81300002 0.71799999 150 16 0
1.863 -0.81599998 0.71799999 150 16 0
1.8559999 -0.81800002 0.71799999 150 16 0
1.853 -0.82200003 0.71899998 150 16 0
1.845 -0.824 0.71799999 150 16 0
1.831 -0.82300001 0.71399999 150 16 0
1.83 -0.82800001 0.71600002 150 16 0
1.824 -0.82999998 0.71499997 150 16 0
1.817 -0.83200002 0.71399999 150 16 0
1.8099999 -0.833 0.713 150 16 0
1.807 -0.83700001 0.71399999 150 16 0
1.8 -0.838 0.71200001 150 16 0
1.795 -0.84100002 0.71200001 150 16 0
1.7920001 -0.84500003 0.71200001 150 16 0
1.786 -0.847 0.71200001 150 16 0
1.78 -0.84899998 0.71100003 150 16 0
1.771 -0.84899998 0.708 150 16 0
1.7690001 -0.85299999 0.70899999 150 16 0
1.766 -0.85600001 0.70899999 150 16 0
1.757 -0.85600001 0.70599997 150 16 0
1.752 -0.85799998 0.70499998 150 16 0
1.747 -0.86000001 0.70499998 150 16 0
1.7460001 -0.86400002 0.70499998 150 16 0
1.738 -0.86400002 0.70300001 150 16 0
1.723 -0.86199999 0.69800001 150 16 0
1.722 -0.86500001 0.69800001 150 16 0
1.717 -0.86699998 0.69700003 150 16 0
1.714 -0.87 0.69599998 150 16 0
1.711 -0.87199998 0.69599998 150 16 0
1.709 -0.875 0.69599998 150 16 0
1.704 -0.87699997 0.69400001 150 16 0
1.702 -0.88 0.69400001 150 16 0
1.693 -0.87900001 0.69099998 150 16 0
1.6900001 -0.88200003 0.69 150 16 0
1.687 -0.884 0.68900001 150 16 0
1.686 -0.88700002 0.68800002 150 16 0
1.6799999 -0.88800001 0.68599999 150 16 0
1.678 -0.88999999 0.685 150 16 0
1.67 -0.88999999 0.68199998 150 16 0
1.6670001 -0.89200002 0.68099999 150 16 0
1.664 -0.89399999 0.68000001 150 16 0
1.655 -0.89200002 0.676 150 19 0
1.654 -0.89499998 0.67500001 150 16 0
1.65 -0.89600003 0.67400002 150 16 0
1.649 -0.89899999 0.67299998 150 16 0
1.645 -0.89999998 0.671 150 16 0
1.6390001 -0.89999998 0.66799998 150 16 0
1.638 -0.903 0.66799998 150 16 0
1.635 -0.90399998 0.66600001 150 16 0
1.6339999 -0.90600002 0.66500002 150 16 0
1.631 -0.90799999 0.66299999 150 16 0
1.6210001 -0.90499997 0.65799999 150 18 0
1.6210001 -0.90700001 0.65700001 150 16 0
1.618 -0.90899998 0.65600002 150 16 0
1.609 -0.90600002 0.65100002 150 19 0
1.608 -0.90899998 0.64999998 150 16 0
1.605 -0.90899998 0.648 150 16 0
1.605 -0.91100001 0.64600003 150 16 0
1.6 -0.91100001 0.64300001 150 16 0
1.598 -0.912 0.64099997 150 16 0
1.596 -0.91399997 0.63999999 150 16 0
1.596 -0.91500002 0.63800001 150 16 0
1.594 -0.917 0.63700002 150 16 0
1.592 -0.91799998 0.634 150 16 0
1.591 -0.91900003 0.63300002 150 16 0
1.586 -0.91799998 0.62900001 150 19 0
1.585 -0.91900003 0.62699997 150 16 0
1.584 -0.92000002 0.62599999 150 16 0
1.584 -0.92199999 0.62400001 150 16 0
1.582 -0.92199999 0.62199998 150 16 0
1.577 -0.921 0.61799997 150 16 0
1.573 -0.92000002 0.61500001 150 16 0
1.575 -0.92299998 0.61400002 150 16 0
1.576 -0.92500001 0.61199999 150 16 0
1.571 -0.92299998 0.60799998 150 16 0
1.567 -0.92199999 0.60500002 150 16 0
1.566 -0.92199999 0.60299999 150 16 0
1.567 -0.92400002 0.60100001 150 16 0
1.567 -0.92400002 0.59899998 150 16 0
1.564 -0.92400002 0.59600002 150 16 0
1.5599999 -0.92199999 0.59200001 150 16 0
1.561 -0.92299998 0.58999997 150 16 0
1.561 -0.92400002 0.588 84 0 0
1.562 -0.92500001 0.58600003 150 16 0
1.562 -0.926 0.58399999 77 0 0
1.562 -0.926 0.58200002 71 0 0
1.561 -0.926 0.579 78 0 0
1.559 -0.92500001 0.57599998 68 0 0
1.558 -0.92500001 0.57300001 80 0 0
1.559 -0.926 0.57099998 79 0 0
1.5599999 -0.926 0.56900001 69 0 0
1.561 -0.926 0.56599998 77 0 0
1.561 -0.926 0.56300002 95 0 0
1.557 -0.92400002 0.56 79 0 0
1.553 -0.921 0.55599999 57 0 0
1.5599999 -0.92500001 0.55599999 71 0 0
1.55 -0.91799998 0.54900002 70 0 0
1.551 -0.91900003 0.54699999 69 0 0
1.551 -0.91900003 0.54400003 71 0 0
1.552 -0.91799998 0.542 70 0 0
1.553 -0.91799998 0.53899997 94 0 0
1.554 -0.91799998 0.537 74 0 0
1.554 -0.917 0.53399998 73 0 0
1.5549999 -0.917 0.53100002 85 0 0
1.554 -0.91500002 0.528 70 0 0
1.556 -0.91500002 0.52499998 67 0 0
1.559 -0.91600001 0.523 76 0 0
1.557 -0.91399997 0.51999998 71 0 0
1.5599999 -0.91399997 0.51800001 72 0 0
1.5599999 -0.91299999 0.51499999 65 0 0
1.5599999 -0.912 0.51200002 80 0 0
1.562 -0.91100001 0.509 65 0 0
1.564 -0.91100001 0.50700003 81 0 0
1.563 -0.90799999 0.50300002 73 0 0
1.564 -0.90799999 0.5 65 0 0
1.567 -0.90799999 0.498 72 0 0
1.567 -0.90600002 0.495 4 0 0
1.567 -0.90399998 0.491 3 0 0
1.5700001 -0.90399998 0.48899999 66 0 0
1.571 -0.903 0.486 74 0 0
1.575 -0.90200001 0.484 71 0 0
1.5779999 -0.90200001 0.48199999 71 0 0
1.576 -0.89899999 0.47799999 2 0 0
1.5779999 -0.898 0.47499999 2 0 0
1.579 -0.89600003 0.472 2 0 0
1.579 -0.89399999 0.46900001 65 0 0
1.5829999 -0.89300001 0.46700001 69 0 0
1.584 -0.89200002 0.46399999 78 0 0
1.589 -0.89200002 0.461 55 0 0
1.589 -0.889 0.458 50 0 0
1.589 -0.88700002 0.45500001 55 0 0
1.597 -0.889 0.454 53 0 0
1.598 -0.88599998 0.45100001 59 0 0
1.597 -0.88300002 0.447 46 0 0
1.6 -0.88200003 0.44400001 50 0 0
1.602 -0.88 0.44100001 49 0 0
1.6059999 -0.87900001 0.43900001 45 0 0
1.608 -0.87699997 0.43599999 51 0 0
1.608 -0.87400001 0.433 47 0 0
1.612 -0.87300003 0.43000001 50 0 0
1.614 -0.87099999 0.42699999 53 0 0
1.6160001 -0.86900002 0.42399999 45 0 0
1.618 -0.86699998 0.421 43 0 0
1.624 -0.86699998 0.41999999 44 0 0
1.6210001 -0.861 0.41499999 42 0 0
1.6289999 -0.86199999 0.414 37 0 0
1.638 -0.86400002 0.41299999 48 0 0
1.633 -0.85699999 0.40799999 39 0 0
1.635 -0.85500002 0.405 43 0 0
1.645 -0.85600001 0.40400001 43 0 0
1.648 -0.85399997 0.40099999 45 0 0
1.653 -0.85299999 0.39899999 2 0 0
1.6569999 -0.85100001 0.396 53 0 0
1.659 -0.84799999 0.39300001 45 0 0
1.6670001 -0.84899998 0.39199999 2 0 0
1.671 -0.847 0.389 3 0 0
1.673 -0.84399998 0.38600001 2 0 0
1.675 -0.84100002 0.38299999 2 0 0
1.679 -0.83899999 0.38 1 0 0
1.6799999 -0.83499998 0.377 2 0 0
1.684 -0.833 0.37400001 150 16 0
1.688 -0.83099997 0.37200001 2 0 0
1.694 -0.82999998 0.37 147 16 0
1.699 -0.82800001 0.36700001 1 0 0
1.7029999 -0.82499999 0.36500001 143 16 0
1.706 -0.82300001 0.36199999 146 16 0
1.71 -0.81999999 0.359 144 16 0
1.717 -0.81900001 0.35699999 150 16 0
1.719 -0.815 0.354 146 16 0
1.724 -0.81300002 0.352 144 16 0
1.728 -0.81099999 0.34900001 150 16 0
1.73 -0.80699998 0.34599999 143 16 0
1.733 -0.80400002 0.34299999 144 16 0
1.739 -0.80199999 0.34099999 120 16 0
1.742 -0.79900002 0.338 131 16 0
1.749 -0.79699999 0.336 125 16 0
1.751 -0.79299998 0.333 124 16 0
1.758 -0.792 0.331 124 16 0
1.765 -0.79000002 0.329 120 16 0
1.767 -0.78600001 0.32600001 121 16 0
1.78 -0.787 0.32499999 116 16 0
1.7819999 -0.78299999 0.322 111 16 0
1.789 -0.78100002 0.31999999 123 16 0
1.794 -0.778 0.31799999 120 16 0
1.794 -0.773 0.31400001 119 16 0
1.799 -0.76999998 0.31200001 125 16 0
1.807 -0.76800001 0.31 122 16 0
1.813 -0.76599997 0.308 119 16 0
1.817 -0.76200002 0.30500001 116 16 0
1.825 -0.75999999 0.303 107 16 0
1.83 -0.75700003 0.30000001 114 16 0
1.839 -0.755 0.29800001 114 16 0
1.842 -0.75099999 0.296 125 16 0
1.851 -0.75 0.294 113 16 0
1.855 -0.74599999 0.29100001 114 16 0
1.858 -0.74199998 0.28799999 115 16 0
1.8660001 -0.73900002 0.28600001 114 16 0
1.872 -0.736 0.28400001 112 16 0
1.874 -0.73199999 0.28099999 100 16 0
1.88 -0.72799999 0.27900001 110 16 0
1.885 -0.72500002 0.27599999 108 16 0
1.89 -0.72100002 0.27399999 103 16 0
1.906 -0.722 0.273 107 16 0
1.9119999 -0.71799999 0.27000001 109 16 0
1.92 -0.71499997 0.26800001 123 16 0
1.925 -0.71200001 0.266 85 16 0
1.934 -0.70899999 0.264 93 16 0
1.9400001 -0.70499998 0.26199999 86 16 0
1.942 -0.69999999 0.259 87 16 0
1.951 -0.69800001 0.257 83 16 0
1.957 -0.69400001 0.25400001 87 16 0
1.965 -0.69099998 0.252 90 16 0
1.973 -0.68800002 0.25 86 16 0
1.98 -0.68400002 0.248 88 16 0
1.982 -0.67900002 0.245 86 16 0
1.994 -0.67699999 0.243 85 16 0
2.006 -0.67500001 0.242 83 16 0
2.0079999 -0.67000002 0.23899999 75 16 0
2.0150001 -0.66600001 0.237 85 16 0
2.0209999 -0.662 0.234 76 16 0
2.029 -0.65799999 0.23199999 80 16 0
2.039 -0.65499997 0.23 72 16 0
2.0439999 -0.65100002 0.228 69 16 0
2.056 -0.648 0.226 66 16 0
2.062 -0.64399999 0.22400001 69 16 0
2.0680001 -0.63999999 0.221 69 16 0
2.079 -0.63599998 0.219 65 16 0
2.085 -0.63200003 0.21699999 62 16 0
2.096 -0.62900001 0.215 63 16 0
2.0999999 -0.62400001 0.213 60 16 0
2.1110001 -0.62 0.211 61 16 0
2.122 -0.61699998 0.20900001 60 16 0
2.1259999 -0.611 0.206 61 16 0
2.1359999 -0.60799998 0.204 60 16 0
2.1429999 -0.60299999 0.20200001 60 16 0
2.148 -0.59799999 0.199 63 16 0
2.1689999 -0.597 0.198 63 19 0
2.177 -0.59299999 0.19599999 54 16 0
2.1819999 -0.58700001 0.19400001 51 16 0
2.1930001 -0.58399999 0.192 53 16 0
2.2 -0.579 0.189 46 16 0
2.2119999 -0.57499999 0.18700001 52 16 0
2.221 -0.56999999 0.185 51 16 0
2.23 -0.56599998 0.183 42 16 0
2.2390001 -0.56099999 0.18099999 48 16 0
2.247 -0.55599999 0.17900001 48 16 0
2.2550001 -0.551 0.177 49 16 0
2.2679999 -0.54699999 0.175 43 16 0
2.279 -0.54299998 0.17299999 44 16 0
2.289 -0.53799999 0.171 40 16 0
2.3010001 -0.53399998 0.169 41 16 0
2.309 -0.52899998 0.16599999 43 16 0
2.3169999 -0.523 0.164 36 16 0
2.3280001 -0.51899999 0.162 41 16 0
2.3380001 -0.514 0.16 40 16 0
2.352 -0.509 0.15800001 36 16 0
2.362 -0.50400001 0.156 39 16 0
2.3770001 -0.5 0.154 33 16 0
2.3840001 -0.49399999 0.152 39 16 0
2.3959999 -0.48899999 0.149 45 16 0
2.4070001 -0.484 0.147 47 16 0
2.415 -0.47799999 0.145 40 16 0
2.431 -0.47299999 0.14300001 41 16 0
2.4419999 -0.46799999 0.141 38 16 0
2.4489999 -0.46200001 0.139 34 16 0
2.4619999 -0.456 0.13699999 33 16 0
2.4749999 -0.45100001 0.13500001 32 16 0
2.4860001 -0.44600001 0.132 32 16 0
2.4960001 -0.44 0.13 32 16 0
2.507 -0.43399999 0.12800001 32 16 0
2.517 -0.428 0.126 32 16 0
2.529 -0.42199999 0.124 33 16 0
2.543 -0.41600001 0.121 33 16 0
2.556 -0.41 0.119 31 16 0
2.5639999 -0.40400001 0.117 31 16 0
2.5810001 -0.398 0.115 32 16 0
2.5969999 -0.39300001 0.113 27 16 0
2.609 -0.38600001 0.111 26 16 0
2.6199999 -0.38 0.108 26 16 0
2.6329999 -0.37400001 0.106 26 16 0
2.6500001 -0.368 0.104 26 16 0
2.664 -0.361 0.102 27 16 0
2.678 -0.35499999 0.1 27 16 0
2.6900001 -0.34799999 0.097999997 27 16 0
2.704 -0.34200001 0.094999999 28 16 0
2.7179999 -0.33500001 0.093000002 27 16 0
2.7249999 -0.32699999 0.090999998 25 16 0
2.7490001 -0.322 0.089000002 26 16 0
2.7539999 -0.31400001 0.086000003 26 16 0
2.773 -0.30700001 0.083999999 25 16 0
2.786 -0.30000001 0.082000002 26 16 0
2.7969999 -0.292 0.079999998 27 16 0
2.8099999 -0.285 0.077 25 16 0
2.8310001 -0.278 0.075000003 27 16 0
2.845 -0.271 0.072999999 26 16 0
2.8610001 -0.26300001 0.071000002 25 16 0
2.875 -0.25600001 0.068000004 25 16 0
2.8959999 -0.248 0.066 25 16 0
2.908 -0.23999999 0.064000003 25 16 0
2.921 -0.23199999 0.061999999 26 16 0
2.9360001 -0.22400001 0.059 24 16 0
2.961 -0.21699999 0.057 25 16 0
2.9749999 -0.20900001 0.055 25 16 0
2.994 -0.20100001 0.052000001 25 16 0
3.0090001 -0.192 0.050000001 25 16 0
3.033 -0.184 0.048 25 16 0
3.0469999 -0.176 0.045000002 24 16 0
3.0699999 -0.167 0.043000001 25 16 0
3.0880001 -0.15899999 0.041000001 25 16 0
3.1059999 -0.15000001 0.037999999 24 16 0
3.125 -0.141 0.035999998 25 16 0
3.1459999 -0.132 0.033 25 16 0
3.165 -0.123 0.030999999 26 16 0
3.187 -0.114 0.028000001 26 16 0
3.2079999 -0.105 0.026000001 26 16 0
3.224 -0.094999999 0.024 25 16 0
3.2420001 -0.086000003 0.021 26 16 0
3.2679999 -0.075999998 0.018999999 30 16 0
3.273 -0.066 0.016000001 124 16 0
3.273 -0.055 0.013 113 16 0
3.2609999 -0.045000002 0.011 107 16 0
3.256 -0.035 0.0080000004 104 16 0
3.2520001 -0.024 0.0060000001 102 16 0
3.2460001 -0.014 0.003 24 16 0
3.2679999 -0.0040000002 0.001 16 16 0
3.2920001 0.0049999999 -0.001 17 16 0
3.3139999 0.016000001 -0.003 20 16 0
3.3329999 0.026000001 -0.0060000001 39 16 0
3.316 0.037 -0.0080000004 53 16 0
3.3150001 0.046999998 -0.011 49 16 0
3.3110001 0.057999998 -0.013 39 16 0
3.3010001 0.068000004 -0.016000001 49 16 0
3.293 0.078000002 -0.017999999 53 16 0
3.2880001 0.088 -0.02 54 16 0
3.28 0.097999997 -0.023 52 16 0
3.2820001 0.109 -0.025 53 16 0
3.2709999 0.119 -0.027000001 54 16 0
3.266 0.12899999 -0.028999999 55 16 0
3.2590001 0.139 -0.032000002 55 16 0
3.2490001 0.149 -0.034000002 59 16 0
3.2479999 0.15899999 -0.035999998 59 16 0
3.2390001 0.169 -0.037999999 58 16 0
3.237 0.17900001 -0.039999999 62 16 0
3.2309999 0.189 -0.041999999 61 16 0
3.2249999 0.199 -0.044 67 16 0
3.2190001 0.20900001 -0.046 70 16 0
3.21 0.21799999 -0.048 69 16 0
3.2030001 0.228 -0.050000001 66 16 0
3.1989999 0.23800001 -0.052000001 62 16 0
3.194 0.248 -0.054000001 59 16 0
3.1860001 0.257 -0.056000002 69 16 0
3.178 0.26699999 -0.057999998 59 16 0
3.171 0.27700001 -0.059999999 60 16 0
3.1659999 0.28600001 -0.061999999 69 16 0
3.1600001 0.296 -0.063000001 73 16 0
3.158 0.30599999 -0.064999998 68 16 0
3.151 0.315 -0.067000002 58 16 0
3.1440001 0.324 -0.068999998 52 16 0
3.1389999 0.33399999 -0.07 69 16 0
3.1329999 0.34299999 -0.071999997 69 16 0
3.1259999 0.35299999 -0.074000001 73 16 0
3.115 0.361 -0.075000003 89 16 0
3.112 0.37099999 -0.077 80 16 0
3.105 0.38 -0.078000002 65 16 0
3.102 0.38999999 -0.079999998 72 16 0
3.0999999 0.40000001 -0.082000002 75 16 0
3.092 0.40900001 -0.082999997 76 16 0
3.0869999 0.41800001 -0.085000001 81 16 0
3.0769999 0.42699999 -0.086000003 91 16 0
3.073 0.43599999 -0.088 85 16 0
3.0710001 0.44499999 -0.089000002 81 16 0
3.0680001 0.45500001 -0.090000004 95 16 0
3.0569999 0.463 -0.092 95 16 0
3.05 0.472 -0.093000002 94 16 0
3.0480001 0.48199999 -0.093999997 95 16 0
3.0409999 0.49000001 -0.096000001 68 16 0
3.039 0.5 -0.097000003 95 16 0
3.029 0.50800002 -0.097999997 78 16 0
3.026 0.51800001 -0.098999999 92 16 0
3.02 0.52700001 -0.101 78 16 0
3.0209999 0.537 -0.102 87 16 0
3.013 0.54500002 -0.103 91 16 0
3.0079999 0.55400002 -0.104 94 16 0
3.0009999 0.56300002 -0.105 97 16 0
2.994 0.57099998 -0.106 69 16 0
2.9890001 0.57999998 -0.107 87 16 0
2.99 0.58999997 -0.109 84 16 0
2.973 0.59600002 -0.109 82 16 0
2.977 0.60699999 -0.111 88 16 0
2.971 0.616 -0.112 82 16 0
2.967 0.625 -0.113 85 16 0
2.9579999 0.63200003 -0.113 97 16 0
2.9530001 0.64099997 -0.114 94 16 0
2.9460001 0.64899999 -0.115 93 16 0
2.948 0.66000003 -0.116 94 16 0
2.9400001 0.667 -0.117 102 16 0
2.9330001 0.676 -0.118 90 16 0
2.9300001 0.685 -0.118 86 16 0
2.928 0.69400001 -0.119 98 16 0
2.9219999 0.70200002 -0.12 102 16 0
2.9159999 0.70999998 -0.121 99 16 0
2.9119999 0.71899998 -0.121 109 16 0
2.908 0.72799999 -0.122 127 16 0
2.904 0.736 -0.123 126 16 0
2.8959999 0.74400002 -0.123 113 16 0
2.891 0.75300002 -0.124 144 16 0
2.8789999 0.759 -0.124 124 16 0
2.8829999 0.76999998 -0.125 136 16 0
2.868 0.77499998 -0.125 126 16 0
2.865 0.78399998 -0.126 138 16 0
2.862 0.79299998 -0.126 116 16 0
2.859 0.80199999 -0.127 127 16 0
2.8540001 0.81 -0.127 127 16 0
2.8510001 0.81900001 -0.12800001 137 16 0
2.849 0.82700002 -0.12800001 127 16 0
2.842 0.83499998 -0.12800001 129 16 0
2.8380001 0.84299999 -0.12899999 136 16 0
2.8310001 0.85100001 -0.12899999 134 16 0
2.829 0.86000001 -0.12899999 138 16 0
2.825 0.86799997 -0.12899999 132 16 0
2.819 0.87599999 -0.13 147 16 0
2.819 0.88499999 -0.13 142 16 0
2.8110001 0.89300001 -0.13 137 16 0
2.803 0.89899999 -0.13 140 16 0
2.7980001 0.90700001 -0.13 144 16 0
2.799 0.917 -0.13 140 16 0
2.796 0.926 -0.13 135 16 0
2.793 0.93400002 -0.13 150 16 0
2.786 0.94099998 -0.13 145 16 0
2.777 0.94800001 -0.13 150 16 0
2.773 0.95599997 -0.13 142 16 0
2.783 0.96899998 -0.131 33 16 0
2.779 0.977 -0.131 39 16 0
2.7620001 0.98000002 -0.13 138 16 0
2.7590001 0.98799998 -0.13 145 16 0
2.756 0.99699998 -0.13 146 16 0
2.7490001 1.0039999 -0.12899999 136 16 0
2.744 1.011 -0.12899999 136 16 0
2.7409999 1.0190001 -0.12899999 150 16 0
2.7379999 1.027 -0.12800001 150 16 0
2.7349999 1.036 -0.12800001 150 16 0
2.7290001 1.043 -0.12800001 138 16 0
2.7290001 1.052 -0.127 148 16 0
2.7249999 1.0599999 -0.127 150 16 0
2.7149999 1.0650001 -0.126 150 16 0
2.7179999 1.076 -0.126 143 16 0
2.7149999 1.084 -0.126 150 16 0
2.7079999 1.09 -0.125 140 16 0
2.7049999 1.098 -0.124 148 16 0
2.697 1.104 -0.124 150 16 0
2.694 1.112 -0.123 150 16 0
2.6930001 1.1210001 -0.123 150 16 0
2.688 1.128 -0.122 150 16 0
2.6849999 1.135 -0.121 150 16 0
2.681 1.143 -0.12 150 16 0
2.678 1.151 -0.12 150 16 0
2.6719999 1.1569999 -0.119 150 16 0
2.6719999 1.166 -0.118 150 16 0
2.6659999 1.173 -0.117 150 16 0
2.664 1.181 -0.116 150 16 0
2.6600001 1.188 -0.115 150 16 0
2.6570001 1.196 -0.114 150 16 0
2.652 1.2029999 -0.113 150 16 0
2.6489999 1.21 -0.112 150 16 0
2.6440001 1.216 -0.111 150 16 0
2.6429999 1.225 -0.11 150 16 0
2.6389999 1.232 -0.109 150 16 0
2.6359999 1.24 -0.108 150 16 0
2.631 1.2460001 -0.107 150 16 0
2.6289999 1.2539999 -0.105 150 16 0
2.625 1.261 -0.104 150 16 0
2.622 1.268 -0.103 150 16 0
2.6199999 1.276 -0.102 150 16 0
2.6159999 1.2819999 -0.1 150 16 0
2.6099999 1.288 -0.098999999 150 16 0
2.6110001 1.2970001 -0.097999997 150 16 0
2.6099999 1.3049999 -0.096000001 150 16 0
2.6029999 1.3099999 -0.093999997 150 16 0
2.6010001 1.318 -0.093000002 150 16 0
2.598 1.324 -0.092 150 16 0
2.5940001 1.331 -0.090000004 150 16 0
2.5910001 1.3380001 -0.088 150 16 0
2.5880001 1.345 -0.086999997 150 16 0
2.5840001 1.351 -0.085000001 150 16 0
2.5829999 1.359 -0.082999997 150 16 0
2.579 1.365 -0.082000002 150 16 0
2.5769999 1.372 -0.079999998 150 16 0
2.579 1.381 -0.078000002 150 16 0
2.5669999 1.383 -0.075999998 150 16 0
2.572 1.3940001 -0.075000003 130 16 0
2.569 1.4 -0.072999999 141 16 0
2.566 1.4069999 -0.071000002 150 16 0
2.5599999 1.411 -0.068999998 150 16 0
2.556 1.4170001 -0.067000002 150 16 0
2.5550001 1.424 -0.064999998 150 16 0
2.549 1.429 -0.061999999 150 16 0
2.549 1.436 -0.059999999 150 16 0
2.552 1.446 -0.057999998 150 16 0
2.5439999 1.449 -0.056000002 150 16 0
2.5420001 1.455 -0.054000001 150 16 0
2.5439999 1.464 -0.052000001 150 16 0
2.5350001 1.467 -0.048999999 150 16 0
2.5380001 1.476 -0.046999998 150 16 0
2.536 1.482 -0.045000002 150 16 0
2.5320001 1.487 -0.041999999 150 16 0
2.53 1.493 -0.039999999 150 16 0
2.5309999 1.5 -0.037999999 150 16 0
2.5280001 1.506 -0.035 150 16 0
2.5250001 1.511 -0.033 150 16 0
2.5209999 1.516 -0.029999999 150 16 0
2.52 1.522 -0.028000001 150 16 0
2.517 1.527 -0.025 150 16 0
2.5139999 1.5319999 -0.022 150 16 0
2.517 1.541 -0.02 150 16 0
2.517 1.5470001 -0.017000001 150 16 0
2.5139999 1.552 -0.014 150 16 0
2.5109999 1.556 -0.012 150 16 0
2.5079999 1.561 -0.0089999996 150 16 0
2.51 1.569 -0.0060000001 150 16 0
2.506 1.572 -0.003 150 16 0
2.5050001 1.5779999 -0.001 150 16 0
2.5050001 1.584 0.001 150 16 0
2.5009999 1.587 0.0040000002 150 16 0
2.5020001 1.594 0.0070000002 150 16 0
2.4990001 1.598 0.0099999998 150 16 0
2.497 1.602 0.013 150 16 0
2.4960001 1.607 0.016000001 150 16 0
2.497 1.614 0.018999999 150 16 0
2.4949999 1.617 0.022 150 16 0
2.497 1.624 0.025 150 16 0
2.494 1.628 0.028000001 150 16 0
2.4920001 1.631 0.032000002 150 16 0
2.4909999 1.636 0.035 150 16 0
2.4890001 1.6390001 0.037999999 148 16 0
2.49 1.645 0.041000001 150 16 0
2.4879999 1.648 0.044 131 16 0
2.4849999 1.651 0.048 142 16 0
2.4849999 1.656 0.050999999 141 16 0
2.484 1.659 0.054000001 137 16 0
2.49 1.668 0.057999998 145 16 0
2.48 1.665 0.061000001 145 16 0
2.4879999 1.674 0.064000003 143 16 0
2.4879999 1.679 0.068000004 145 16 0
2.4860001 1.682 0.071000002 144 16 0
2.4860001 1.6849999 0.075000003 150 16 0
2.4890001 1.691 0.078000002 140 16 0
2.4820001 1.689 0.082000002 132 16 0
2.487 1.697 0.085000001 132 16 0
2.4820001 1.696 0.088 133 16 0
2.4820001 1.699 0.092 131 16 0
2.484 1.704 0.096000001 130 16 0
2.4860001 1.7079999 0.098999999 76 16 0
2.48 1.707 0.102 41 16 0
2.483 1.711 0.106 36 16 0
2.4809999 1.7130001 0.11 36 16 0
2.477 1.712 0.113 39 16 0
2.4790001 1.716 0.117 54 16 0
2.484 1.722 0.12 106 16 0
2.4820001 1.723 0.124 117 16 0
2.483 1.725 0.12800001 123 16 0
2.4820001 1.726 0.131 124 16 0
2.4849999 1.73 0.13500001 118 16 0
2.4860001 1.732 0.138 122 16 0
2.4890001 1.735 0.142 150 16 0
2.4879999 1.7359999 0.146 150 16 0
2.4909999 1.739 0.15000001 150 16 0
2.4960001 1.744 0.154 150 16 0
2.493 1.742 0.15700001 144 16 0
2.493 1.743 0.16 135 16 0
2.4979999 1.748 0.164 109 16 0
2.4979999 1.748 0.168 82 16 0
2.5 1.75 0.17200001 56 16 0
2.5020001 1.751 0.175 45 16 0
2.5020001 1.751 0.17900001 39 16 0
2.5 1.75 0.182 35 16 0
2.5039999 1.752 0.186 32 16 0
2.507 1.7539999 0.19 29 16 0
2.5079999 1.7539999 0.19400001 28 16 0
2.506 1.752 0.197 27 16 0
2.5079999 1.753 0.20100001 25 16 0
2.507 1.751 0.204 25 16 0
2.5090001 1.751 0.208 25 16 0
2.506 1.748 0.211 26 16 0
2.5120001 1.751 0.215 28 16 0
2.517 1.752 0.219 30 16 0
2.5190001 1.752 0.222 30 16 0
2.5220001 1.753 0.226 33 16 0
2.523 1.752 0.229 37 16 0
2.526 1.751 0.233 42 16 0
2.5280001 1.751 0.236 49 16 0
2.5339999 1.753 0.23999999 81 16 0
2.533 1.75 0.243 101 16 0
2.5309999 1.745 0.24600001 137 16 0
2.539 1.748 0.25 150 16 0
2.536 1.743 0.25299999 150 16 0
2.5350001 1.74 0.25600001 150 16 0
2.5380001 1.739 0.259 150 16 0
2.5380001 1.735 0.26199999 150 16 0
2.5409999 1.734 0.266 143 16 0
2.5480001 1.735 0.26899999 121 16 0
2.549 1.733 0.27200001 131 16 0
2.5510001 1.73 0.27500001 133 16 0
2.552 1.727 0.278 125 16 0
2.5510001 1.722 0.28099999 90 16 0
2.5610001 1.725 0.285 52 16 0
2.5650001 1.723 0.28799999 43 16 0
2.562 1.717 0.29100001 39 16 0
2.5710001 1.7180001 0.294 41 16 0
2.5739999 1.716 0.29699999 46 16 0
2.5780001 1.714 0.30000001 78 16 0
2.575 1.707 0.303 115 16 0
2.5810001 1.706 0.30599999 146 16 0
2.579 1.7 0.308 132 16 0
2.5829999 1.697 0.31099999 130 16 0
2.589 1.696 0.31400001 139 16 0
2.5899999 1.691 0.31600001 128 16 0
2.5940001 1.688 0.31900001 150 16 0
2.596 1.684 0.322 150 16 0
2.599 1.6799999 0.324 150 16 0
2.6070001 1.679 0.32800001 126 16 0
2.6099999 1.675 0.33000001 146 16 0
2.6099999 1.669 0.33199999 126 16 0
2.615 1.666 0.33500001 104 16 0
2.618 1.6619999 0.33700001 83 16 0
2.618 1.656 0.33899999 56 16 0
2.6240001 1.653 0.34200001 58 16 0
2.6229999 1.646 0.34400001 69 16 0
2.628 1.643 0.34599999 111 16 0
2.632 1.6390001 0.34799999 149 16 0
2.6229999 1.626 0.34900001 150 16 0
2.605 1.608 0.34799999 142 16 0
2.605 1.602 0.34900001 150 16 0
2.6170001 1.602 0.35299999 150 16 0
2.632 1.604 0.35600001 127 16 0
2.645 1.605 0.359 127 16 0
2.6530001 1.602 0.36199999 97 16 0
2.654 1.596 0.36300001 70 16 0
2.655 1.589 0.36500001 45 16 0
2.655 1.582 0.366 41 16 0
2.652 1.572 0.36700001 37 16 0
2.6500001 1.563 0.368 36 16 0
2.6500001 1.556 0.36899999 37 16 0
2.651 1.549 0.37 36 16 0
2.6459999 1.538 0.37 35 16 0
2.638 1.526 0.37 34 16 0
2.622 1.508 0.36899999 28 16 0
2.6070001 1.492 0.36700001 26 16 0
2.609 1.4859999 0.368 27 16 0
2.608 1.477 0.36899999 27 16 0
2.6229999 1.477 0.37200001 30 16 0
2.6300001 1.473 0.373 42 16 0
2.6300001 1.466 0.37400001 49 16 0
2.6170001 1.45 0.373 32 16 0
2.6140001 1.4400001 0.373 24 16 0
2.631 1.441 0.37599999 56 16 0
2.6389999 1.438 0.377 150 16 0
2.641 1.4299999 0.37799999 150 16 0
2.642 1.4220001 0.37799999 150 16 0
2.652 1.42 0.38 150 16 0
2.654 1.4119999 0.38 150 16 0
2.6570001 1.406 0.38100001 150 16 0
2.661 1.399 0.382 150 16 0
2.665 1.392 0.382 150 16 0
2.6670001 1.385 0.38299999 150 16 0
2.6689999 1.377 0.38299999 150 16 0
2.6760001 1.372 0.384 150 16 0
2.6800001 1.365 0.384 150 16 0
2.684 1.358 0.38499999 150 16 0
2.687 1.351 0.38499999 150 16 0
2.6900001 1.344 0.38499999 150 16 0
2.694 1.337 0.38499999 150 16 0
2.698 1.33 0.38499999 150 16 0
2.7 1.323 0.38499999 150 16 0
2.7049999 1.316 0.38600001 150 16 0
2.7079999 1.308 0.38600001 150 16 0
2.711 1.301 0.38600001 150 16 0
2.7149999 1.294 0.38600001 150 16 0
2.7190001 1.286 0.38600001 150 16 0
2.721 1.279 0.38499999 150 16 0
2.733 1.275 0.38600001 150 16 0
2.7290001 1.2640001 0.38499999 150 16 0
2.7349999 1.258 0.38499999 150 16 0
2.7390001 1.25 0.38499999 150 16 0
2.743 1.243 0.38499999 150 16 0
2.743 1.234 0.384 150 16 0
2.7539999 1.229 0.384 150 16 0
2.757 1.222 0.384 150 16 0
2.7609999 1.214 0.38299999 150 16 0
2.763 1.205 0.382 150 16 0
2.7679999 1.198 0.382 150 16 0
2.767 1.189 0.38100001 150 16 0
2.7720001 1.182 0.38 150 16 0
2.777 1.174 0.38 150 16 0
2.7809999 1.166 0.37900001 150 16 0
2.783 1.158 0.37799999 150 16 0
2.7869999 1.15 0.377 150 16 0
2.7869999 1.141 0.37599999 150 16 0
2.796 1.135 0.37599999 150 16 0
2.7980001 1.127 0.37400001 150 16 0
2.799 1.118 0.373 150 16 0
2.8010001 1.109 0.37200001 150 16 0
2.8110001 1.103 0.37200001 150 16 0
2.8139999 1.095 0.37 150 16 0
2.8180001 1.087 0.36899999 150 16 0
2.8199999 1.0779999 0.368 150 16 0
2.825 1.071 0.36700001 150 16 0
2.829 1.063 0.366 150 16 0
2.832 1.0549999 0.36399999 150 16 0
2.8329999 1.045 0.36300001 150 16 0
2.8369999 1.0369999 0.361 150 16 0
2.842 1.03 0.36000001 150 16 0
2.8429999 1.02 0.35800001 150 16 0
2.849 1.013 0.35699999 150 16 0
2.855 1.006 0.35600001 150 16 0
2.8570001 0.99699998 0.354 150 16 0
2.862 0.98900002 0.35299999 150 16 0
2.8629999 0.98000002 0.35100001 150 16 0
2.8729999 0.97399998 0.34999999 150 16 0
2.8710001 0.96399999 0.34799999 150 16 0
2.8789999 0.95700002 0.347 150 16 0
2.8729999 0.94499999 0.34400001 150 16 0
2.885 0.94 0.34299999 150 16 0
2.8859999 0.93000001 0.34099999 150 16 0
2.891 0.92199999 0.33899999 150 16 0
2.8959999 0.91399997 0.33700001 150 16 0
2.901 0.90600002 0.336 150 16 0
2.902 0.89700001 0.333 150 16 0
2.9059999 0.889 0.33199999 150 16 0
2.9070001 0.88 0.329 150 16 0
2.9119999 0.87199998 0.32699999 150 16 0
2.9189999 0.86400002 0.32600001 150 16 0
2.9189999 0.85399997 0.32300001 150 16 0
2.921 0.84600002 0.32100001 150 16 0
2.927 0.838 0.31900001 150 16 0
2.927 0.82800001 0.31600001 150 16 0
2.934 0.81999999 0.315 150 16 0
2.9360001 0.81199998 0.31200001 150 16 0
2.9400001 0.80299997 0.31 150 16 0
2.944 0.79500002 0.308 150 16 0
2.947 0.78600001 0.30500001 150 16 0
2.9519999 0.778 0.303 150 16 0
2.9519999 0.76800001 0.30000001 150 16 0
2.9549999 0.759 0.29800001 150 16 0
2.957 0.75099999 0.29499999 150 16 0
2.96 0.74199998 0.29300001 150 16 0
2.964 0.73299998 0.28999999 150 16 0
2.967 0.72399998 0.28799999 150 16 0
2.967 0.71499997 0.285 150 16 0
2.977 0.708 0.28299999 150 16 0
2.9820001 0.699 0.28 150 16 0
2.9820001 0.69 0.27700001 150 16 0
2.9860001 0.68099999 0.27500001 150 16 0
2.9920001 0.67299998 0.27200001 150 16 0
2.9909999 0.66299999 0.26899999 150 16 0
3.0009999 0.65600002 0.26699999 150 16 0
3.003 0.64700001 0.264 150 16 0
3.0050001 0.63800001 0.26100001 150 16 0
3.0079999 0.62900001 0.25799999 150 16 0
3.0139999 0.62099999 0.255 150 16 0
3.0150001 0.611 0.252 150 16 0
3.0179999 0.602 0.249 150 16 0
3.0220001 0.59399998 0.24600001 150 16 0
3.0239999 0.58499998 0.243 150 16 0
3.03 0.57599998 0.23999999 150 16 0
3.0320001 0.56699997 0.237 150 16 0
3.0339999 0.55800003 0.234 150 16 0
3.036 0.54900002 0.23100001 150 16 0
3.0380001 0.54000002 0.228 150 16 0
3.04 0.53100002 0.22400001 150 16 0
3.0450001 0.52200001 0.221 150 16 0
3.0510001 0.514 0.21799999 150 16 0
3.0539999 0.505 0.215 145 16 0
3.059 0.49599999 0.212 150 16 0
3.069 0.48800001 0.20900001 150 16 0
3.069 0.479 0.206 125 16 0
3.079 0.47099999 0.20299999 90 16 0
3.0799999 0.461 0.199 53 16 0
3.0810001 0.45199999 0.19599999 43 16 0
3.0940001 0.44400001 0.193 39 16 0
3.096 0.435 0.189 34 16 0
3.0999999 0.426 0.186 31 16 0
3.112 0.41800001 0.183 30 16 0
3.122 0.41 0.18000001 31 16 0
3.1300001 0.40200001 0.177 30 16 0
3.1389999 0.39300001 0.17299999 29 16 0
3.151 0.38499999 0.17 29 16 0
3.161 0.377 0.167 29 16 0
3.165 0.368 0.163 30 16 0
3.177 0.36000001 0.16 31 16 0
3.1849999 0.35100001 0.15700001 30 16 0
3.1919999 0.34200001 0.153 32 16 0
3.204 0.33399999 0.149 33 16 0
3.207 0.324 0.146 33 16 0
3.22 0.31600001 0.142 35 16 0
3.2260001 0.30700001 0.138 39 16 0
3.23 0.29800001 0.13500001 43 16 0
3.2320001 0.28799999 0.131 31 16 0
3.217 0.27700001 0.126 29 16 0
3.2179999 0.26699999 0.122 28 16 0
3.233 0.259 0.118 46 16 0
3.237 0.25 0.114 130 16 0
3.2190001 0.23899999 0.109 87 16 0
3.1989999 0.228 0.105 59 16 0
3.204 0.21799999 0.101 66 16 0
3.207 0.20900001 0.096000001 73 16 0
3.2060001 0.199 0.092 70 16 0
3.2119999 0.19 0.088 77 16 0
3.211 0.18099999 0.083999999 80 16 0
3.2160001 0.171 0.079999998 71 16 0
3.221 0.162 0.075999998 82 16 0
3.2219999 0.153 0.071000002 79 16 0
3.2279999 0.14300001 0.067000002 91 16 0
3.2379999 0.134 0.063000001 84 16 0
3.2709999 0.126 0.059 80 19 0
3.3039999 0.118 0.055 66 16 0
3.3099999 0.108 0.050999999 65 16 0
3.312 0.097999997 0.046 54 16 0
3.3099999 0.089000002 0.041999999 53 16 0
3.3150001 0.079000004 0.037 83 16 0
3.319 0.068999998 0.033 64 16 0
3.3239999 0.059999999 0.028000001 42 16 0
3.325 0.050000001 0.024 47 16 0
3.3239999 0.039999999 0.018999999 55 16 0
3.3329999 0.030999999 0.015 51 16 0
3.3280001 0.021 0.0099999998 25 16 0
3.303 0.011 0.0049999999 18 16 0
3.277 0.001 0 17 16 0
3.257 -0.0070000002 -0.003 17 16 0
3.237 -0.016000001 -0.0080000004 34 16 0
3.2449999 -0.026000001 -0.012 124 16 0
3.247 -0.035 -0.017000001 133 16 0
3.247 -0.045000002 -0.022 129 16 0
3.253 -0.054000001 -0.026000001 144 16 0
3.253 -0.064000003 -0.030999999 150 16 0
3.244 -0.072999999 -0.035999998 42 16 0
3.227 -0.082000002 -0.039999999 26 16 0
3.2060001 -0.090999998 -0.045000002 27 16 0
3.184 -0.098999999 -0.048999999 28 16 0
3.1630001 -0.108 -0.052999999 27 16 0
3.141 -0.116 -0.057999998 27 16 0
3.118 -0.124 -0.061999999 25 16 0
3.098 -0.132 -0.066 25 16 0
3.0810001 -0.14 -0.07 27 16 0
3.059 -0.148 -0.074000001 27 16 0
3.0380001 -0.156 -0.079000004 27 16 0
3.016 -0.163 -0.082999997 27 16 0
3.0009999 -0.171 -0.086999997 25 16 0
2.9809999 -0.178 -0.090999998 26 16 0
2.96 -0.186 -0.093999997 26 16 0
2.944 -0.193 -0.097999997 27 16 0
2.925 -0.2 -0.102 27 16 0
2.908 -0.207 -0.106 28 16 0
2.8900001 -0.214 -0.11 27 16 0
2.8699999 -0.221 -0.114 27 16 0
2.855 -0.228 -0.118 27 16 0
2.8329999 -0.234 -0.121 27 16 0
2.819 -0.241 -0.125 28 16 0
2.8050001 -0.248 -0.12899999 28 16 0
2.7850001 -0.25400001 -0.132 26 16 0
2.773 -0.26100001 -0.13600001 29 16 0
2.7620001 -0.26800001 -0.14 29 16 0
2.7390001 -0.273 -0.14300001 29 16 0
2.7290001 -0.28 -0.147 29 16 0
2.721 -0.287 -0.15099999 30 16 0
2.701 -0.29300001 -0.154 31 16 0
2.687 -0.29899999 -0.15800001 31 16 0
2.674 -0.30500001 -0.161 31 16 0
2.654 -0.31 -0.16500001 30 16 0
2.638 -0.31600001 -0.168 30 16 0
2.6270001 -0.322 -0.17200001 31 16 0
2.6140001 -0.32800001 -0.175 30 16 0
2.5999999 -0.333 -0.178 32 16 0
2.582 -0.338 -0.18099999 31 16 0
2.573 -0.34400001 -0.185 31 16 0
2.5580001 -0.34900001 -0.18799999 31 16 0
2.5469999 -0.35499999 -0.192 32 16 0
2.527 -0.359 -0.19499999 31 16 0
2.517 -0.36500001 -0.198 31 16 0
2.51 -0.37099999 -0.20200001 32 16 0
2.4949999 -0.37599999 -0.205 29 16 0
2.483 -0.38100001 -0.208 31 16 0
2.4660001 -0.38499999 -0.211 31 16 0
2.4579999 -0.391 -0.215 31 16 0
2.447 -0.396 -0.21799999 31 16 0
2.4360001 -0.40099999 -0.221 37 16 0
2.421 -0.40599999 -0.22400001 34 16 0
2.411 -0.41100001 -0.227 34 16 0
2.4000001 -0.41499999 -0.23100001 32 16 0
2.3870001 -0.41999999 -0.234 37 16 0
2.3729999 -0.42399999 -0.236 44 16 0
2.3659999 -0.42899999 -0.23999999 31 16 0
2.3510001 -0.433 -0.243 33 16 0
2.339 -0.43700001 -0.24600001 42 16 0
2.326 -0.44100001 -0.248 34 16 0
2.3169999 -0.44600001 -0.252 38 16 0
2.3050001 -0.44999999 -0.255 38 16 0
2.2950001 -0.45500001 -0.25799999 39 16 0
2.28 -0.458 -0.25999999 40 16 0
2.273 -0.463 -0.264 40 16 0
2.2609999 -0.46700001 -0.26699999 41 16 0
2.253 -0.47099999 -0.27000001 38 16 0
2.243 -0.47600001 -0.273 38 16 0
2.2349999 -0.47999999 -0.27599999 34 16 0
2.2179999 -0.48300001 -0.278 36 16 0
2.211 -0.48699999 -0.28099999 40 16 0
2.2019999 -0.491 -0.28400001 52 16 0
2.1930001 -0.495 -0.287 46 16 0
2.184 -0.49900001 -0.29100001 59 16 0
2.174 -0.50300002 -0.29300001 58 16 0
2.1570001 -0.505 -0.29499999 61 16 0
2.1500001 -0.509 -0.29800001 62 16 0
2.138 -0.51200002 -0.301 57 16 0
2.1300001 -0.51599997 -0.30399999 60 16 0
2.1210001 -0.51999998 -0.30700001 58 16 0
2.1140001 -0.523 -0.31 61 16 0
2.1010001 -0.52600002 -0.31200001 61 16 0
2.0940001 -0.52999997 -0.31600001 57 16 0
2.0840001 -0.53299999 -0.31799999 67 16 0
2.0780001 -0.537 -0.32100001 62 16 0
2.0710001 -0.54100001 -0.32499999 80 16 0
2.0569999 -0.54299998 -0.32600001 84 16 0
2.05 -0.54699999 -0.33000001 84 16 0
2.0420001 -0.55000001 -0.33199999 87 16 0
2.036 -0.55400002 -0.336 79 16 0
2.03 -0.55800003 -0.33899999 91 16 0
2.0179999 -0.56 -0.34099999 84 16 0
2.0039999 -0.56099999 -0.34299999 83 16 0
2.0009999 -0.56599998 -0.347 84 16 0
1.99 -0.56800002 -0.34900001 70 16 0
1.982 -0.57099998 -0.35100001 82 16 0
1.977 -0.57499999 -0.35499999 89 16 0
1.967 -0.57700002 -0.35699999 84 16 0
1.962 -0.58099997 -0.36000001 85 16 0
1.954 -0.58399999 -0.36300001 85 16 0
1.949 -0.58700001 -0.366 95 16 0
1.942 -0.58999997 -0.36899999 92 16 0
1.921 -0.58899999 -0.36899999 89 19 0
1.9170001 -0.59299999 -0.373 96 16 0
1.9069999 -0.59500003 -0.375 79 16 0
1.905 -0.59899998 -0.37900001 85 16 0
1.902 -0.60299999 -0.382 89 16 0
1.896 -0.60600001 -0.38499999 103 16 0
1.888 -0.60799998 -0.38800001 100 16 0
1.88 -0.611 -0.38999999 94 16 0
1.875 -0.61400002 -0.39300001 102 16 0
1.869 -0.61699998 -0.396 104 16 0
1.8609999 -0.61900002 -0.39899999 112 16 0
1.85 -0.62 -0.40099999 100 16 0
1.845 -0.62300003 -0.40400001 109 16 0
1.8380001 -0.625 -0.40599999 102 16 0
1.834 -0.62800002 -0.41 140 16 0
1.827 -0.63099998 -0.412 141 16 0
1.825 -0.63499999 -0.41600001 142 16 0
1.812 -0.63499999 -0.41800001 146 16 0
1.8049999 -0.63700002 -0.41999999 140 16 0
1.7970001 -0.63800001 -0.42199999 138 16 0
1.795 -0.64200002 -0.426 142 16 0
1.7869999 -0.64399999 -0.428 136 16 0
1.781 -0.64600003 -0.43099999 138 16 0
1.777 -0.64899999 -0.43399999 150 16 0
1.772 -0.65100002 -0.43700001 147 16 0
1.767 -0.65399998 -0.44 138 16 0
1.763 -0.65700001 -0.44299999 146 16 0
1.752 -0.65700001 -0.44499999 150 16 0
1.75 -0.66000003 -0.449 147 16 0
