# .PCD v0.7 - Point Cloud Data file format
VERSION 0.7
FIELDS x y z intensity tag line
SIZE 4 4 4 4 1 1
TYPE F F F F U U
COUNT 1 1 1 1 1 1
WIDTH 1346
HEIGHT 1
VIEWPOINT 0 0 0 1 0 0 0
POINTS 1346
DATA ascii
2.438 0.191 0.75400001 99 16 0
2.451 0.189 0.75099999 107 16 0
2.46 0.18700001 0.74599999 102 16 0
2.471 0.184 0.741 93 16 0
2.484 0.183 0.73699999 77 16 0
2.4949999 0.18099999 0.73199999 83 16 0
2.507 0.17900001 0.72799999 83 16 0
2.5120001 0.176 0.72100002 82 16 0
2.526 0.17399999 0.71700001 73 16 0
2.5369999 0.17200001 0.71200001 76 16 0
2.5480001 0.17 0.70700002 79 16 0
2.559 0.168 0.70200002 84 16 0
2.5739999 0.16599999 0.69800001 75 16 0
2.582 0.164 0.69199997 71 16 0
2.592 0.162 0.68599999 81 16 0
2.6140001 0.161 0.68400002 76 16 0
2.6229999 0.15800001 0.67799997 60 16 0
2.632 0.156 0.67199999 63 16 0
2.6470001 0.155 0.667 66 16 0
2.658 0.152 0.66100001 71 16 0
2.6689999 0.15000001 0.65600002 65 16 0
2.678 0.148 0.64899999 59 16 0
2.687 0.146 0.64300001 62 16 0
2.7030001 0.14399999 0.63800001 58 16 0
2.7179999 0.142 0.63300002 59 16 0
2.7290001 0.14 0.62699997 54 16 0
2.7409999 0.138 0.62099999 57 16 0
2.7520001 0.13600001 0.61500001 55 16 0
2.767 0.134 0.60900003 59 16 0
2.777 0.132 0.602 55 16 0
2.7920001 0.13 0.597 41 16 0
2.806 0.12899999 0.59100002 40 16 0
2.823 0.127 0.58499998 35 16 0
2.8340001 0.125 0.579 35 16 0
2.8510001 0.123 0.57300001 35 16 0
2.865 0.121 0.56699997 33 16 0
2.8789999 0.119 0.56 34 16 0
2.892 0.117 0.55299997 34 16 0
2.9070001 0.115 0.54699999 33 16 0
2.928 0.113 0.542 35 16 0
2.9400001 0.111 0.53500003 34 16 0
2.95 0.109 0.52700001 35 16 0
2.97 0.108 0.52100003 34 16 0
2.9879999 0.106 0.51499999 34 16 0
3.003 0.104 0.50800002 34 16 0
3.017 0.102 0.5 32 16 0
3.0309999 0.1 0.493 34 16 0
3.05 0.097999997 0.48699999 33 16 0
3.069 0.096000001 0.47999999 34 16 0
3.0810001 0.093999997 0.472 28 16 0
3.098 0.092 0.465 29 16 0
3.119 0.090000004 0.458 29 16 0
3.1359999 0.088 0.44999999 29 16 0
3.151 0.086000003 0.442 29 16 0
3.171 0.085000001 0.435 31 16 0
3.191 0.082999997 0.428 32 16 0
3.2049999 0.081 0.419 31 16 0
3.227 0.079000004 0.412 32 16 0
3.2460001 0.077 0.40400001 31 16 0
3.26 0.075000003 0.39500001 30 16 0
3.279 0.072999999 0.38699999 31 16 0
3.299 0.071000002 0.37900001 30 16 0
3.319 0.068999998 0.37099999 31 16 0
3.339 0.067000002 0.36199999 33 16 0
3.3540001 0.064999998 0.35299999 101 16 0
3.349 0.063000001 0.34200001 117 16 0
3.346 0.061000001 0.331 98 16 0
3.3399999 0.057999998 0.31999999 97 16 0
3.3399999 0.056000002 0.30899999 97 16 0
3.3340001 0.054000001 0.29800001 103 16 0
3.3329999 0.050999999 0.287 118 16 0
3.329 0.048999999 0.27599999 116 16 0
3.325 0.046999998 0.26499999 104 16 0
3.3199999 0.045000002 0.25400001 112 16 0
3.319 0.043000001 0.244 117 16 0
3.3110001 0.041000001 0.233 91 16 0
3.3080001 0.037999999 0.222 109 16 0
3.3010001 0.035999998 0.211 116 16 0
3.3 0.034000002 0.2 118 16 0
3.2980001 0.032000002 0.19 123 16 0
3.2950001 0.029999999 0.17900001 134 16 0
3.2920001 0.028000001 0.168 115 16 0
3.289 0.026000001 0.15800001 119 16 0
3.286 0.024 0.147 132 16 0
3.279 0.022 0.13600001 115 16 0
3.277 0.021 0.126 141 16 0
3.2780001 0.018999999 0.115 41 16 0
3.302 0.017000001 0.106 28 16 0
3.3269999 0.015 0.096000001 31 16 0
3.3410001 0.014 0.086000003 27 16 0
3.3440001 0.012 0.075000003 19 16 0
3.3310001 0.0099999998 0.064000003 18 16 0
3.322 0.0080000004 0.052999999 17 16 0
3.3139999 0.0060000001 0.043000001 17 16 0
3.3010001 0.0049999999 0.032000002 17 16 0
3.2939999 0.003 0.021 16 16 0
3.2909999 0.001 0.011 16 16 0
3.279 0 0 16 16 0
3.2739999 -0.001 -0.0089999996 15 16 0
3.2650001 -0.003 -0.02 16 16 0
3.2590001 -0.0040000002 -0.029999999 16 16 0
3.2539999 -0.0060000001 -0.039999999 16 16 0
3.2390001 -0.0070000002 -0.050999999 16 16 0
3.237 -0.0089999996 -0.061000001 16 16 0
3.2249999 -0.0099999998 -0.071000002 16 16 0
3.217 -0.012 -0.081 17 16 0
3.2090001 -0.013 -0.090999998 19 16 0
3.2 -0.015 -0.101 20 16 0
3.1989999 -0.016000001 -0.112 22 16 0
3.194 -0.017000001 -0.122 25 16 0
3.187 -0.018999999 -0.132 27 16 0
3.1800001 -0.02 -0.142 32 16 0
3.178 -0.021 -0.152 35 16 0
3.1689999 -0.023 -0.161 37 16 0
3.1670001 -0.024 -0.17200001 45 16 0
3.1619999 -0.025 -0.182 59 16 0
3.1570001 -0.026000001 -0.191 77 16 0
3.151 -0.027000001 -0.20100001 94 16 0
3.1440001 -0.028999999 -0.211 124 16 0
3.1440001 -0.029999999 -0.221 128 16 0
3.1429999 -0.030999999 -0.23100001 128 16 0
3.1389999 -0.032000002 -0.241 123 16 0
3.135 -0.033 -0.25099999 132 16 0
3.1329999 -0.034000002 -0.26100001 131 16 0
3.131 -0.035 -0.271 118 16 0
3.1199999 -0.035999998 -0.28 129 16 0
3.118 -0.037 -0.28999999 126 16 0
3.118 -0.037999999 -0.30000001 142 16 0
3.1110001 -0.039000001 -0.30899999 121 16 0
3.112 -0.039999999 -0.31900001 131 16 0
3.1040001 -0.041000001 -0.329 124 16 0
3.099 -0.041999999 -0.338 141 16 0
3.098 -0.043000001 -0.34799999 134 16 0
3.0940001 -0.044 -0.35800001 128 16 0
3.085 -0.045000002 -0.36700001 150 16 0
3.0829999 -0.046 -0.37599999 139 16 0
3.0769999 -0.046 -0.38600001 134 16 0
3.076 -0.046999998 -0.396 137 16 0
3.0699999 -0.048 -0.405 136 16 0
3.066 -0.048999999 -0.414 121 16 0
3.0639999 -0.050000001 -0.42399999 132 16 0
3.062 -0.050000001 -0.43399999 150 16 0
3.0550001 -0.050999999 -0.44299999 150 16 0
3.053 -0.052000001 -0.45199999 145 16 0
3.0510001 -0.052000001 -0.46200001 150 16 0
3.043 -0.052999999 -0.47099999 138 16 0
3.0380001 -0.052999999 -0.47999999 117 16 0
3.0350001 -0.054000001 -0.49000001 150 16 0
3.0309999 -0.055 -0.49900001 150 16 0
3.0309999 -0.055 -0.509 139 16 0
3.0280001 -0.056000002 -0.51800001 141 16 0
3.0190001 -0.056000002 -0.52700001 143 16 0
3.0179999 -0.057 -0.53600001 142 16 0
3.013 -0.057 -0.546 141 16 0
3.0139999 -0.057999998 -0.55599999 141 16 0
3.0050001 -0.057999998 -0.56400001 130 16 0
3.0039999 -0.057999998 -0.574 135 16 0
2.9990001 -0.059 -0.58200002 142 16 0
2.997 -0.059 -0.59200001 146 16 0
2.9890001 -0.059 -0.60000002 136 16 0
2.9890001 -0.059999999 -0.61000001 139 16 0
2.9790001 -0.059999999 -0.61799997 139 16 0
2.977 -0.059999999 -0.62800002 138 16 0
2.9760001 -0.061000001 -0.63700002 150 16 0
2.9719999 -0.061000001 -0.64600003 138 16 0
2.9679999 -0.061000001 -0.65499997 133 16 0
2.9660001 -0.061000001 -0.66500002 143 16 0
2.9549999 -0.061000001 -0.67199999 129 16 0
2.9560001 -0.061000001 -0.68199998 131 16 0
2.9519999 -0.061999999 -0.69099998 126 16 0
2.948 -0.061999999 -0.69999999 135 16 0
2.9460001 -0.061999999 -0.70899999 137 16 0
2.941 -0.061999999 -0.71799999 132 16 0
2.938 -0.061999999 -0.727 150 16 0
2.9330001 -0.061999999 -0.736 150 16 0
2.931 -0.061999999 -0.745 150 16 0
2.921 -0.061999999 -0.75199997 150 16 0
2.9189999 -0.061000001 -0.76099998 150 16 0
2.9170001 -0.061000001 -0.76999998 150 16 0
2.914 -0.061000001 -0.77999997 150 16 0
2.9119999 -0.061000001 -0.78899997 150 16 0
2.9089999 -0.061000001 -0.79799998 150 16 0
2.898 -0.061000001 -0.80500001 150 16 0
2.8959999 -0.059999999 -0.81400001 150 16 0
2.892 -0.059999999 -0.82200003 150 16 0
2.891 -0.059999999 -0.83200002 150 16 0
2.882 -0.059999999 -0.83899999 150 16 0
2.882 -0.059 -0.84899998 150 16 0
2.8770001 -0.059 -0.85699999 150 16 0
2.8759999 -0.059 -0.866 150 16 0
2.8670001 -0.057999998 -0.87300003 150 16 0
2.8640001 -0.057999998 -0.88200003 150 16 0
2.8640001 -0.057 -0.89200002 150 16 0
2.859 -0.057 -0.89999998 150 16 0
2.8559999 -0.056000002 -0.90799999 150 16 0
2.8529999 -0.056000002 -0.917 150 16 0
2.848 -0.055 -0.92500001 150 16 0
2.842 -0.055 -0.93300003 150 16 0
2.842 -0.054000001 -0.94199997 150 16 0
2.8399999 -0.054000001 -0.95099998 150 16 0
2.8280001 -0.052999999 -0.95700002 150 16 0
2.825 -0.052000001 -0.96600002 150 16 0
2.8169999 -0.050999999 -0.972 150 16 0
2.819 -0.050999999 -0.98299998 150 16 0
2.812 -0.050000001 -0.99000001 150 16 0
2.799 -0.048999999 -0.99400002 150 16 0
2.796 -0.048 -1.003 150 16 0
2.7920001 -0.046999998 -1.011 150 16 0
2.789 -0.046 -1.02 150 16 0
2.7850001 -0.046 -1.027 150 16 0
2.7820001 -0.045000002 -1.036 150 16 0
2.777 -0.044 -1.044 150 16 0
2.776 -0.043000001 -1.053 127 16 0
2.77 -0.041999999 -1.0599999 112 16 0
2.7720001 -0.041000001 -1.0700001 100 16 0
2.766 -0.039999999 -1.077 72 16 0
2.7650001 -0.039000001 -1.086 49 16 0
2.7590001 -0.037 -1.0930001 39 16 0
2.7539999 -0.035999998 -1.1 33 16 0
2.7539999 -0.035 -1.109 29 16 0
2.7520001 -0.034000002 -1.118 26 16 0
2.7490001 -0.033 -1.126 23 16 0
2.7479999 -0.032000002 -1.135 22 16 0
2.7520001 -0.029999999 -1.146 20 16 0
2.7449999 -0.028999999 -1.152 18 16 0
2.7509999 -0.028000001 -1.164 18 16 0
2.7490001 -0.026000001 -1.1720001 18 16 0
2.747 -0.025 -1.181 18 16 0
2.747 -0.024 -1.1900001 18 16 0
2.743 -0.022 -1.198 18 16 0
2.744 -0.021 -1.207 18 16 0
2.74 -0.018999999 -1.215 18 16 0
2.744 -0.017999999 -1.225 21 16 0
2.7390001 -0.016000001 -1.232 21 16 0
2.74 -0.014 -1.242 21 16 0
2.747 -0.013 -1.2539999 21 16 0
2.744 -0.011 -1.262 21 16 0
2.7409999 -0.0089999996 -1.27 21 16 0
2.7420001 -0.0070000002 -1.279 22 16 0
2.744 -0.0060000001 -1.29 22 16 0
2.7449999 -0.0040000002 -1.299 23 16 0
2.7420001 -0.0020000001 -1.306 26 16 0
2.744 0 -1.316 30 16 0
2.747 0.001 -1.327 41 16 0
2.7460001 0.003 -1.335 49 16 0
2.7409999 0.0049999999 -1.342 125 16 0
2.7379999 0.0070000002 -1.349 143 16 0
2.733 0.0089999996 -1.3559999 150 16 0
2.724 0.011 -1.36 150 16 0
2.72 0.013 -1.367 150 16 0
2.7179999 0.015 -1.375 150 16 0
2.7090001 0.017000001 -1.3789999 137 16 0
2.7060001 0.02 -1.386 144 16 0
2.7019999 0.022 -1.393 143 16 0
2.6989999 0.024 -1.4 136 16 0
2.6930001 0.026000001 -1.405 112 16 0
2.6949999 0.028999999 -1.414 107 16 0
2.6900001 0.030999999 -1.421 78 16 0
2.687 0.033 -1.427 70 16 0
2.6789999 0.035999998 -1.431 83 16 0
2.6800001 0.037999999 -1.4400001 87 16 0
2.675 0.041000001 -1.446 114 16 0
2.671 0.043000001 -1.452 123 16 0
2.664 0.046 -1.456 128 16 0
2.6600001 0.048 -1.462 132 16 0
2.6589999 0.050999999 -1.47 135 16 0
2.651 0.052999999 -1.473 125 16 0
2.6500001 0.056000002 -1.4809999 118 16 0
2.6440001 0.059 -1.485 129 16 0
2.641 0.061000001 -1.4910001 128 16 0
2.6359999 0.064000003 -1.4960001 121 16 0
2.6340001 0.067000002 -1.503 118 16 0
2.6259999 0.07 -1.505 111 16 0
2.625 0.071999997 -1.513 117 16 0
2.622 0.075000003 -1.5190001 117 16 0
2.619 0.078000002 -1.524 117 16 0
2.618 0.081 -1.531 113 16 0
2.612 0.083999999 -1.534 111 16 0
2.6040001 0.086999997 -1.5369999 96 16 0
2.5999999 0.090000004 -1.5420001 101 16 0
2.5999999 0.093000002 -1.549 102 16 0
2.596 0.096000001 -1.554 97 16 0
2.5929999 0.098999999 -1.559 97 16 0
2.5899999 0.102 -1.564 94 16 0
2.5869999 0.105 -1.569 94 16 0
2.5810001 0.108 -1.571 93 16 0
2.576 0.111 -1.575 105 16 0
2.569 0.114 -1.5779999 99 16 0
2.566 0.117 -1.582 88 16 0
2.5639999 0.121 -1.587 94 16 0
2.559 0.124 -1.59 87 16 0
2.5580001 0.127 -1.596 91 16 0
2.5550001 0.13 -1.6 87 16 0
2.55 0.133 -1.603 88 16 0
2.5439999 0.13699999 -1.605 79 16 0
2.5450001 0.14 -1.6109999 86 16 0
2.5409999 0.14300001 -1.615 90 16 0
2.536 0.146 -1.617 93 16 0
2.5320001 0.15000001 -1.62 87 16 0
2.529 0.153 -1.623 88 16 0
2.529 0.15700001 -1.6289999 94 16 0
2.5179999 0.16 -1.627 85 16 0
2.523 0.164 -1.635 90 16 0
2.5120001 0.16599999 -1.633 85 16 0
2.5079999 0.17 -1.635 81 16 0
2.5050001 0.17299999 -1.638 79 16 0
2.5009999 0.176 -1.64 77 16 0
2.4990001 0.18000001 -1.643 84 16 0
2.497 0.183 -1.646 80 16 0
2.4949999 0.18700001 -1.649 82 16 0
2.4920001 0.19 -1.652 92 16 0
2.49 0.19400001 -1.654 86 16 0
2.4879999 0.197 -1.6569999 81 16 0
2.4849999 0.20100001 -1.659 84 16 0
2.483 0.205 -1.6619999 78 16 0
2.4820001 0.208 -1.664 76 16 0
2.4779999 0.211 -1.666 101 16 0
2.4760001 0.215 -1.668 103 16 0
2.4749999 0.219 -1.67 99 16 0
2.4679999 0.222 -1.669 100 16 0
2.4660001 0.22499999 -1.67 103 16 0
2.4649999 0.229 -1.6720001 97 16 0
2.4619999 0.233 -1.674 90 16 0
2.4590001 0.236 -1.674 89 16 0
2.4590001 0.23999999 -1.677 117 16 0
2.4560001 0.243 -1.677 114 16 0
2.4549999 0.24699999 -1.679 118 16 0
2.454 0.25 -1.6799999 117 16 0
2.447 0.25299999 -1.677 131 16 0
2.448 0.257 -1.6799999 112 16 0
2.447 0.26100001 -1.681 112 16 0
2.444 0.264 -1.6799999 121 16 0
2.4419999 0.26800001 -1.681 117 16 0
2.441 0.271 -1.681 125 16 0
2.4400001 0.27500001 -1.682 123 16 0
2.4349999 0.278 -1.6799999 109 16 0
2.4330001 0.28099999 -1.6799999 117 16 0
2.4300001 0.28400001 -1.678 128 16 0
2.4300001 0.28799999 -1.679 123 16 0
2.4289999 0.292 -1.679 120 16 0
2.4289999 0.29499999 -1.679 127 16 0
2.428 0.29800001 -1.679 123 16 0
2.428 0.30199999 -1.679 123 16 0
2.425 0.30500001 -1.677 125 16 0
2.421 0.308 -1.675 119 16 0
2.4170001 0.31099999 -1.6720001 126 16 0
2.4170001 0.31400001 -1.671 127 16 0
2.4119999 0.317 -1.6670001 125 16 0
2.4170001 0.32100001 -1.67 127 16 0
2.4119999 0.324 -1.666 123 16 0
2.4119999 0.32699999 -1.665 125 16 0
2.4119999 0.331 -1.664 123 16 0
2.4119999 0.33399999 -1.663 124 16 0
2.4089999 0.33700001 -1.66 128 16 0
2.4100001 0.34 -1.659 128 16 0
2.411 0.34299999 -1.658 138 16 0
2.4070001 0.34599999 -1.654 142 16 0
2.4089999 0.34900001 -1.653 137 16 0
2.408 0.352 -1.651 136 16 0
2.4070001 0.35499999 -1.648 140 16 0
2.408 0.35800001 -1.647 146 16 0
2.4059999 0.361 -1.643 132 16 0
2.4089999 0.36399999 -1.643 138 16 0
2.4100001 0.36700001 -1.641 136 16 0
2.4089999 0.37 -1.638 135 16 0
2.4119999 0.373 -1.637 141 16 0
2.411 0.37599999 -1.633 143 16 0
2.4089999 0.37799999 -1.6289999 150 16 0
2.402 0.38 -1.622 138 16 0
2.411 0.384 -1.624 127 16 0
2.404 0.38499999 -1.6160001 129 16 0
2.4059999 0.38800001 -1.614 133 16 0
2.411 0.391 -1.614 142 16 0
2.4089999 0.39399999 -1.609 144 16 0
2.405 0.39500001 -1.603 137 16 0
2.4089999 0.398 -1.601 138 16 0
2.4100001 0.40099999 -1.598 142 16 0
2.404 0.40200001 -1.59 148 16 0
2.404 0.40400001 -1.586 150 16 0
2.408 0.40700001 -1.584 150 16 0
2.408 0.40900001 -1.579 150 16 0
2.4089999 0.412 -1.576 150 16 0
2.411 0.414 -1.572 150 16 0
2.4119999 0.41600001 -1.568 140 16 0
2.414 0.419 -1.5650001 146 16 0
2.4159999 0.421 -1.561 150 16 0
2.411 0.42199999 -1.552 144 16 0
2.415 0.42399999 -1.55 150 16 0
2.4170001 0.426 -1.546 150 16 0
2.414 0.428 -1.539 150 16 0
2.4170001 0.43000001 -1.535 150 16 0
2.421 0.43200001 -1.5319999 150 16 0
2.4230001 0.43399999 -1.528 150 16 0
2.424 0.43599999 -1.523 150 16 0
2.4230001 0.43700001 -1.517 150 16 0
2.4260001 0.43900001 -1.513 150 16 0
2.427 0.44 -1.508 150 16 0
2.428 0.442 -1.502 150 16 0
2.427 0.44299999 -1.4960001 150 16 0
2.4260001 0.44400001 -1.488 150 16 0
2.431 0.44600001 -1.485 150 16 0
2.431 0.447 -1.479 150 16 0
2.4330001 0.44800001 -1.474 150 16 0
2.4389999 0.44999999 -1.471 150 16 0
2.438 0.45100001 -1.464 150 16 0
2.4419999 0.45300001 -1.459 150 16 0
2.4430001 0.454 -1.454 150 16 0
2.4460001 0.45500001 -1.449 150 16 0
2.447 0.456 -1.443 150 16 0
2.4489999 0.45699999 -1.437 150 16 0
2.4519999 0.458 -1.432 150 16 0
2.4549999 0.45899999 -1.426 150 16 0
2.4579999 0.46000001 -1.421 150 16 0
2.461 0.461 -1.416 150 16 0
2.464 0.46200001 -1.41 150 16 0
2.467 0.463 -1.405 150 16 0
2.47 0.46399999 -1.399 150 16 0
2.473 0.465 -1.393 150 16 0
2.47 0.46399999 -1.385 150 16 0
2.4719999 0.465 -1.378 150 16 0
2.4760001 0.46599999 -1.373 150 16 0
2.4790001 0.46599999 -1.367 150 16 0
2.4790001 0.46599999 -1.359 150 16 0
2.4820001 0.46700001 -1.354 150 16 0
2.4879999 0.46799999 -1.349 150 16 0
2.49 0.46799999 -1.3430001 150 16 0
2.49 0.46799999 -1.335 150 16 0
2.494 0.46799999 -1.329 150 16 0
2.4909999 0.46799999 -1.3200001 150 16 0
2.4960001 0.46799999 -1.314 150 16 0
2.5050001 0.47 -1.311 150 16 0
2.5039999 0.46900001 -1.303 150 16 0
2.5120001 0.47 -1.299 150 16 0
2.5109999 0.46900001 -1.291 150 16 0
2.5120001 0.46900001 -1.283 150 16 0
2.5179999 0.46900001 -1.278 150 16 0
2.517 0.46799999 -1.2690001 150 16 0
2.5239999 0.46900001 -1.265 150 16 0
2.5250001 0.46799999 -1.257 150 16 0
2.53 0.46900001 -1.251 150 16 0
2.5280001 0.46700001 -1.242 150 16 0
2.5350001 0.46799999 -1.237 150 16 0
2.5380001 0.46700001 -1.2309999 150 16 0
2.543 0.46700001 -1.225 150 16 0
2.543 0.46599999 -1.216 150 16 0
2.55 0.46599999 -1.211 150 16 0
2.5480001 0.465 -1.202 150 16 0
2.5550001 0.465 -1.197 150 16 0
2.5550001 0.46399999 -1.189 150 16 0
2.5610001 0.46399999 -1.183 150 16 0
2.5650001 0.463 -1.176 150 16 0
2.5650001 0.46200001 -1.168 150 16 0
2.5710001 0.46200001 -1.1619999 150 16 0
2.575 0.461 -1.155 150 16 0
2.5780001 0.46000001 -1.148 150 16 0
2.5810001 0.45899999 -1.141 150 16 0
2.586 0.458 -1.135 150 16 0
2.5910001 0.458 -1.128 150 16 0
2.5929999 0.456 -1.12 150 16 0
2.598 0.456 -1.114 150 16 0
2.5999999 0.454 -1.1059999 150 16 0
2.6029999 0.45300001 -1.099 150 16 0
2.6059999 0.45199999 -1.091 150 16 0
2.612 0.45100001 -1.085 150 16 0
2.6140001 0.449 -1.0779999 150 16 0
2.6199999 0.449 -1.071 150 16 0
2.6240001 0.447 -1.064 150 16 0
2.632 0.447 -1.059 150 16 0
2.6340001 0.44499999 -1.051 150 16 0
2.638 0.44400001 -1.044 137 16 0
2.6459999 0.44299999 -1.038 13 16 0
2.49 0.41499999 -0.96799999 0 17 0
2.595 0.43000001 -1.001 0 18 0
2.5320001 0.41800001 -0.96799999 0 19 0
2.6600001 0.43700001 -1.008 0 17 0
2.658 0.43399999 -0.99900001 0 16 0
2.589 0.421 -0.96399999 0 17 0
2.608 0.42199999 -0.963 0 16 0
2.681 0.43099999 -0.98100001 0 16 0
2.6819999 0.42899999 -0.972 0 16 0
2.638 0.419 -0.94800001 0 18 0
2.6960001 0.426 -0.95999998 5 16 0
2.698 0.42399999 -0.95200002 72 16 0
2.697 0.421 -0.94199997 150 16 0
2.6930001 0.41800001 -0.93199998 150 16 0
2.697 0.41600001 -0.92500001 150 16 0
2.711 0.41600001 -0.921 150 16 0
2.711 0.41299999 -0.912 150 16 0
2.717 0.41100001 -0.90499997 150 16 0
2.72 0.40900001 -0.89700001 150 16 0
2.727 0.40700001 -0.88999999 150 16 0
2.7320001 0.405 -0.88300002 150 16 0
2.733 0.403 -0.875 150 16 0
2.737 0.40000001 -0.86699998 150 16 0
2.744 0.39899999 -0.86000001 150 16 0
2.744 0.396 -0.852 150 16 0
2.75 0.39399999 -0.84399998 150 16 0
2.76 0.39199999 -0.83899999 150 16 0
2.7639999 0.38999999 -0.83099997 150 16 0
2.767 0.38699999 -0.82300001 150 16 0
2.7690001 0.384 -0.81400001 150 16 0
2.7739999 0.382 -0.80699998 150 16 0
2.78 0.38 -0.80000001 150 16 0
2.7839999 0.377 -0.792 150 16 0
2.7869999 0.37400001 -0.78399998 150 16 0
2.7920001 0.37200001 -0.77700001 150 16 0
2.7969999 0.36899999 -0.76899999 150 16 0
2.8010001 0.36700001 -0.76099998 150 16 0
2.809 0.36399999 -0.755 150 16 0
2.813 0.36199999 -0.74699998 150 16 0
2.819 0.359 -0.74000001 150 16 0
2.8210001 0.35600001 -0.73100001 150 16 0
2.8280001 0.354 -0.72399998 150 16 0
2.8340001 0.35100001 -0.71700001 150 16 0
2.839 0.34799999 -0.70899999 150 16 0
2.8399999 0.345 -0.69999999 150 16 0
2.8429999 0.34200001 -0.69199997 150 16 0
2.852 0.33899999 -0.685 150 16 0
2.8570001 0.336 -0.67799997 150 16 0
2.8610001 0.333 -0.67000002 150 16 0
2.8659999 0.33000001 -0.662 150 16 0
2.8710001 0.32699999 -0.65399998 150 16 0
2.8740001 0.324 -0.64600003 150 16 0
2.8759999 0.32100001 -0.63800001 150 16 0
2.892 0.31900001 -0.63200003 150 16 0
2.8959999 0.31600001 -0.62400001 150 16 0
2.9030001 0.31299999 -0.61699998 150 16 0
2.905 0.30899999 -0.60799998 150 16 0
2.911 0.30599999 -0.60100001 150 16 0
2.9119999 0.30199999 -0.59200001 150 16 0
2.9189999 0.29899999 -0.58399999 150 16 0
2.9300001 0.296 -0.57800001 150 16 0
2.9319999 0.29300001 -0.56900001 150 16 0
2.934 0.289 -0.56099999 150 16 0
2.9419999 0.28600001 -0.55299997 150 16 0
2.9489999 0.28299999 -0.54500002 150 16 0
2.96 0.28 -0.53799999 150 16 0
2.9619999 0.27599999 -0.52999997 150 16 0
2.9679999 0.27200001 -0.52200001 150 16 0
2.9690001 0.26800001 -0.51300001 150 16 0
2.9749999 0.26499999 -0.505 150 16 0
2.983 0.26199999 -0.498 150 16 0
2.98 0.257 -0.48800001 150 16 0
2.9909999 0.25400001 -0.48100001 150 16 0
2.9960001 0.25 -0.47299999 150 16 0
2.9990001 0.24600001 -0.46399999 150 16 0
3.0109999 0.243 -0.45699999 150 16 0
3.0150001 0.23899999 -0.449 150 16 0
3.0209999 0.235 -0.44100001 150 16 0
3.023 0.23100001 -0.43200001 150 16 0
3.027 0.227 -0.42399999 150 16 0
3.0369999 0.22400001 -0.41600001 150 16 0
3.04 0.22 -0.40799999 150 16 0
3.0480001 0.21600001 -0.40000001 150 16 0
3.052 0.212 -0.391 150 16 0
3.0599999 0.208 -0.38299999 150 16 0
3.0639999 0.204 -0.375 150 16 0
3.069 0.199 -0.366 150 16 0
3.0710001 0.19499999 -0.35699999 150 16 0
3.086 0.192 -0.34999999 150 16 0
3.0899999 0.18700001 -0.34200001 150 16 0
3.0940001 0.183 -0.333 150 16 0
3.098 0.17900001 -0.32499999 150 16 0
3.1070001 0.175 -0.31600001 150 16 0
3.1159999 0.17 -0.308 150 16 0
3.122 0.16599999 -0.30000001 150 16 0
3.1229999 0.161 -0.29100001 150 16 0
3.131 0.15700001 -0.28299999 150 16 0
3.135 0.153 -0.27399999 150 16 0
3.1440001 0.148 -0.26499999 150 16 0
3.151 0.14399999 -0.257 150 16 0
3.1589999 0.139 -0.249 150 16 0
3.164 0.13500001 -0.23999999 150 16 0
3.1730001 0.13 -0.23199999 150 16 0
3.177 0.126 -0.223 150 16 0
3.181 0.121 -0.214 149 16 0
3.1900001 0.116 -0.205 150 16 0
3.2 0.112 -0.197 142 16 0
3.201 0.107 -0.18799999 143 16 0
3.2149999 0.102 -0.17900001 138 16 0
3.22 0.097000003 -0.171 132 16 0
3.2249999 0.093000002 -0.162 140 16 0
3.2309999 0.088 -0.153 135 16 0
3.2409999 0.082999997 -0.14399999 150 16 0
3.244 0.078000002 -0.13500001 148 16 0
3.2479999 0.072999999 -0.126 137 16 0
3.2609999 0.068000004 -0.117 137 16 0
3.26 0.061999999 -0.108 63 16 0
3.2679999 0.057 -0.098999999 53 16 0
3.2780001 0.052000001 -0.090000004 80 16 0
3.2809999 0.046999998 -0.081 150 16 0
3.2820001 0.041999999 -0.071999997 138 16 0
3.299 0.037 -0.063000001 136 16 0
3.3099999 0.030999999 -0.054000001 81 16 0
3.3110001 0.026000001 -0.045000002 38 16 0
3.3069999 0.021 -0.035 24 16 0
3.296 0.015 -0.026000001 21 16 0
3.2920001 0.0099999998 -0.017000001 21 16 0
3.277 0.0040000002 -0.0080000004 20 16 0
3.2720001 0 0.001 20 16 0
3.2620001 -0.0060000001 0.0099999998 21 16 0
3.2620001 -0.011 0.018999999 33 16 0
3.257 -0.016000001 0.028000001 77 16 0
3.2690001 -0.022 0.037 150 16 0
3.27 -0.027000001 0.046 150 16 0
3.2809999 -0.033 0.055 150 16 0
3.2869999 -0.039000001 0.064000003 150 16 0
3.2969999 -0.044 0.074000001 150 16 0
3.3010001 -0.050000001 0.082999997 150 16 0
3.3069999 -0.056000002 0.092 150 16 0
3.3139999 -0.061000001 0.101 150 16 0
3.313 -0.067000002 0.11 55 16 0
3.3099999 -0.072999999 0.119 32 16 0
3.303 -0.078000002 0.12800001 31 16 0
3.2909999 -0.083999999 0.13699999 30 16 0
3.283 -0.089000002 0.146 31 16 0
3.276 -0.094999999 0.154 31 16 0
3.263 -0.1 0.163 30 16 0
3.257 -0.105 0.171 31 16 0
3.2520001 -0.111 0.18000001 31 16 0
3.237 -0.116 0.18799999 30 16 0
3.2320001 -0.122 0.19599999 31 16 0
3.2179999 -0.127 0.204 31 16 0
3.2130001 -0.132 0.213 31 16 0
3.2079999 -0.138 0.221 29 16 0
3.201 -0.14300001 0.229 29 16 0
3.188 -0.148 0.237 29 16 0
3.177 -0.154 0.245 31 16 0
3.1719999 -0.15899999 0.25299999 30 16 0
3.165 -0.164 0.26100001 30 16 0
3.1489999 -0.169 0.26800001 29 16 0
3.1459999 -0.175 0.27700001 30 16 0
3.135 -0.18000001 0.28400001 30 16 0
3.125 -0.185 0.292 29 16 0
3.1159999 -0.19 0.29899999 28 16 0
3.1059999 -0.19499999 0.30700001 28 16 0
3.098 -0.2 0.31400001 28 16 0
3.089 -0.206 0.32100001 29 16 0
3.079 -0.211 0.329 28 16 0
3.075 -0.21600001 0.33700001 28 16 0
3.0639999 -0.221 0.34400001 29 16 0
3.0510001 -0.226 0.34999999 27 16 0
3.049 -0.23100001 0.35800001 28 16 0
3.0380001 -0.236 0.36500001 31 16 0
3.027 -0.241 0.37200001 30 16 0
3.0190001 -0.24600001 0.37900001 30 16 0
3.0139999 -0.252 0.38600001 31 16 0
3.0009999 -0.25600001 0.39300001 31 16 0
2.99 -0.26100001 0.39899999 31 16 0
2.9849999 -0.266 0.40700001 32 16 0
2.9690001 -0.271 0.412 31 16 0
2.96 -0.27599999 0.419 31 16 0
2.9530001 -0.28099999 0.426 30 16 0
2.948 -0.28600001 0.433 30 16 0
2.9419999 -0.29100001 0.44 29 16 0
2.9289999 -0.296 0.44600001 30 16 0
2.9230001 -0.301 0.45199999 31 16 0
2.9170001 -0.30599999 0.45899999 32 16 0
2.905 -0.31 0.465 31 16 0
2.8959999 -0.315 0.47099999 31 16 0
2.8870001 -0.31999999 0.477 31 16 0
2.8829999 -0.32499999 0.484 31 16 0
2.8699999 -0.33000001 0.49000001 31 16 0
2.8640001 -0.33500001 0.49599999 32 16 0
2.8540001 -0.33899999 0.50199997 31 16 0
2.8429999 -0.34400001 0.50700003 32 16 0
2.8369999 -0.34900001 0.514 32 16 0
2.832 -0.354 0.51999998 32 16 0
2.8210001 -0.359 0.52600002 32 16 0
2.8139999 -0.36300001 0.53200001 32 16 0
2.8069999 -0.368 0.53799999 32 16 0
2.8 -0.373 0.54400003 31 16 0
2.7880001 -0.377 0.54900002 31 16 0
2.7820001 -0.38299999 0.55500001 34 16 0
2.7720001 -0.38699999 0.56 35 16 0
2.7639999 -0.39199999 0.565 37 16 0
2.7609999 -0.39700001 0.57200003 38 16 0
2.7460001 -0.40099999 0.57599998 37 16 0
2.7390001 -0.40599999 0.58200002 36 16 0
2.73 -0.41 0.58700001 38 16 0
2.7219999 -0.41499999 0.59200001 37 16 0
2.7160001 -0.41999999 0.59799999 39 16 0
2.7079999 -0.42399999 0.60299999 36 16 0
2.697 -0.428 0.60699999 38 16 0
2.694 -0.43399999 0.61400002 36 16 0
2.6830001 -0.43799999 0.61799997 37 16 0
2.674 -0.442 0.62300003 42 16 0
2.6689999 -0.447 0.62800002 37 16 0
2.652 -0.44999999 0.63099998 38 16 0
2.6470001 -0.45500001 0.63700002 38 16 0
2.641 -0.46000001 0.64200002 40 16 0
2.6370001 -0.465 0.648 41 16 0
2.632 -0.47 0.653 40 16 0
2.618 -0.47400001 0.65600002 43 16 0
2.6159999 -0.479 0.662 47 16 0
2.6129999 -0.48500001 0.66799998 48 16 0
2.6040001 -0.48899999 0.67199999 42 16 0
2.5899999 -0.49200001 0.67500001 46 16 0
2.5810001 -0.49599999 0.67900002 45 16 0
2.573 -0.50099999 0.68400002 49 16 0
2.5669999 -0.505 0.68800002 60 16 0
2.562 -0.50999999 0.69300002 55 16 0
2.5450001 -0.51300001 0.69499999 47 16 0
2.5409999 -0.51800001 0.69999999 50 16 0
2.5309999 -0.52200001 0.704 59 16 0
2.5209999 -0.52600002 0.70700002 48 16 0
2.5150001 -0.52999997 0.71200001 56 16 0
2.51 -0.53500003 0.71700001 60 16 0
2.5009999 -0.53899997 0.72000003 60 16 0
2.4960001 -0.54400003 0.72500002 61 16 0
2.484 -0.54699999 0.727 69 16 0
2.4790001 -0.55199999 0.73199999 62 16 0
2.4679999 -0.55599999 0.73500001 61 16 0
2.4560001 -0.55900002 0.73699999 56 16 0
2.4530001 -0.56400001 0.74199998 62 16 0
2.448 -0.56900001 0.74599999 63 16 0
2.438 -0.57300001 0.74900001 62 16 0
2.4330001 -0.57700002 0.75300002 72 16 0
2.4230001 -0.58099997 0.75599998 60 16 0
2.418 -0.58600003 0.75999999 65 16 0
2.408 -0.58899999 0.76200002 68 16 0
2.3959999 -0.59200001 0.764 72 16 0
2.392 -0.597 0.76899999 81 16 0
2.378 -0.60000002 0.76999998 53 16 0
2.372 -0.60399997 0.773 75 16 0
2.3659999 -0.60799998 0.77700001 70 16 0
2.3610001 -0.61299998 0.78100002 70 16 0
2.3499999 -0.616 0.78200001 74 16 0
2.3429999 -0.62 0.78600001 76 16 0
2.3340001 -0.62400001 0.78799999 75 16 0
2.3310001 -0.62900001 0.792 81 16 0
2.3210001 -0.63200003 0.79400003 79 16 0
2.312 -0.63499999 0.796 75 16 0
2.3039999 -0.639 0.79799998 79 16 0
2.299 -0.64399999 0.80199999 79 16 0
2.2869999 -0.64600003 0.80199999 116 16 0
2.2820001 -0.65100002 0.80599999 111 16 0
2.2750001 -0.65399998 0.80800003 118 16 0
2.2690001 -0.65899998 0.81099999 119 16 0
2.2650001 -0.66299999 0.81400001 121 16 0
2.253 -0.66600001 0.815 118 16 0
2.2490001 -0.67000002 0.81800002 112 16 0
2.2390001 -0.67299998 0.81900001 111 16 0
2.2290001 -0.676 0.81999999 103 16 0
2.221 -0.68000001 0.82200003 102 16 0
2.2160001 -0.68400002 0.82499999 133 16 0
2.2049999 -0.68599999 0.82499999 127 16 0
2.198 -0.69 0.82700002 129 16 0
2.1930001 -0.69400001 0.82999998 130 16 0
2.1830001 -0.69700003 0.82999998 145 16 0
2.1760001 -0.70099998 0.83200002 143 16 0
2.168 -0.704 0.83399999 139 16 0
2.165 -0.70899999 0.83700001 137 16 0
2.152 -0.70999998 0.83600003 138 16 0
2.1470001 -0.71399999 0.838 145 16 0
2.1429999 -0.71799999 0.83999997 150 16 0
2.1359999 -0.722 0.84200001 123 16 0
2.1229999 -0.72299999 0.84100002 122 16 0
2.1159999 -0.72600001 0.84200001 135 16 0
2.112 -0.73100001 0.84399998 134 16 0
2.108 -0.73500001 0.84600002 149 16 0
2.096 -0.73699999 0.84500003 140 16 0
2.0899999 -0.74000001 0.847 150 16 0
2.085 -0.74400002 0.84799999 134 16 0
2.073 -0.745 0.847 142 16 0
2.069 -0.74900001 0.84899998 145 16 0
2.0610001 -0.75199997 0.84899998 149 16 0
2.05 -0.75400001 0.84799999 131 16 0
2.0480001 -0.75800002 0.85100001 142 16 0
2.039 -0.75999999 0.85000002 134 16 0
2.036 -0.76499999 0.85299999 143 16 0
2.029 -0.76800001 0.85299999 137 16 0
2.0220001 -0.77100003 0.85299999 130 16 0
2.0120001 -0.77200001 0.852 128 16 0
2.0079999 -0.77600002 0.85399997 145 16 0
2.0020001 -0.77899998 0.85399997 140 16 0
1.994 -0.78100002 0.85299999 128 16 0
1.9859999 -0.78299999 0.85299999 132 16 0
1.985 -0.78899997 0.85500002 148 16 0
1.974 -0.78899997 0.85299999 135 16 0
1.971 -0.79299998 0.85500002 141 16 0
1.967 -0.79699999 0.85600001 150 16 0
1.959 -0.79900002 0.85500002 150 16 0
1.948 -0.79900002 0.852 150 16 0
1.943 -0.80199999 0.85299999 150 16 0
1.937 -0.80500001 0.85299999 150 16 0
1.934 -0.80900002 0.85299999 150 16 0
1.927 -0.81099999 0.85299999 150 16 0
1.92 -0.81300002 0.852 150 16 0
1.918 -0.81699997 0.85299999 150 16 0
1.915 -0.82099998 0.85399997 150 16 0
1.906 -0.82200003 0.852 150 16 0
1.892 -0.82099998 0.84799999 150 16 0
1.883 -0.82099998 0.84500003 150 16 0
1.8789999 -0.82499999 0.84600002 150 16 0
1.875 -0.82800001 0.84600002 150 16 0
1.87 -0.82999998 0.84500003 150 16 0
1.868 -0.83399999 0.84600002 150 16 0
1.859 -0.83399999 0.84299999 150 16 0
1.855 -0.83700001 0.84299999 150 16 0
1.858 -0.84299999 0.84600002 150 16 0
1.848 -0.84299999 0.84299999 150 16 0
1.84 -0.84399998 0.83999997 150 16 0
1.837 -0.847 0.83999997 150 16 0
1.831 -0.84899998 0.83899999 150 16 0
1.827 -0.85100001 0.838 150 16 0
1.8200001 -0.852 0.83600003 150 16 0
1.818 -0.85500002 0.83600003 150 16 0
1.811 -0.85600001 0.83399999 150 16 0
1.808 -0.85900003 0.833 150 16 0
1.802 -0.86000001 0.83099997 150 16 0
1.7970001 -0.86199999 0.829 150 16 0
1.795 -0.86500001 0.829 150 16 0
1.793 -0.86799997 0.829 150 16 0
1.781 -0.866 0.824 150 19 0
1.777 -0.86799997 0.82200003 150 16 0
1.775 -0.87099999 0.82200003 150 16 0
1.7690001 -0.87099999 0.81900001 150 16 0
1.768 -0.87400001 0.81900001 150 16 0
1.761 -0.875 0.81599998 150 16 0
1.758 -0.87599999 0.81400001 150 16 0
1.7539999 -0.87800002 0.81300002 150 16 0
1.749 -0.87900001 0.81 150 16 0
1.744 -0.88 0.80800003 150 16 0
1.74 -0.88099998 0.80599999 150 16 0
1.739 -0.884 0.80500001 150 16 0
1.734 -0.88499999 0.80299997 150 16 0
1.729 -0.88499999 0.80000001 150 16 0
1.729 -0.88800001 0.79900002 150 16 0
1.728 -0.88999999 0.79799998 150 16 0
1.72 -0.889 0.79400003 150 19 0
1.7180001 -0.89099997 0.79299998 150 16 0
1.7130001 -0.89099997 0.79000002 150 16 0
1.709 -0.89200002 0.787 150 16 0
1.7079999 -0.89399999 0.78600001 150 16 0
1.71 -0.898 0.78600001 150 16 0
1.698 -0.89399999 0.77999997 150 18 0
1.696 -0.89499998 0.77700001 150 16 0
1.694 -0.89600003 0.77499998 150 16 0
1.693 -0.898 0.77399999 150 16 0
1.692 -0.89999998 0.77200001 150 16 0
1.688 -0.89999998 0.76899999 150 16 0
1.686 -0.90100002 0.76700002 150 16 0
1.676 -0.898 0.76099998 150 18 0
1.673 -0.898 0.75800002 150 16 0
1.67 -0.898 0.755 150 16 0
1.67 -0.89999998 0.75400001 150 16 0
1.668 -0.90100002 0.75099999 150 16 0
1.666 -0.90200001 0.74900001 150 16 0
1.6670001 -0.90399998 0.74699998 150 16 0
1.664 -0.903 0.74400002 150 16 0
1.66 -0.903 0.741 150 16 0
1.663 -0.90600002 0.74000001 150 16 0
1.658 -0.90499997 0.736 150 16 0
1.658 -0.90499997 0.73400003 150 16 0
1.658 -0.90700001 0.73199999 150 16 0
1.655 -0.90700001 0.72899997 150 16 0
1.656 -0.90799999 0.72600001 150 16 0
1.656 -0.90899998 0.72399998 150 16 0
1.651 -0.90700001 0.72000003 150 19 0
1.651 -0.90799999 0.71700001 150 16 0
1.652 -0.90899998 0.71499997 150 16 0
1.65 -0.90899998 0.71200001 150 16 0
1.643 -0.90600002 0.70700002 150 19 0
1.6440001 -0.90600002 0.70499998 150 16 0
1.645 -0.90700001 0.70200002 150 16 0
1.645 -0.90799999 0.69999999 150 16 0
1.643 -0.90700001 0.69599998 150 16 0
1.64 -0.90499997 0.69199997 150 16 0
1.641 -0.90600002 0.69 150 16 0
1.638 -0.90499997 0.68599999 150 16 0
1.638 -0.90399998 0.68300003 150 16 0
1.6390001 -0.90499997 0.68099999 150 16 0
1.641 -0.90600002 0.67799997 150 16 0
1.638 -0.90399998 0.67500001 150 16 0
1.6390001 -0.90399998 0.67199999 150 16 0
1.637 -0.903 0.66799998 150 16 0
1.637 -0.90200001 0.66500002 150 16 0
1.6390001 -0.903 0.66299999 150 16 0
1.64 -0.903 0.66000003 150 16 0
1.64 -0.90200001 0.65600002 150 16 0
1.641 -0.90200001 0.65399998 150 16 0
1.642 -0.90200001 0.65100002 150 16 0
1.642 -0.89999998 0.64700001 150 16 0
1.641 -0.89899999 0.64399999 150 16 0
1.643 -0.89899999 0.64099997 150 16 0
1.6440001 -0.89899999 0.63800001 150 16 0
1.643 -0.89700001 0.634 150 16 0
1.642 -0.89499998 0.63 150 16 0
1.643 -0.89399999 0.62699997 150 16 0
1.65 -0.89700001 0.62599999 150 16 0
1.64 -0.88999999 0.61900002 150 16 0
1.642 -0.889 0.616 150 16 0
1.642 -0.88800001 0.61299998 150 16 0
1.645 -0.88800001 0.61000001 150 16 0
1.646 -0.88700002 0.60699999 150 16 0
1.654 -0.889 0.60600001 150 16 0
1.649 -0.88499999 0.60100001 150 16 0
1.65 -0.884 0.59799999 150 16 0
1.653 -0.88300002 0.59500003 150 16 0
1.66 -0.88499999 0.59399998 150 16 0
1.655 -0.88 0.588 150 16 0
1.658 -0.88 0.58600003 150 16 0
1.66 -0.87800002 0.58200002 150 16 0
1.6670001 -0.88 0.58099997 2 0 0
1.669 -0.87800002 0.57800001 2 0 0
1.664 -0.87400001 0.57300001 150 16 0
1.668 -0.87300003 0.56999999 2 0 0
1.67 -0.87199998 0.56699997 2 0 0
1.676 -0.87300003 0.565 2 0 0
1.6799999 -0.87199998 0.56199998 2 0 0
1.682 -0.87 0.55900002 2 0 0
1.684 -0.86799997 0.55599999 2 0 0
1.6849999 -0.866 0.55199999 150 16 0
1.689 -0.866 0.55000001 150 16 0
1.689 -0.86299998 0.546 150 16 0
1.693 -0.86199999 0.54299998 150 16 0
1.6950001 -0.86000001 0.54000002 150 16 0
1.697 -0.85799998 0.53600001 2 0 0
1.7 -0.85600001 0.53299999 150 16 0
1.704 -0.85500002 0.53100002 150 16 0
1.706 -0.85299999 0.52700001 150 16 0
1.71 -0.852 0.52399999 143 16 0
1.7079999 -0.847 0.51999998 149 16 0
1.714 -0.847 0.51800001 150 16 0
1.7180001 -0.84600002 0.51499999 148 16 0
1.721 -0.84299999 0.51099998 150 16 0
1.723 -0.84100002 0.50800002 150 16 0
1.725 -0.83899999 0.505 145 16 0
1.727 -0.83600003 0.50099999 150 16 0
1.729 -0.83399999 0.498 145 16 0
1.732 -0.83099997 0.495 150 16 0
1.7359999 -0.829 0.491 147 16 0
1.74 -0.82800001 0.48899999 150 16 0
1.7460001 -0.82700002 0.486 137 16 0
1.755 -0.82700002 0.48500001 146 16 0
1.755 -0.82300001 0.48100001 142 16 0
1.7589999 -0.82099998 0.47799999 138 16 0
1.7589999 -0.81699997 0.47400001 149 16 0
1.7640001 -0.815 0.47099999 148 16 0
1.77 -0.81400001 0.46799999 132 16 0
1.772 -0.81099999 0.465 125 16 0
1.78 -0.81 0.463 136 16 0
1.784 -0.80800003 0.46000001 133 16 0
1.786 -0.80500001 0.456 141 16 0
1.788 -0.801 0.45300001 135 16 0
1.7970001 -0.801 0.45100001 132 16 0
1.799 -0.79799998 0.44800001 123 16 0
1.803 -0.79500002 0.44400001 129 16 0
1.807 -0.792 0.44100001 140 16 0
1.809 -0.78899997 0.43799999 132 16 0
1.817 -0.787 0.435 139 16 0
1.819 -0.78399998 0.43200001 132 16 0
1.824 -0.78200001 0.42899999 126 16 0
1.827 -0.778 0.426 123 16 0
1.832 -0.77600002 0.42300001 129 16 0
1.836 -0.773 0.41999999 127 16 0
1.839 -0.76899999 0.417 129 16 0
1.841 -0.76499999 0.41299999 126 16 0
1.845 -0.76200002 0.41 112 16 0
1.85 -0.75999999 0.40700001 111 16 0
1.865 -0.76099998 0.40700001 115 16 0
1.869 -0.75700003 0.403 114 16 0
1.877 -0.75599998 0.40099999 95 16 0
1.882 -0.75300002 0.398 78 16 0
1.887 -0.75 0.39500001 90 16 0
1.897 -0.74900001 0.39300001 94 16 0
1.9 -0.745 0.38999999 92 16 0
1.908 -0.74299997 0.38800001 90 16 0
1.911 -0.73900002 0.384 90 16 0
1.9170001 -0.736 0.38100001 81 16 0
1.92 -0.73199999 0.37799999 90 16 0
1.925 -0.72899997 0.375 84 16 0
1.931 -0.72600001 0.37200001 78 16 0
1.933 -0.72100002 0.36899999 72 16 0
1.943 -0.72000003 0.36700001 85 16 0
1.95 -0.71700001 0.36399999 82 16 0
1.956 -0.71399999 0.361 79 16 0
1.9630001 -0.71100003 0.359 86 16 0
1.967 -0.70700002 0.35600001 86 16 0
1.969 -0.70200002 0.352 82 16 0
1.9809999 -0.70099998 0.34999999 76 16 0
1.985 -0.69700003 0.347 82 16 0
1.99 -0.69300002 0.34400001 81 16 0
2.0020001 -0.69099998 0.34200001 85 16 0
2.006 -0.68699998 0.33899999 82 16 0
2.0120001 -0.68300003 0.336 74 16 0
2.02 -0.68000001 0.33399999 77 16 0
2.023 -0.676 0.33000001 71 16 0
2.0369999 -0.67400002 0.329 70 16 0
2.04 -0.67000002 0.32499999 66 16 0
2.0450001 -0.66600001 0.322 71 16 0
2.052 -0.662 0.31999999 75 16 0
2.0599999 -0.65899998 0.317 68 16 0
2.0710001 -0.65600002 0.315 74 16 0
2.079 -0.653 0.31200001 69 16 0
2.0840001 -0.648 0.30899999 67 16 0
2.092 -0.64499998 0.30700001 69 16 0
2.099 -0.64099997 0.30399999 66 16 0
2.1059999 -0.63700002 0.301 72 16 0
2.1129999 -0.63300002 0.29800001 67 16 0
2.119 -0.62900001 0.29499999 67 16 0
2.1289999 -0.62599999 0.29300001 66 16 0
2.131 -0.62 0.28999999 67 16 0
2.1489999 -0.61900002 0.28799999 63 16 0
2.158 -0.616 0.28600001 60 16 0
2.1659999 -0.61199999 0.28299999 57 16 0
2.174 -0.60699999 0.28 53 16 0
2.1789999 -0.602 0.27700001 59 16 0
2.1900001 -0.59899998 0.27500001 44 16 0
2.2 -0.59500003 0.27200001 46 16 0
2.207 -0.59100002 0.26899999 44 16 0
2.2190001 -0.588 0.26699999 48 16 0
2.2249999 -0.583 0.264 49 16 0
2.233 -0.57800001 0.26100001 44 16 0
2.2409999 -0.574 0.25799999 47 16 0
2.25 -0.56999999 0.25600001 46 16 0
2.256 -0.56400001 0.25299999 44 16 0
2.2679999 -0.56099999 0.25 43 16 0
2.2750001 -0.55599999 0.248 43 16 0
2.2869999 -0.55199999 0.245 36 16 0
2.2920001 -0.546 0.242 36 16 0
2.302 -0.542 0.23899999 40 16 0
2.3139999 -0.53799999 0.237 37 16 0
2.3239999 -0.53399998 0.234 39 16 0
2.3380001 -0.52999997 0.23199999 39 16 0
2.3440001 -0.52399999 0.229 36 16 0
2.355 -0.51999998 0.226 32 16 0
2.365 -0.51499999 0.22400001 30 16 0
2.375 -0.50999999 0.221 37 16 0
2.382 -0.505 0.21799999 40 16 0
2.3940001 -0.5 0.215 28 16 0
2.4059999 -0.495 0.213 29 16 0
2.4159999 -0.49000001 0.20999999 25 16 0
2.424 -0.48500001 0.207 26 16 0
2.4389999 -0.48100001 0.205 27 16 0
2.4489999 -0.47499999 0.20200001 27 16 0
2.457 -0.47 0.199 28 16 0
2.467 -0.46399999 0.19599999 26 16 0
2.477 -0.45899999 0.193 27 16 0
2.487 -0.45300001 0.19 27 16 0
2.5009999 -0.44800001 0.18799999 26 16 0
2.5109999 -0.44299999 0.185 27 16 0
2.5220001 -0.43700001 0.182 26 16 0
2.5339999 -0.43099999 0.17900001 27 16 0
2.5469999 -0.426 0.176 26 16 0
2.5539999 -0.41999999 0.17299999 26 16 0
2.5650001 -0.414 0.17 25 16 0
2.579 -0.40799999 0.168 27 16 0
2.5880001 -0.40200001 0.16500001 25 16 0
2.6040001 -0.39700001 0.162 25 16 0
2.6159999 -0.391 0.15899999 25 16 0
2.6259999 -0.38499999 0.156 26 16 0
2.642 -0.37900001 0.154 26 16 0
2.6570001 -0.373 0.15099999 25 16 0
2.6689999 -0.36700001 0.148 26 16 0
2.675 -0.36000001 0.145 26 16 0
2.698 -0.35499999 0.142 28 16 0
2.7049999 -0.34799999 0.139 27 16 0
2.7190001 -0.34099999 0.13600001 25 16 0
2.727 -0.33399999 0.133 26 16 0
2.74 -0.32800001 0.13 26 16 0
2.7590001 -0.322 0.127 26 16 0
2.773 -0.315 0.124 26 16 0
2.779 -0.30700001 0.121 26 16 0
2.7950001 -0.301 0.118 25 16 0
2.8050001 -0.29300001 0.115 25 16 0
2.819 -0.28600001 0.112 25 16 0
2.839 -0.28 0.109 25 16 0
2.8540001 -0.273 0.106 26 16 0
2.8629999 -0.26499999 0.103 25 16 0
2.882 -0.25799999 0.1 26 16 0
2.8989999 -0.25099999 0.097000003 26 16 0
2.914 -0.243 0.093000002 26 16 0
2.9219999 -0.235 0.090000004 25 16 0
2.9460001 -0.228 0.086999997 25 16 0
2.96 -0.221 0.083999999 24 16 0
2.9760001 -0.213 0.081 25 16 0
2.9920001 -0.205 0.078000002 25 16 0
3.0039999 -0.197 0.074000001 25 16 0
3.03 -0.189 0.071000002 25 16 0
3.053 -0.182 0.068000004 26 16 0
3.066 -0.17299999 0.064999998 25 16 0
3.0840001 -0.16500001 0.061000001 24 16 0
3.102 -0.156 0.057999998 24 16 0
3.1170001 -0.148 0.055 26 16 0
3.1340001 -0.139 0.050999999 25 16 0
3.154 -0.13 0.048 26 16 0
3.174 -0.121 0.045000002 26 16 0
3.1930001 -0.113 0.041000001 27 16 0
3.2119999 -0.104 0.037999999 26 16 0
3.2260001 -0.093999997 0.034000002 25 16 0
3.25 -0.085000001 0.030999999 27 16 0
3.2739999 -0.075999998 0.027000001 30 16 0
3.28 -0.066 0.024 137 16 0
3.273 -0.056000002 0.02 126 16 0
3.263 -0.046 0.016000001 114 16 0
3.2609999 -0.035999998 0.013 120 16 0
3.2520001 -0.026000001 0.0089999996 117 16 0
3.2479999 -0.016000001 0.0049999999 29 16 0
3.2650001 -0.0060000001 0.0020000001 16 16 0
3.286 0.003 -0.001 17 16 0
3.3080001 0.013 -0.0040000002 18 16 0
3.326 0.023 -0.0080000004 30 16 0
3.323 0.033 -0.012 50 16 0
3.316 0.043000001 -0.015 53 16 0
3.3050001 0.052999999 -0.018999999 38 16 0
3.3039999 0.064000003 -0.022 46 16 0
3.2939999 0.072999999 -0.025 54 16 0
3.2880001 0.082999997 -0.028999999 53 16 0
3.28 0.093000002 -0.032000002 53 16 0
3.273 0.103 -0.035999998 53 16 0
3.266 0.113 -0.039000001 58 16 0
3.263 0.123 -0.041999999 59 16 0
3.2550001 0.133 -0.045000002 53 16 0
3.2449999 0.142 -0.048999999 52 16 0
3.244 0.152 -0.052000001 63 16 0
3.2390001 0.162 -0.055 66 16 0
3.2309999 0.17200001 -0.057999998 58 16 0
3.2260001 0.18099999 -0.061000001 64 16 0
3.22 0.191 -0.064000003 70 16 0
3.211 0.2 -0.067000002 65 16 0
3.204 0.20999999 -0.07 57 16 0
3.2030001 0.22 -0.072999999 72 16 0
3.187 0.228 -0.075999998 58 16 0
3.1860001 0.23800001 -0.079000004 62 16 0
3.1800001 0.248 -0.082000002 74 16 0
3.168 0.25600001 -0.085000001 62 16 0
3.164 0.266 -0.088 70 16 0
3.1600001 0.27500001 -0.090999998 68 16 0
3.154 0.285 -0.093000002 50 16 0
3.148 0.294 -0.096000001 65 16 0
3.142 0.303 -0.098999999 67 16 0
3.1370001 0.31299999 -0.102 68 16 0
3.1240001 0.32100001 -0.104 61 16 0
3.1259999 0.331 -0.107 70 16 0
3.1129999 0.33899999 -0.109 70 16 0
3.108 0.34900001 -0.112 74 16 0
3.1040001 0.35800001 -0.115 67 16 0
3.099 0.36700001 -0.117 75 16 0
3.0910001 0.37599999 -0.12 74 16 0
3.0899999 0.38499999 -0.122 79 16 0
3.0799999 0.39399999 -0.125 85 16 0
3.0739999 0.403 -0.127 69 16 0
3.066 0.41100001 -0.12899999 88 16 0
3.0610001 0.41999999 -0.132 66 16 0
3.0539999 0.42899999 -0.134 86 16 0
3.052 0.43900001 -0.13699999 90 16 0
3.046 0.447 -0.139 92 16 0
3.0420001 0.456 -0.141 94 16 0
3.0380001 0.465 -0.14399999 94 16 0
3.0309999 0.47400001 -0.146 91 16 0
3.023 0.48199999 -0.148 84 16 0
3.0120001 0.49000001 -0.15000001 98 16 0
3.0079999 0.49900001 -0.152 87 16 0
3.007 0.509 -0.154 92 16 0
3.0039999 0.51800001 -0.15700001 78 16 0
2.9949999 0.52600002 -0.15899999 83 16 0
2.994 0.53500003 -0.161 86 16 0
2.983 0.54299998 -0.162 94 16 0
2.9790001 0.55199999 -0.16500001 85 16 0
2.977 0.56099999 -0.167 88 16 0
2.9690001 0.56900001 -0.169 93 16 0
2.964 0.57800001 -0.17 92 16 0
2.9619999 0.58700001 -0.17299999 94 16 0
2.9530001 0.59500003 -0.17399999 91 16 0
2.9460001 0.60299999 -0.176 110 16 0
2.9400001 0.611 -0.178 97 16 0
2.941 0.62099999 -0.18000001 108 16 0
2.931 0.62800002 -0.18099999 97 16 0
2.924 0.63599998 -0.183 106 16 0
2.9219999 0.64499998 -0.185 90 16 0
2.9170001 0.65399998 -0.18700001 99 16 0
2.908 0.66100001 -0.18799999 109 16 0
2.908 0.671 -0.19 138 16 0
2.8959999 0.67699999 -0.191 143 16 0
2.8870001 0.685 -0.192 144 16 0
2.8840001 0.69300002 -0.19400001 144 16 0
2.8789999 0.70200002 -0.19599999 134 16 0
2.8759999 0.70999998 -0.197 131 16 0
2.8699999 0.71799999 -0.199 146 16 0
2.8699999 0.72799999 -0.2 145 16 0
2.8640001 0.736 -0.20200001 150 16 0
2.8559999 0.74299997 -0.20299999 141 16 0
2.849 0.75099999 -0.204 124 16 0
2.8469999 0.75999999 -0.206 142 16 0
2.846 0.76899999 -0.207 147 16 0
2.8410001 0.77700001 -0.20900001 149 16 0
2.8340001 0.78399998 -0.20999999 140 16 0
2.8299999 0.79299998 -0.211 149 16 0
2.823 0.80000001 -0.212 144 16 0
2.8210001 0.80900002 -0.213 145 16 0
2.813 0.81599998 -0.214 147 16 0
2.8099999 0.824 -0.21600001 150 16 0
2.8 0.83099997 -0.21600001 131 16 0
2.8 0.83999997 -0.21799999 150 16 0
2.7920001 0.847 -0.219 149 16 0
2.7909999 0.85600001 -0.22 146 16 0
2.7850001 0.86400002 -0.221 150 16 0
2.776 0.87 -0.221 149 16 0
2.773 0.87900001 -0.222 144 16 0
2.77 0.88700002 -0.223 150 16 0
2.767 0.89499998 -0.22400001 150 16 0
2.7609999 0.903 -0.22499999 150 16 0
2.7590001 0.91100001 -0.226 150 16 0
2.7550001 0.91900003 -0.227 147 16 0
2.7520001 0.92799997 -0.228 144 16 0
2.7449999 0.93400002 -0.228 150 16 0
2.74 0.94199997 -0.229 150 16 0
2.7420001 0.95200002 -0.23 150 16 0
2.7390001 0.95999998 -0.23100001 122 16 0
2.7409999 0.97000003 -0.23199999 35 16 0
2.7279999 0.97500002 -0.23199999 91 16 0
2.72 0.98100001 -0.23199999 150 16 0
2.7119999 0.98699999 -0.23199999 150 16 0
2.707 0.995 -0.233 150 16 0
2.704 1.003 -0.233 150 16 0
2.6960001 1.0089999 -0.234 150 16 0
2.691 1.016 -0.234 150 16 0
2.6889999 1.025 -0.234 150 16 0
2.688 1.033 -0.235 150 16 0
2.681 1.04 -0.235 150 16 0
2.6819999 1.049 -0.236 150 16 0
2.675 1.056 -0.236 150 16 0
2.6719999 1.064 -0.236 150 16 0
2.6670001 1.071 -0.236 150 16 0
2.664 1.0779999 -0.237 150 16 0
2.6600001 1.086 -0.237 150 16 0
2.6530001 1.092 -0.236 150 16 0
2.6489999 1.1 -0.237 150 16 0
2.6459999 1.107 -0.237 150 16 0
2.6429999 1.115 -0.237 150 16 0
2.6359999 1.1210001 -0.236 150 16 0
2.6359999 1.13 -0.237 150 16 0
2.632 1.137 -0.237 150 16 0
2.6259999 1.1440001 -0.236 150 16 0
2.6229999 1.151 -0.236 150 16 0
2.618 1.158 -0.236 150 16 0
2.615 1.165 -0.236 150 16 0
2.6129999 1.174 -0.236 150 16 0
2.608 1.1799999 -0.235 150 16 0
2.5999999 1.1849999 -0.235 150 16 0
2.5969999 1.193 -0.234 150 16 0
2.5940001 1.2 -0.234 150 16 0
2.5899999 1.207 -0.233 150 16 0
2.592 1.216 -0.233 150 16 0
2.5840001 1.221 -0.23199999 150 16 0
2.5799999 1.228 -0.23199999 150 16 0
2.5769999 1.235 -0.23100001 150 16 0
2.573 1.242 -0.23100001 150 16 0
2.5699999 1.249 -0.23 150 16 0
2.566 1.256 -0.229 150 16 0
2.563 1.263 -0.229 150 16 0
2.5639999 1.272 -0.228 150 16 0
2.5550001 1.276 -0.227 150 16 0
2.5539999 1.284 -0.227 150 16 0
2.5539999 1.2920001 -0.226 150 16 0
2.5510001 1.299 -0.22499999 150 16 0
2.5510001 1.307 -0.22499999 150 16 0
2.5450001 1.313 -0.223 150 16 0
2.536 1.316 -0.222 150 16 0
2.5380001 1.326 -0.221 150 16 0
2.5350001 1.332 -0.22 150 16 0
2.5309999 1.3380001 -0.219 150 16 0
2.5320001 1.347 -0.21799999 150 16 0
2.52 1.349 -0.21600001 150 16 0
2.5220001 1.358 -0.215 150 16 0
2.523 1.3660001 -0.215 150 16 0
2.5150001 1.37 -0.213 150 16 0
2.5139999 1.377 -0.212 150 16 0
2.5090001 1.382 -0.20999999 150 16 0
2.507 1.3890001 -0.20900001 150 16 0
2.5039999 1.395 -0.207 150 16 0
2.5039999 1.403 -0.206 150 16 0
2.5 1.409 -0.205 150 16 0
2.497 1.415 -0.20299999 150 16 0
2.494 1.42 -0.20200001 150 16 0
2.4879999 1.425 -0.2 150 16 0
2.4890001 1.432 -0.198 150 16 0
2.4920001 1.441 -0.197 150 16 0
2.487 1.446 -0.19499999 150 16 0
2.484 1.452 -0.19400001 150 16 0
2.4820001 1.4579999 -0.192 150 16 0
2.4790001 1.4630001 -0.19 150 16 0
2.4760001 1.469 -0.18799999 150 16 0
2.473 1.474 -0.186 150 16 0
2.471 1.48 -0.184 150 16 0
2.4679999 1.485 -0.182 150 16 0
2.4649999 1.49 -0.18000001 150 16 0
2.4619999 1.495 -0.178 150 16 0
2.4630001 1.502 -0.176 150 16 0
2.4630001 1.5089999 -0.17399999 150 16 0
2.457 1.512 -0.17200001 150 16 0
2.454 1.517 -0.17 150 16 0
2.46 1.527 -0.168 150 16 0
2.451 1.527 -0.16500001 150 16 0
2.4530001 1.535 -0.163 150 16 0
2.45 1.54 -0.161 150 16 0
2.441 1.54 -0.15800001 150 16 0
2.447 1.55 -0.156 150 16 0
2.444 1.554 -0.154 150 16 0
2.4419999 1.559 -0.15099999 150 16 0
2.45 1.569 -0.15000001 150 16 0
2.447 1.573 -0.147 150 16 0
2.4389999 1.574 -0.14399999 150 16 0
2.4430001 1.582 -0.142 150 16 0
2.441 1.586 -0.139 150 16 0
2.4389999 1.59 -0.13699999 150 16 0
2.4400001 1.596 -0.134 150 16 0
2.4360001 1.598 -0.131 150 16 0
2.4360001 1.604 -0.12800001 150 16 0
2.434 1.607 -0.126 150 16 0
2.434 1.612 -0.123 150 16 0
2.4319999 1.6160001 -0.12 150 16 0
2.4300001 1.619 -0.117 150 16 0
2.428 1.622 -0.114 150 16 0
2.427 1.626 -0.112 150 16 0
2.4260001 1.63 -0.109 150 16 0
2.425 1.633 -0.106 150 16 0
2.424 1.637 -0.103 150 16 0
2.424 1.641 -0.1 150 16 0
2.425 1.646 -0.097000003 150 16 0
2.4230001 1.648 -0.093999997 150 16 0
2.421 1.65 -0.090999998 150 16 0
2.4219999 1.654 -0.088 150 16 0
2.4230001 1.659 -0.085000001 150 16 0
2.4260001 1.664 -0.082000002 150 16 0
2.425 1.666 -0.079000004 150 16 0
2.4219999 1.668 -0.075000003 150 16 0
2.425 1.6720001 -0.071999997 150 16 0
2.4230001 1.674 -0.068999998 150 16 0
2.424 1.678 -0.066 150 16 0
2.424 1.6799999 -0.063000001 150 16 0
2.425 1.684 -0.059 150 16 0
2.4219999 1.684 -0.056000002 150 16 0
2.427 1.689 -0.052999999 150 16 0
2.4200001 1.687 -0.048999999 150 16 0
2.425 1.692 -0.046 150 16 0
2.4260001 1.6950001 -0.043000001 150 16 0
2.4230001 1.6950001 -0.039999999 150 16 0
2.424 1.697 -0.035999998 150 16 0
2.427 1.7 -0.033 150 16 0
2.428 1.702 -0.028999999 143 16 0
2.427 1.7029999 -0.026000001 123 16 0
2.431 1.707 -0.023 79 16 0
2.4330001 1.709 -0.018999999 56 16 0
