# .PCD v0.7 - Point Cloud Data file format
VERSION 0.7
FIELDS x y z intensity tag line
SIZE 4 4 4 4 1 1
TYPE F F F F U U
COUNT 1 1 1 1 1 1
WIDTH 1350
HEIGHT 1
VIEWPOINT 0 0 0 1 0 0 0
POINTS 1350
DATA ascii
1.668 -0.64600003 -0.74199998 150 16 0
1.671 -0.64300001 -0.741 150 16 0
1.675 -0.63999999 -0.74000001 150 16 0
1.681 -0.63800001 -0.74000001 150 16 0
1.686 -0.63599998 -0.74000001 150 16 0
1.6900001 -0.63300002 -0.73900002 150 16 0
1.699 -0.63099998 -0.74000001 150 16 0
1.699 -0.62699997 -0.73699999 72 0 0
1.7079999 -0.62599999 -0.73799998 2 0 0
1.7130001 -0.62300003 -0.73699999 150 16 0
1.721 -0.62199998 -0.73799998 2 0 0
1.723 -0.61799997 -0.736 2 0 0
1.733 -0.61699998 -0.73699999 2 0 0
1.737 -0.61400002 -0.736 2 0 0
1.744 -0.611 -0.736 2 0 0
1.7460001 -0.60699999 -0.73299998 150 16 0
1.755 -0.60600001 -0.73400003 2 0 0
1.7640001 -0.60399997 -0.73400003 150 16 0
1.771 -0.602 -0.73400003 150 16 0
1.781 -0.60100001 -0.73500001 150 16 0
1.7819999 -0.59600002 -0.73199999 150 16 0
1.786 -0.59299999 -0.73000002 150 16 0
1.793 -0.59100002 -0.73000002 150 16 0
1.798 -0.588 -0.72799999 150 16 0
1.808 -0.58600003 -0.72799999 150 16 0
1.814 -0.583 -0.727 150 16 0
1.816 -0.579 -0.72399998 150 16 0
1.823 -0.57700002 -0.72299999 150 16 0
1.829 -0.574 -0.722 150 16 0
1.831 -0.56999999 -0.71899998 150 16 0
1.848 -0.56999999 -0.722 150 19 0
1.852 -0.56699997 -0.72000003 150 16 0
1.859 -0.56400001 -0.71799999 150 16 0
1.864 -0.56099999 -0.71600002 150 16 0
1.867 -0.55699998 -0.71399999 150 16 0
1.88 -0.55599999 -0.71399999 150 16 0
1.885 -0.55199999 -0.71200001 150 16 0
1.895 -0.551 -0.71200001 150 16 0
1.898 -0.546 -0.70899999 150 16 0
1.908 -0.54400003 -0.708 150 16 0
1.91 -0.54000002 -0.70499998 150 16 0
1.9220001 -0.53899997 -0.70499998 150 16 0
1.926 -0.53500003 -0.70200002 150 16 0
1.938 -0.53299999 -0.70200002 138 16 0
1.941 -0.52899998 -0.699 130 16 0
1.952 -0.52700001 -0.69800001 142 16 0
1.959 -0.52399999 -0.69599998 120 16 0
1.9680001 -0.52200001 -0.69499999 126 16 0
1.976 -0.51899999 -0.69300002 125 16 0
1.985 -0.51599997 -0.69199997 133 16 0
1.993 -0.514 -0.69 124 16 0
1.995 -0.509 -0.68599999 120 16 0
2.0079999 -0.50800002 -0.68599999 125 16 0
2.0120001 -0.50400001 -0.68199998 113 16 0
2.0220001 -0.50099999 -0.68099999 120 16 0
2.026 -0.49700001 -0.67699999 123 16 0
2.0369999 -0.495 -0.676 124 16 0
2.046 -0.49200001 -0.67400002 119 16 0
2.052 -0.48899999 -0.671 114 16 0
2.059 -0.48500001 -0.66900003 112 16 0
2.0639999 -0.48199999 -0.66500002 107 16 0
2.0710001 -0.47799999 -0.662 120 16 0
2.0929999 -0.47799999 -0.66399997 105 19 0
2.095 -0.47400001 -0.66000003 103 16 0
2.105 -0.47099999 -0.65799999 107 16 0
2.1099999 -0.46700001 -0.65399998 89 16 0
2.118 -0.46399999 -0.65200001 99 16 0
2.1329999 -0.46200001 -0.65100002 97 16 0
2.1389999 -0.45899999 -0.64700001 89 16 0
2.1489999 -0.456 -0.64499998 88 16 0
2.154 -0.45199999 -0.64099997 89 16 0
2.1630001 -0.449 -0.63800001 90 16 0
2.1700001 -0.44499999 -0.63499999 94 16 0
2.1789999 -0.442 -0.63200003 98 16 0
2.1900001 -0.43900001 -0.63 91 16 0
2.198 -0.43599999 -0.62599999 93 16 0
2.2049999 -0.43200001 -0.62300003 80 16 0
2.2130001 -0.42899999 -0.62 89 16 0
2.22 -0.42500001 -0.616 83 16 0
2.233 -0.42300001 -0.61400002 85 16 0
2.244 -0.41999999 -0.611 87 16 0
2.2460001 -0.41499999 -0.60600001 85 16 0
2.263 -0.41299999 -0.60399997 76 16 0
2.266 -0.40900001 -0.59899998 81 16 0
2.273 -0.405 -0.59500003 75 16 0
2.2880001 -0.403 -0.59399998 71 16 0
2.2950001 -0.39899999 -0.58899999 70 16 0
2.3069999 -0.396 -0.58700001 47 16 0
2.316 -0.39300001 -0.583 62 16 0
2.326 -0.389 -0.579 55 16 0
2.3380001 -0.38600001 -0.57599998 54 16 0
2.345 -0.38299999 -0.57200003 54 16 0
2.3540001 -0.37900001 -0.56800002 50 16 0
2.3640001 -0.37599999 -0.56400001 47 16 0
2.369 -0.37099999 -0.55900002 50 16 0
2.385 -0.36899999 -0.55699998 54 16 0
2.3940001 -0.36500001 -0.55299997 54 16 0
2.4030001 -0.36199999 -0.54799998 52 16 0
2.415 -0.35800001 -0.54400003 49 16 0
2.4200001 -0.354 -0.53899997 51 16 0
2.431 -0.35100001 -0.53500003 46 16 0
2.444 -0.347 -0.53200001 47 16 0
2.4530001 -0.34400001 -0.52700001 44 16 0
2.4579999 -0.33899999 -0.52200001 44 16 0
2.467 -0.336 -0.51700002 42 16 0
2.4820001 -0.333 -0.514 42 16 0
2.4920001 -0.329 -0.509 37 16 0
2.497 -0.324 -0.50300002 34 16 0
2.507 -0.32100001 -0.49900001 33 16 0
2.5209999 -0.31799999 -0.495 37 16 0
2.5309999 -0.31400001 -0.49000001 34 16 0
2.543 -0.31 -0.486 33 16 0
2.5510001 -0.30599999 -0.47999999 35 16 0
2.5580001 -0.30199999 -0.47499999 33 16 0
2.5669999 -0.29800001 -0.47 33 16 0
2.5840001 -0.29499999 -0.46599999 34 16 0
2.589 -0.28999999 -0.46000001 32 16 0
2.6059999 -0.287 -0.456 34 16 0
2.612 -0.28299999 -0.44999999 32 16 0
2.628 -0.28 -0.44499999 34 16 0
2.632 -0.27500001 -0.43900001 32 16 0
2.6500001 -0.27200001 -0.435 32 16 0
2.6559999 -0.26699999 -0.428 31 16 0
2.668 -0.26300001 -0.42300001 34 16 0
2.6830001 -0.25999999 -0.41800001 34 16 0
2.691 -0.25600001 -0.412 31 16 0
2.7 -0.25099999 -0.40599999 30 16 0
2.7119999 -0.24699999 -0.40099999 33 16 0
2.7190001 -0.243 -0.39500001 32 16 0
2.734 -0.23899999 -0.389 32 16 0
2.744 -0.235 -0.38299999 32 16 0
2.7490001 -0.23 -0.37599999 32 16 0
2.7620001 -0.226 -0.37099999 29 16 0
2.7780001 -0.222 -0.36500001 29 16 0
2.7880001 -0.21799999 -0.359 28 16 0
2.7980001 -0.214 -0.35299999 28 16 0
2.8110001 -0.20999999 -0.347 28 16 0
2.8269999 -0.206 -0.34099999 28 16 0
2.8340001 -0.20100001 -0.33399999 27 16 0
2.8469999 -0.197 -0.32800001 27 16 0
2.8559999 -0.193 -0.32100001 27 16 0
2.8710001 -0.189 -0.315 27 16 0
2.878 -0.184 -0.308 29 16 0
2.8959999 -0.18000001 -0.301 28 16 0
2.904 -0.175 -0.294 28 16 0
2.921 -0.171 -0.28799999 28 16 0
2.9349999 -0.167 -0.28099999 28 16 0
2.948 -0.162 -0.27399999 28 16 0
2.961 -0.15800001 -0.26699999 28 16 0
2.974 -0.154 -0.25999999 28 16 0
2.9849999 -0.149 -0.25299999 26 16 0
2.9960001 -0.14399999 -0.24600001 28 16 0
3.0150001 -0.14 -0.23899999 28 16 0
3.03 -0.13600001 -0.23199999 28 16 0
3.0450001 -0.131 -0.22499999 29 16 0
3.053 -0.126 -0.21699999 28 16 0
3.072 -0.122 -0.20999999 27 16 0
3.086 -0.117 -0.20200001 28 16 0
3.095 -0.112 -0.19400001 27 16 0
3.1099999 -0.107 -0.186 28 16 0
3.1240001 -0.103 -0.178 28 16 0
3.141 -0.097999997 -0.171 29 16 0
3.152 -0.093000002 -0.162 29 16 0
3.165 -0.088 -0.154 28 16 0
3.1819999 -0.082999997 -0.146 30 16 0
3.198 -0.079000004 -0.138 31 16 0
3.211 -0.074000001 -0.13 50 16 0
3.2179999 -0.068999998 -0.121 136 16 0
3.221 -0.063000001 -0.112 150 16 0
3.2249999 -0.057999998 -0.103 150 16 0
3.2279999 -0.052999999 -0.093999997 150 16 0
3.2279999 -0.048 -0.085000001 150 16 0
3.2279999 -0.043000001 -0.075999998 150 16 0
3.234 -0.037 -0.067000002 150 16 0
3.2320001 -0.032000002 -0.057999998 150 16 0
3.233 -0.027000001 -0.048999999 150 16 0
3.234 -0.022 -0.039999999 142 16 0
3.2360001 -0.017000001 -0.030999999 49 16 0
3.2379999 -0.012 -0.022 28 16 0
3.2539999 -0.0070000002 -0.012 19 16 0
3.2690001 -0.0020000001 -0.003 18 16 0
3.2850001 0.003 0.0049999999 18 16 0
3.3010001 0.0080000004 0.014 19 16 0
3.3150001 0.013 0.024 20 16 0
3.3329999 0.017999999 0.034000002 21 16 0
3.3499999 0.024 0.043000001 31 16 0
3.3570001 0.028999999 0.052999999 56 16 0
3.3610001 0.034000002 0.063000001 129 16 0
3.3640001 0.039000001 0.071999997 45 16 0
3.349 0.044 0.081 19 16 0
3.332 0.048999999 0.090999998 28 16 0
3.3139999 0.054000001 0.098999999 34 16 0
3.2950001 0.057999998 0.108 35 16 0
3.2720001 0.063000001 0.117 47 16 0
3.263 0.068000004 0.126 150 16 0
3.26 0.071999997 0.13500001 150 16 0
3.2609999 0.077 0.145 150 16 0
3.266 0.082000002 0.154 150 16 0
3.2650001 0.086999997 0.164 150 16 0
3.2650001 0.092 0.17299999 150 16 0
3.2679999 0.097000003 0.183 150 16 0
3.273 0.102 0.193 150 16 0
3.2739999 0.107 0.20200001 150 16 0
3.277 0.112 0.212 150 16 0
3.28 0.117 0.221 150 16 0
3.2809999 0.121 0.23100001 150 16 0
3.28 0.126 0.241 150 16 0
3.28 0.131 0.25 150 16 0
3.2820001 0.13600001 0.25999999 150 16 0
3.286 0.141 0.27000001 150 16 0
3.2850001 0.145 0.27900001 150 16 0
3.2880001 0.15000001 0.289 150 16 0
3.286 0.155 0.29899999 150 16 0
3.289 0.15899999 0.30899999 150 16 0
3.296 0.164 0.31900001 150 16 0
3.2909999 0.169 0.32800001 150 16 0
3.303 0.17399999 0.33899999 150 16 0
3.299 0.178 0.34799999 150 16 0
3.3080001 0.183 0.359 150 16 0
3.2980001 0.18700001 0.368 150 16 0
3.2950001 0.192 0.377 99 16 0
3.283 0.19599999 0.38600001 41 16 0
3.2690001 0.199 0.39399999 41 16 0
3.2460001 0.20200001 0.40000001 40 16 0
3.2279999 0.206 0.40799999 44 16 0
3.2149999 0.20900001 0.41600001 44 16 0
3.1949999 0.212 0.42300001 46 16 0
3.1800001 0.21600001 0.43000001 44 16 0
3.164 0.219 0.43799999 46 16 0
3.1470001 0.222 0.44499999 43 16 0
3.1240001 0.22400001 0.45100001 43 16 0
3.112 0.227 0.45899999 41 16 0
3.095 0.23 0.465 41 16 0
3.0739999 0.233 0.47099999 42 16 0
3.0639999 0.236 0.479 42 16 0
3.0469999 0.23899999 0.486 43 16 0
3.023 0.241 0.491 42 16 0
3.013 0.244 0.49900001 42 16 0
2.994 0.24600001 0.505 45 16 0
2.98 0.249 0.51099998 43 16 0
2.964 0.25099999 0.51800001 44 16 0
2.9460001 0.25400001 0.523 46 16 0
2.9319999 0.25600001 0.52999997 45 16 0
2.9260001 0.259 0.53799999 45 16 0
2.914 0.26199999 0.54500002 47 16 0
2.8970001 0.264 0.55000001 44 16 0
2.881 0.266 0.55599999 42 16 0
2.872 0.26899999 0.56300002 42 16 0
2.8559999 0.271 0.56900001 42 16 0
2.8399999 0.273 0.57499999 47 16 0
2.8329999 0.27599999 0.58200002 47 16 0
2.813 0.27700001 0.58600003 47 16 0
2.8010001 0.27900001 0.59299999 46 16 0
2.7869999 0.28099999 0.59799999 57 16 0
2.777 0.28299999 0.60500002 55 16 0
2.76 0.285 0.61000001 41 16 0
2.75 0.287 0.616 90 16 0
2.7390001 0.289 0.62199998 122 16 0
2.721 0.29100001 0.62699997 106 16 0
2.71 0.29300001 0.63300002 85 16 0
2.701 0.29499999 0.639 96 16 0
2.6830001 0.296 0.64300001 102 16 0
2.6730001 0.29800001 0.64899999 102 16 0
2.6659999 0.30000001 0.65600002 95 16 0
2.6570001 0.30199999 0.662 110 16 0
2.638 0.303 0.66600001 103 16 0
2.6270001 0.30399999 0.671 91 16 0
2.619 0.30599999 0.67799997 115 16 0
2.608 0.308 0.68300003 95 16 0
2.592 0.30899999 0.68699998 40 16 0
2.5780001 0.31 0.69199997 98 16 0
2.5680001 0.31099999 0.69700003 150 16 0
2.559 0.31299999 0.70300001 143 16 0
2.5510001 0.315 0.70899999 150 16 0
2.5369999 0.31600001 0.713 150 16 0
2.5209999 0.31600001 0.71700001 150 16 0
2.5139999 0.31799999 0.72299999 150 16 0
2.5 0.31900001 0.727 146 16 0
2.4909999 0.31999999 0.73199999 143 16 0
2.4820001 0.322 0.73799998 145 16 0
2.467 0.322 0.741 150 16 0
2.457 0.32300001 0.74599999 150 16 0
2.4419999 0.324 0.75 150 16 0
2.4349999 0.32499999 0.755 150 16 0
2.4200001 0.32600001 0.759 147 16 0
2.414 0.32699999 0.76499999 150 16 0
2.4030001 0.32800001 0.76899999 150 16 0
2.391 0.32800001 0.773 150 16 0
2.388 0.33000001 0.77999997 150 16 0
2.375 0.331 0.78299999 150 16 0
2.3640001 0.331 0.787 150 16 0
2.355 0.33199999 0.792 150 16 0
2.348 0.333 0.79799998 150 16 0
2.3369999 0.33399999 0.80199999 150 16 0
2.3299999 0.33500001 0.80699998 150 16 0
2.3180001 0.33500001 0.81 150 16 0
2.309 0.336 0.815 150 16 0
2.2969999 0.336 0.81800002 150 16 0
2.2839999 0.336 0.82099998 150 16 0
2.2780001 0.33700001 0.82599998 150 16 0
2.2679999 0.33700001 0.82999998 150 16 0
2.2590001 0.33700001 0.83399999 150 16 0
2.2509999 0.338 0.83899999 150 16 0
2.2409999 0.338 0.84299999 150 16 0
2.2309999 0.33899999 0.84600002 150 16 0
2.2190001 0.338 0.84899998 150 16 0
2.21 0.33899999 0.85299999 150 16 0
2.2019999 0.33899999 0.85699999 150 16 0
2.1989999 0.34 0.86400002 150 16 0
2.1860001 0.34 0.866 150 16 0
2.1789999 0.34 0.87 150 16 0
2.171 0.34 0.87400001 150 16 0
2.161 0.34 0.87800002 150 16 0
2.1489999 0.34 0.88 150 16 0
2.141 0.34 0.884 150 16 0
2.131 0.34 0.88700002 150 16 0
2.1270001 0.34 0.89200002 150 16 0
2.119 0.34 0.89600003 150 16 0
2.112 0.34 0.89999998 150 16 0
2.1010001 0.34 0.90200001 150 16 0
2.096 0.34 0.90700001 150 16 0
2.0869999 0.34 0.91000003 150 16 0
2.0769999 0.33899999 0.91299999 150 16 0
2.073 0.34 0.91799998 150 16 0
2.059 0.338 0.91900003 150 16 0
2.0569999 0.33899999 0.92400002 150 16 0
2.0480001 0.338 0.92699999 150 16 0
2.0409999 0.338 0.93099999 150 16 0
2.0339999 0.338 0.93400002 150 16 0
2.026 0.33700001 0.93699998 150 16 0
2.017 0.33700001 0.94 150 16 0
2.0150001 0.33700001 0.94599998 150 16 0
2.003 0.336 0.94599998 150 16 0
1.997 0.336 0.95099998 150 16 0
1.988 0.33500001 0.95200002 150 16 0
1.973 0.333 0.95200002 150 16 0
1.9680001 0.333 0.95599997 150 16 0
1.961 0.33199999 0.95899999 150 16 0
1.954 0.33199999 0.96200001 150 16 0
1.952 0.33199999 0.96700001 150 16 0
1.944 0.331 0.97000003 150 16 0
1.9349999 0.33000001 0.972 150 16 0
1.928 0.329 0.97399998 150 16 0
1.9220001 0.32800001 0.97799999 150 16 0
1.915 0.32800001 0.98000002 150 16 0
1.91 0.32699999 0.98400003 150 16 0
1.903 0.32600001 0.986 150 16 0
1.896 0.32499999 0.98900002 150 16 0
1.892 0.32499999 0.99299997 150 16 0
1.883 0.32300001 0.99400002 150 16 0
1.878 0.32300001 0.99699998 150 16 0
1.873 0.322 1.001 150 16 0
1.864 0.31999999 1.002 150 16 0
1.8559999 0.31900001 1.003 150 16 0
1.852 0.31799999 1.006 150 16 0
1.841 0.31600001 1.007 150 16 0
1.839 0.31600001 1.011 150 16 0
1.8329999 0.315 1.013 150 16 0
1.825 0.31299999 1.0140001 150 16 0
1.823 0.31299999 1.0190001 150 16 0
1.817 0.31099999 1.021 150 16 0
1.8099999 0.31 1.022 150 16 0
1.806 0.30899999 1.025 150 16 0
1.802 0.308 1.029 150 16 0
1.794 0.30599999 1.03 150 16 0
1.79 0.30500001 1.033 150 16 0
1.79 0.30500001 1.038 150 16 0
1.778 0.30199999 1.036 150 16 0
1.775 0.301 1.039 150 16 0
1.767 0.29899999 1.04 150 16 0
1.762 0.29800001 1.041 150 16 0
1.7589999 0.29699999 1.045 150 16 0
1.744 0.294 1.041 150 19 0
1.74 0.292 1.043 150 16 0
1.738 0.29100001 1.046 150 16 0
1.734 0.28999999 1.049 150 16 0
1.73 0.28799999 1.051 150 16 0
1.728 0.287 1.054 150 16 0
1.724 0.28600001 1.056 150 16 0
1.721 0.28400001 1.059 150 16 0
1.716 0.28299999 1.0599999 150 16 0
1.711 0.28099999 1.062 150 16 0
1.709 0.28 1.064 150 16 0
1.7029999 0.278 1.0650001 150 16 0
1.704 0.27700001 1.0700001 150 16 0
1.697 0.27399999 1.069 150 16 0
1.6950001 0.273 1.072 150 16 0
1.687 0.271 1.071 150 16 0
1.684 0.26899999 1.073 150 16 0
1.6799999 0.26699999 1.074 150 16 0
1.6799999 0.266 1.0779999 150 16 0
1.676 0.264 1.079 150 16 0
1.6720001 0.26199999 1.08 150 16 0
1.6670001 0.25999999 1.08 150 16 0
1.664 0.25799999 1.082 150 16 0
1.6619999 0.25600001 1.084 150 16 0
1.659 0.255 1.086 150 16 0
1.651 0.252 1.084 150 16 0
1.653 0.25099999 1.0880001 150 16 0
1.649 0.249 1.0880001 150 16 0
1.648 0.24699999 1.09 150 16 0
1.646 0.245 1.092 150 16 0
1.645 0.243 1.095 150 16 0
1.642 0.241 1.095 150 16 0
1.637 0.23899999 1.095 150 16 0
1.6390001 0.237 1.099 150 16 0
1.638 0.235 1.1 150 16 0
1.6339999 0.233 1.1 150 16 0
1.631 0.23100001 1.101 150 16 0
1.6289999 0.229 1.102 150 16 0
1.62 0.226 1.098 150 19 0
1.62 0.22400001 1.1 150 16 0
1.62 0.222 1.102 150 16 0
1.619 0.22 1.103 150 16 0
1.614 0.21799999 1.102 150 16 0
1.6109999 0.215 1.101 150 16 0
1.614 0.214 1.1059999 150 16 0
1.609 0.211 1.103 150 16 0
1.609 0.20900001 1.105 150 16 0
1.605 0.207 1.103 150 16 0
1.607 0.205 1.107 150 16 0
1.6059999 0.20299999 1.107 150 16 0
1.6059999 0.20100001 1.108 150 16 0
1.602 0.198 1.107 150 16 0
1.603 0.19599999 1.109 150 16 0
1.605 0.19400001 1.1109999 150 16 0
1.601 0.191 1.109 150 16 0
1.601 0.189 1.11 150 16 0
1.599 0.18700001 1.109 150 16 0
1.601 0.185 1.1109999 150 16 0
1.596 0.182 1.108 150 16 0
1.599 0.18000001 1.1109999 150 16 0
1.595 0.178 1.108 150 16 0
1.601 0.176 1.112 150 16 0
1.594 0.17299999 1.107 150 16 0
1.599 0.171 1.112 150 16 0
1.595 0.168 1.109 150 16 0
1.6 0.167 1.112 150 16 0
1.597 0.164 1.11 150 16 0
1.597 0.162 1.109 150 16 0
1.601 0.16 1.112 150 16 0
1.6 0.15700001 1.1109999 150 16 0
1.596 0.155 1.107 150 16 0
1.598 0.152 1.108 150 16 0
1.599 0.15000001 1.108 150 16 0
1.603 0.148 1.11 150 16 0
1.599 0.146 1.107 150 16 0
1.601 0.14300001 1.107 150 16 0
1.601 0.141 1.1059999 150 16 0
1.605 0.139 1.108 150 16 0
1.6059999 0.13699999 1.107 150 16 0
1.608 0.134 1.107 150 16 0
1.607 0.132 1.105 150 16 0
1.612 0.13 1.107 150 16 0
1.609 0.127 1.103 150 16 0
1.613 0.125 1.105 150 16 0
1.618 0.123 1.1059999 150 16 0
1.615 0.121 1.102 150 16 0
1.6160001 0.118 1.101 150 16 0
1.6210001 0.116 1.102 150 16 0
1.622 0.114 1.101 150 16 0
1.623 0.112 1.099 150 16 0
1.624 0.109 1.098 150 16 0
1.625 0.107 1.096 150 16 0
1.63 0.105 1.097 150 16 0
1.632 0.103 1.096 150 16 0
1.633 0.1 1.094 150 16 0
1.637 0.097999997 1.094 150 16 0
1.64 0.096000001 1.094 150 16 0
1.641 0.093999997 1.092 150 16 0
1.649 0.092 1.094 150 16 0
1.65 0.090000004 1.092 150 16 0
1.652 0.086999997 1.09 150 16 0
1.658 0.085000001 1.092 150 16 0
1.66 0.082999997 1.089 150 16 0
1.6619999 0.081 1.087 150 16 0
1.664 0.079000004 1.085 150 16 0
1.668 0.077 1.085 150 16 0
1.671 0.074000001 1.084 150 16 0
1.671 0.071999997 1.08 150 16 0
1.676 0.07 1.079 150 16 0
1.677 0.068000004 1.077 150 16 0
1.686 0.066 1.0779999 150 16 0
1.688 0.064000003 1.076 150 16 0
1.691 0.061999999 1.074 150 16 0
1.692 0.059999999 1.071 150 16 0
1.701 0.057999998 1.072 150 16 0
1.7029999 0.056000002 1.0700001 150 16 0
1.706 0.054000001 1.068 150 16 0
1.709 0.052000001 1.0650001 150 16 0
1.717 0.050000001 1.066 150 16 0
1.721 0.048 1.064 150 16 0
1.726 0.046 1.063 150 16 0
1.725 0.044 1.058 150 16 0
1.734 0.041999999 1.059 150 16 0
1.735 0.039999999 1.0549999 150 16 0
1.738 0.037999999 1.052 150 16 0
1.745 0.035999998 1.051 150 16 0
1.749 0.034000002 1.05 150 16 0
1.755 0.032000002 1.048 150 16 0
1.757 0.029999999 1.045 150 16 0
1.76 0.028000001 1.0420001 150 16 0
1.7640001 0.026000001 1.039 150 16 0
1.766 0.025 1.035 150 16 0
1.768 0.023 1.0319999 150 16 0
1.776 0.021 1.031 150 16 0
1.791 0.018999999 1.034 150 19 0
1.793 0.017000001 1.031 150 16 0
1.803 0.016000001 1.031 150 16 0
1.807 0.014 1.028 150 16 0
1.814 0.012 1.026 150 16 0
1.822 0.0099999998 1.026 150 16 0
1.825 0.0089999996 1.022 150 16 0
1.8329999 0.0070000002 1.021 150 16 0
1.834 0.0049999999 1.016 150 16 0
1.842 0.0040000002 1.015 150 16 0
1.849 0.0020000001 1.013 150 16 0
1.854 0 1.01 150 16 0
1.857 0 1.005 150 16 0
1.864 -0.0020000001 1.0039999 150 16 0
1.869 -0.003 1.001 150 16 0
1.878 -0.0049999999 0.99900001 150 16 0
1.886 -0.0070000002 0.99800003 150 16 0
1.8940001 -0.0080000004 0.99599999 150 16 0
1.902 -0.0099999998 0.99400002 150 16 0
1.906 -0.011 0.99000001 150 16 0
1.911 -0.013 0.986 150 16 0
1.923 -0.014 0.98699999 150 16 0
1.927 -0.016000001 0.98299998 150 16 0
1.934 -0.017000001 0.98000002 150 16 0
1.939 -0.017999999 0.97600001 150 16 0
1.946 -0.02 0.97299999 150 16 0
1.9529999 -0.021 0.97100002 150 16 0
1.96 -0.023 0.96700001 150 16 0
1.97 -0.024 0.96600002 150 16 0
1.971 -0.025 0.95999998 150 16 0
1.98 -0.027000001 0.958 150 16 0
1.99 -0.028000001 0.95599997 150 16 0
1.997 -0.028999999 0.95300001 150 16 0
2 -0.030999999 0.94800001 150 16 0
2.0079999 -0.032000002 0.94499999 150 16 0
2.02 -0.033 0.94300002 150 16 0
2.0320001 -0.034000002 0.94300002 146 16 0
2.04 -0.035999998 0.93900001 142 16 0
2.0469999 -0.037 0.93599999 142 16 0
2.052 -0.037999999 0.93099999 136 16 0
2.0599999 -0.039000001 0.92799997 139 16 0
2.069 -0.039999999 0.92500001 139 16 0
2.076 -0.041000001 0.921 138 16 0
2.0869999 -0.043000001 0.91900003 137 16 0
2.0910001 -0.044 0.91399997 135 16 0
2.102 -0.045000002 0.91100001 138 16 0
2.108 -0.046 0.90700001 139 16 0
2.1170001 -0.046999998 0.90399998 142 16 0
2.1259999 -0.048 0.89999998 125 16 0
2.1329999 -0.048999999 0.89600003 128 16 0
2.1400001 -0.050000001 0.89200002 119 16 0
2.1459999 -0.050999999 0.88700002 123 16 0
2.1589999 -0.052000001 0.88499999 113 16 0
2.1670001 -0.052999999 0.88099998 119 16 0
2.174 -0.054000001 0.87599999 116 16 0
2.184 -0.054000001 0.87300003 119 16 0
2.197 -0.055 0.87099999 125 16 0
2.2030001 -0.056000002 0.86500001 116 16 0
2.2130001 -0.057 0.86199999 123 16 0
2.2249999 -0.057999998 0.85900003 131 16 0
2.2309999 -0.059 0.85399997 106 16 0
2.234 -0.059 0.847 114 16 0
2.2520001 -0.059999999 0.84600002 120 16 0
2.2609999 -0.061000001 0.84200001 122 16 0
2.2679999 -0.061999999 0.83700001 119 16 0
2.279 -0.061999999 0.833 129 16 0
2.2869999 -0.063000001 0.82800001 121 16 0
2.299 -0.064000003 0.82499999 111 16 0
2.3069999 -0.064999998 0.81999999 116 16 0
2.3169999 -0.064999998 0.81599998 105 16 0
2.3310001 -0.066 0.81300002 105 16 0
2.3429999 -0.067000002 0.80900002 106 16 0
2.3510001 -0.067000002 0.80400002 107 16 0
2.359 -0.068000004 0.79799998 107 16 0
2.368 -0.068000004 0.79299998 111 16 0
2.3770001 -0.068999998 0.78799999 110 16 0
2.385 -0.068999998 0.78299999 111 16 0
2.4000001 -0.07 0.77999997 120 16 0
2.408 -0.07 0.77399999 115 16 0
2.414 -0.07 0.76800001 119 16 0
2.4289999 -0.071000002 0.764 127 16 0
2.437 -0.071000002 0.759 116 16 0
2.45 -0.071999997 0.75400001 104 16 0
2.4560001 -0.071999997 0.74800003 114 16 0
2.467 -0.071999997 0.74299997 68 16 0
2.48 -0.072999999 0.73799998 62 16 0
2.494 -0.072999999 0.73400003 69 16 0
2.5039999 -0.072999999 0.72899997 63 16 0
2.5150001 -0.074000001 0.72399998 59 16 0
2.53 -0.074000001 0.71899998 62 16 0
2.5350001 -0.074000001 0.71200001 65 16 0
2.553 -0.074000001 0.708 67 16 0
2.5639999 -0.075000003 0.70300001 65 16 0
2.5769999 -0.075000003 0.69800001 53 16 0
2.5840001 -0.075000003 0.69099998 45 16 0
2.6040001 -0.075000003 0.68800002 58 16 0
2.6210001 -0.075000003 0.68300003 48 16 0
2.632 -0.075999998 0.67699999 38 16 0
2.645 -0.075999998 0.67199999 39 16 0
2.654 -0.075999998 0.66600001 45 16 0
2.665 -0.075999998 0.65899998 41 16 0
2.681 -0.075999998 0.65399998 37 16 0
2.688 -0.075999998 0.64700001 38 16 0
2.7030001 -0.075999998 0.64200002 36 16 0
2.717 -0.075999998 0.63599998 37 16 0
2.7249999 -0.075000003 0.62900001 35 16 0
2.7420001 -0.075000003 0.62400001 36 16 0
2.756 -0.075000003 0.61799997 33 16 0
2.7709999 -0.075000003 0.61199999 33 16 0
2.7809999 -0.075000003 0.60500002 32 16 0
2.796 -0.075000003 0.59899998 27 16 0
2.8080001 -0.075000003 0.59200001 24 16 0
2.8269999 -0.074000001 0.58700001 27 16 0
2.842 -0.074000001 0.57999998 32 16 0
2.855 -0.074000001 0.57300001 31 16 0
2.8759999 -0.074000001 0.56800002 31 16 0
2.8840001 -0.072999999 0.56 31 16 0
2.8959999 -0.072999999 0.55299997 31 16 0
2.914 -0.072999999 0.54699999 30 16 0
2.9319999 -0.071999997 0.54000002 29 16 0
2.9449999 -0.071999997 0.53299999 30 16 0
2.964 -0.071999997 0.52700001 29 16 0
2.9820001 -0.071000002 0.51999998 31 16 0
2.9920001 -0.071000002 0.51200002 30 16 0
3.0150001 -0.07 0.50599998 32 16 0
3.0280001 -0.07 0.49900001 31 16 0
3.043 -0.068999998 0.491 30 16 0
3.062 -0.068000004 0.484 31 16 0
3.0780001 -0.068000004 0.47600001 30 16 0
3.092 -0.067000002 0.46900001 31 16 0
3.1140001 -0.067000002 0.46200001 27 16 0
3.1259999 -0.066 0.45300001 28 16 0
3.148 -0.064999998 0.44600001 27 16 0
3.1659999 -0.064000003 0.43799999 28 16 0
3.187 -0.064000003 0.43099999 29 16 0
3.2019999 -0.063000001 0.42300001 29 16 0
3.227 -0.061999999 0.41499999 29 16 0
3.244 -0.061000001 0.40700001 29 16 0
3.256 -0.059999999 0.398 29 16 0
3.2820001 -0.059999999 0.38999999 29 16 0
3.2939999 -0.057999998 0.38100001 29 16 0
3.3169999 -0.057999998 0.373 28 16 0
3.339 -0.057 0.36500001 28 16 0
3.3599999 -0.056000002 0.35600001 29 16 0
3.3729999 -0.054000001 0.347 29 16 0
3.401 -0.052999999 0.33899999 37 16 0
3.408 -0.052000001 0.32800001 127 16 0
3.401 -0.050999999 0.317 76 16 0
3.401 -0.048999999 0.30599999 69 16 0
3.3889999 -0.046999998 0.294 63 16 0
3.381 -0.046 0.28200001 68 16 0
3.3729999 -0.044 0.271 74 16 0
3.3710001 -0.043000001 0.259 61 16 0
3.362 -0.041000001 0.248 67 16 0
3.3570001 -0.039000001 0.237 83 16 0
3.3540001 -0.037999999 0.226 64 16 0
3.345 -0.035999998 0.214 84 16 0
3.3440001 -0.034000002 0.204 79 16 0
3.3369999 -0.032000002 0.192 73 16 0
3.326 -0.030999999 0.18099999 84 16 0
3.323 -0.028999999 0.17 77 16 0
3.3199999 -0.027000001 0.16 70 16 0
3.3099999 -0.025 0.148 76 16 0
3.3039999 -0.024 0.138 67 16 0
3.303 -0.022 0.127 83 16 0
3.293 -0.02 0.116 79 16 0
3.2920001 -0.017999999 0.106 47 16 0
3.283 -0.017000001 0.094999999 35 16 0
3.276 -0.015 0.083999999 28 16 0
3.277 -0.013 0.074000001 23 16 0
3.279 -0.011 0.063000001 20 16 0
3.2809999 -0.0089999996 0.052999999 17 16 0
3.279 -0.0070000002 0.041999999 16 16 0
3.2809999 -0.0049999999 0.032000002 16 16 0
3.2780001 -0.0040000002 0.021 16 16 0
3.2809999 -0.0020000001 0.011 16 16 0
3.2820001 0 0.001 16 16 0
3.276 0.001 -0.0089999996 15 16 0
3.279 0.003 -0.018999999 15 16 0
3.2850001 0.0049999999 -0.029999999 17 16 0
3.279 0.0070000002 -0.039999999 17 16 0
3.279 0.0089999996 -0.050999999 17 16 0
3.2850001 0.011 -0.061000001 17 16 0
3.2820001 0.013 -0.071000002 18 16 0
3.2869999 0.016000001 -0.082000002 19 16 0
3.2839999 0.017999999 -0.092 22 16 0
3.283 0.02 -0.103 27 16 0
3.277 0.022 -0.113 34 16 0
3.2780001 0.024 -0.123 43 16 0
3.273 0.026000001 -0.134 49 16 0
3.2650001 0.028000001 -0.14399999 55 16 0
3.2539999 0.029999999 -0.153 52 16 0
3.2509999 0.033 -0.164 53 16 0
3.2460001 0.035 -0.17399999 52 16 0
3.2420001 0.037 -0.184 54 16 0
3.234 0.039000001 -0.193 63 16 0
3.227 0.041000001 -0.20299999 51 16 0
3.2260001 0.044 -0.214 46 16 0
3.2149999 0.046 -0.223 43 16 0
3.214 0.048 -0.233 40 16 0
3.2130001 0.050000001 -0.243 39 16 0
3.2060001 0.052999999 -0.25299999 39 16 0
3.197 0.055 -0.26199999 42 16 0
3.1930001 0.057 -0.27200001 46 16 0
3.1849999 0.059 -0.28099999 51 16 0
3.181 0.061999999 -0.29100001 61 16 0
3.175 0.064000003 -0.30000001 58 16 0
3.1659999 0.066 -0.31 50 16 0
3.161 0.068000004 -0.31900001 59 16 0
3.1570001 0.071000002 -0.329 58 16 0
3.1500001 0.072999999 -0.338 54 16 0
3.148 0.075999998 -0.34799999 64 16 0
3.142 0.078000002 -0.35699999 50 16 0
3.1370001 0.079999998 -0.366 50 16 0
3.1289999 0.082999997 -0.375 50 16 0
3.125 0.085000001 -0.38499999 51 16 0
3.1140001 0.088 -0.39300001 51 16 0
3.1110001 0.090000004 -0.403 60 16 0
3.102 0.092 -0.41100001 63 16 0
3.1029999 0.094999999 -0.421 58 16 0
3.096 0.097000003 -0.43000001 54 16 0
3.095 0.1 -0.44 81 16 0
3.086 0.102 -0.44800001 86 16 0
3.0780001 0.105 -0.45699999 89 16 0
3.075 0.107 -0.46599999 95 16 0
3.0669999 0.11 -0.47499999 89 16 0
3.0639999 0.112 -0.484 88 16 0
3.0580001 0.115 -0.493 90 16 0
3.05 0.117 -0.50099999 88 16 0
3.039 0.12 -0.509 89 16 0
3.043 0.123 -0.51899999 98 16 0
3.033 0.125 -0.52700001 90 16 0
3.0320001 0.12800001 -0.53600001 71 16 0
3.029 0.131 -0.546 91 16 0
3.02 0.133 -0.55400002 82 16 0
3.016 0.13600001 -0.56199998 73 16 0
3.0120001 0.138 -0.57099998 86 16 0
3.003 0.141 -0.579 80 16 0
2.9949999 0.14399999 -0.58700001 84 16 0
2.99 0.146 -0.59500003 80 16 0
2.9890001 0.149 -0.60500002 101 16 0
2.9860001 0.152 -0.61299998 75 16 0
2.9779999 0.155 -0.62099999 81 16 0
2.9749999 0.15700001 -0.63 79 16 0
2.973 0.16 -0.639 73 16 0
2.9619999 0.163 -0.64600003 83 16 0
2.9579999 0.16599999 -0.65499997 79 16 0
2.9530001 0.168 -0.66299999 93 16 0
2.944 0.171 -0.67000002 67 16 0
2.941 0.17399999 -0.67900002 77 16 0
2.937 0.177 -0.68699998 111 16 0
2.9360001 0.18000001 -0.69599998 109 16 0
2.927 0.182 -0.70300001 94 16 0
2.9200001 0.185 -0.71100003 107 16 0
2.9189999 0.18799999 -0.72000003 114 16 0
2.9130001 0.191 -0.727 121 16 0
2.9100001 0.19400001 -0.736 121 16 0
2.9030001 0.197 -0.74299997 129 16 0
2.8959999 0.2 -0.75099999 126 16 0
2.8940001 0.20299999 -0.759 114 16 0
2.888 0.206 -0.76700002 116 16 0
2.881 0.20900001 -0.77399999 128 16 0
2.8800001 0.212 -0.78299999 130 16 0
2.875 0.215 -0.79100001 137 16 0
2.859 0.21699999 -0.79500002 122 16 0
2.8540001 0.22 -0.80299997 121 16 0
2.8540001 0.22400001 -0.81199998 126 16 0
2.845 0.227 -0.81800002 141 16 0
2.8429999 0.23 -0.82599998 150 16 0
2.8380001 0.233 -0.83399999 150 16 0
2.832 0.236 -0.84100002 150 16 0
2.829 0.23899999 -0.84899998 149 16 0
2.822 0.242 -0.85600001 145 16 0
2.8199999 0.245 -0.86400002 150 16 0
2.8150001 0.249 -0.87199998 150 16 0
2.812 0.252 -0.87900001 150 16 0
2.8080001 0.255 -0.88700002 150 16 0
2.799 0.25799999 -0.89300001 150 16 0
2.793 0.26100001 -0.89999998 150 16 0
2.7869999 0.264 -0.90600002 150 16 0
2.783 0.26800001 -0.91399997 150 16 0
2.776 0.271 -0.92000002 150 16 0
2.773 0.27399999 -0.92799997 150 16 0
2.763 0.27700001 -0.93300003 150 16 0
2.7650001 0.28099999 -0.94199997 150 16 0
2.763 0.285 -0.94999999 148 16 0
2.7539999 0.287 -0.95599997 145 16 0
2.75 0.29100001 -0.963 130 16 0
2.756 0.29499999 -0.97299999 26 16 0
2.7490001 0.29899999 -0.98000002 19 16 0
0 0 0 0 16 0
0 0 0 0 16 0
4.1300001 0.46700001 -1.51 0 17 0
0 0 0 0 16 0
3.135 0.36300001 -1.166 0 17 0
3.1340001 0.368 -1.175 0 16 0
3.1400001 0.373 -1.187 0 16 0
0 0 0 0 16 0
0 0 0 0 16 0
0 0 0 0 16 0
2.697 0.33700001 -1.052 33 17 0
2.6919999 0.34 -1.058 34 16 0
2.678 0.34299999 -1.061 150 16 0
2.675 0.347 -1.068 148 16 0
2.665 0.34999999 -1.072 145 16 0
2.6600001 0.35299999 -1.0779999 150 16 0
2.658 0.35699999 -1.085 150 16 0
2.6500001 0.36000001 -1.09 150 16 0
2.645 0.36399999 -1.096 150 16 0
2.642 0.368 -1.102 150 16 0
2.6389999 0.37200001 -1.109 150 16 0
2.635 0.375 -1.115 150 16 0
2.631 0.37900001 -1.1210001 150 16 0
2.628 0.38299999 -1.128 150 16 0
2.625 0.38699999 -1.1339999 150 16 0
2.618 0.38999999 -1.1390001 150 16 0
2.608 0.39300001 -1.142 150 16 0
2.6040001 0.39700001 -1.148 150 16 0
2.6010001 0.40099999 -1.154 150 16 0
2.6040001 0.40599999 -1.163 150 16 0
2.595 0.40900001 -1.1670001 150 16 0
2.5899999 0.41299999 -1.1720001 150 16 0
2.5869999 0.417 -1.178 150 16 0
2.5799999 0.421 -1.182 150 16 0
2.575 0.42399999 -1.187 150 16 0
2.5739999 0.42899999 -1.194 150 16 0
2.5639999 0.43200001 -1.196 150 16 0
2.5650001 0.43599999 -1.204 150 16 0
2.562 0.44100001 -1.21 150 16 0
2.559 0.44499999 -1.215 150 16 0
2.5480001 0.447 -1.217 150 16 0
2.5480001 0.45199999 -1.224 150 16 0
2.54 0.45500001 -1.227 150 16 0
2.536 0.46000001 -1.233 150 16 0
2.5320001 0.463 -1.237 150 16 0
2.527 0.46700001 -1.242 150 16 0
2.523 0.47099999 -1.2460001 150 16 0
2.5209999 0.47600001 -1.252 150 16 0
2.5139999 0.479 -1.255 150 16 0
2.513 0.484 -1.261 150 16 0
2.51 0.48800001 -1.266 150 16 0
2.5039999 0.49200001 -1.27 150 16 0
2.5009999 0.49599999 -1.274 150 16 0
2.494 0.5 -1.277 150 16 0
2.4920001 0.50400001 -1.2819999 150 16 0
2.4890001 0.50800002 -1.2869999 150 16 0
2.4849999 0.51200002 -1.291 150 16 0
2.477 0.51599997 -1.293 150 16 0
2.4790001 0.52100003 -1.3 150 16 0
2.473 0.52399999 -1.303 150 16 0
2.467 0.528 -1.306 150 16 0
2.464 0.53200001 -1.3099999 150 16 0
2.461 0.537 -1.314 150 16 0
2.457 0.54100001 -1.318 150 16 0
2.4519999 0.54400003 -1.3200001 150 16 0
2.45 0.54900002 -1.325 150 16 0
2.4489999 0.55400002 -1.33 150 16 0
2.4419999 0.55699998 -1.331 150 16 0
2.4360001 0.56099999 -1.334 150 16 0
2.4360001 0.565 -1.339 150 16 0
2.4300001 0.56900001 -1.341 150 16 0
2.427 0.57300001 -1.344 150 16 0
2.424 0.57800001 -1.348 150 16 0
2.421 0.58200002 -1.351 150 16 0
2.418 0.58600003 -1.355 150 16 0
2.414 0.58999997 -1.357 150 16 0
2.4130001 0.59500003 -1.3609999 150 16 0
2.4070001 0.59799999 -1.363 150 16 0
2.4059999 0.60299999 -1.3660001 150 16 0
2.402 0.60699999 -1.368 150 16 0
2.3989999 0.611 -1.3710001 150 16 0
2.395 0.61500001 -1.373 150 16 0
2.392 0.61900002 -1.376 150 16 0
2.391 0.62400001 -1.3789999 140 16 0
2.3840001 0.62599999 -1.3789999 150 16 0
2.3829999 0.63099998 -1.383 150 16 0
2.3789999 0.63499999 -1.3839999 150 16 0
2.375 0.639 -1.386 150 16 0
2.375 0.64399999 -1.39 150 16 0
2.3699999 0.64700001 -1.39 150 16 0
2.368 0.65100002 -1.392 150 16 0
2.3659999 0.65499997 -1.3940001 150 16 0
2.362 0.65899998 -1.395 150 16 0
2.3599999 0.66299999 -1.397 150 16 0
2.3559999 0.667 -1.398 147 16 0
2.3529999 0.671 -1.4 150 16 0
2.3510001 0.67500001 -1.401 150 16 0
2.3399999 0.676 -1.397 146 16 0
2.3469999 0.68300003 -1.404 148 16 0
2.3410001 0.68599999 -1.403 144 16 0
2.3369999 0.68900001 -1.403 150 16 0
2.335 0.69300002 -1.405 140 16 0
2.3340001 0.69700003 -1.406 149 16 0
2.335 0.70200002 -1.409 150 16 0
2.3299999 0.70499998 -1.408 150 16 0
2.322 0.70700002 -1.406 150 16 0
2.322 0.71100003 -1.4069999 150 16 0
2.319 0.71499997 -1.4069999 150 16 0
2.319 0.71899998 -1.409 150 16 0
2.313 0.72100002 -1.406 146 16 0
2.3150001 0.72600001 -1.409 150 16 0
2.3099999 0.72899997 -1.4069999 150 16 0
2.3110001 0.73299998 -1.409 150 16 0
2.3069999 0.736 -1.408 150 16 0
2.309 0.741 -1.41 150 16 0
2.3039999 0.74299997 -1.408 150 16 0
2.306 0.74800003 -1.41 150 16 0
2.3050001 0.75199997 -1.41 150 16 0
2.3010001 0.75400001 -1.408 150 16 0
2.3 0.75800002 -1.408 150 16 0
2.302 0.76200002 -1.409 150 16 0
2.2969999 0.764 -1.4069999 150 16 0
2.2950001 0.76700002 -1.405 150 16 0
2.2939999 0.76999998 -1.405 150 16 0
2.2920001 0.773 -1.404 150 16 0
2.293 0.77700001 -1.404 150 16 0
2.289 0.77899998 -1.401 150 16 0
2.289 0.78299999 -1.401 150 16 0
2.29 0.78600001 -1.401 150 16 0
2.289 0.79000002 -1.4 150 16 0
2.2869999 0.792 -1.397 150 16 0
2.286 0.79500002 -1.396 150 16 0
2.2869999 0.79799998 -1.395 150 16 0
2.283 0.80000001 -1.392 150 16 0
2.2850001 0.80400002 -1.392 150 16 0
2.286 0.80699998 -1.391 150 16 0
2.2809999 0.80800003 -1.387 150 16 0
2.286 0.81300002 -1.388 150 16 0
2.2820001 0.81400001 -1.3839999 150 16 0
2.2809999 0.81699997 -1.382 150 16 0
2.2820001 0.81999999 -1.38 150 16 0
2.2820001 0.82200003 -1.378 150 16 0
2.2820001 0.824 -1.376 150 16 0
2.2820001 0.82700002 -1.374 150 16 0
2.283 0.82999998 -1.372 150 16 0
2.28 0.83099997 -1.368 150 16 0
2.2739999 0.83099997 -1.362 150 16 0
2.277 0.83399999 -1.3609999 150 16 0
2.276 0.83600003 -1.357 150 16 0
2.2750001 0.83700001 -1.354 150 16 0
2.279 0.84100002 -1.354 150 16 0
2.2739999 0.84100002 -1.348 150 16 0
2.2809999 0.84500003 -1.349 150 16 0
2.279 0.84600002 -1.344 150 16 0
2.279 0.84799999 -1.341 150 16 0
2.28 0.85000002 -1.3380001 150 16 0
2.2809999 0.852 -1.335 150 16 0
2.2820001 0.85299999 -1.332 150 16 0
2.2839999 0.85500002 -1.329 150 16 0
2.286 0.85799998 -1.327 150 16 0
2.286 0.85900003 -1.323 150 16 0
2.2839999 0.85900003 -1.318 150 16 0
2.2869999 0.861 -1.3150001 150 16 0
2.2869999 0.86199999 -1.311 150 16 0
2.29 0.86400002 -1.309 150 16 0
2.2909999 0.86500001 -1.3049999 150 16 0
2.289 0.86500001 -1.3 150 16 0
2.293 0.86799997 -1.2970001 150 16 0
2.296 0.86900002 -1.294 150 16 0
2.2939999 0.86900002 -1.289 150 16 0
2.299 0.87099999 -1.2869999 150 16 0
2.3010001 0.87199998 -1.283 150 16 0
2.302 0.87300003 -1.278 150 16 0
2.3010001 0.87300003 -1.273 150 16 0
2.3050001 0.875 -1.27 150 16 0
2.3050001 0.875 -1.265 150 16 0
2.309 0.87599999 -1.262 150 16 0
2.3099999 0.87599999 -1.257 150 16 0
2.312 0.87699997 -1.253 150 16 0
2.3150001 0.87800002 -1.249 150 16 0
2.3169999 0.87800002 -1.245 150 16 0
2.3169999 0.87800002 -1.239 150 16 0
2.3180001 0.87800002 -1.234 150 16 0
2.323 0.87900001 -1.2309999 150 16 0
2.3239999 0.87900001 -1.226 150 16 0
2.323 0.87800002 -1.22 150 16 0
2.325 0.87800002 -1.215 150 16 0
2.3269999 0.87800002 -1.21 150 16 0
2.3299999 0.87800002 -1.206 150 16 0
2.335 0.87900001 -1.202 150 16 0
2.335 0.87800002 -1.196 150 16 0
2.3369999 0.87800002 -1.191 150 16 0
2.342 0.87800002 -1.188 150 16 0
2.342 0.87699997 -1.182 150 16 0
2.3469999 0.87800002 -1.178 150 16 0
2.3510001 0.87800002 -1.173 150 16 0
2.3499999 0.87599999 -1.1670001 150 16 0
2.3559999 0.87699997 -1.163 150 16 0
2.3570001 0.875 -1.1569999 150 16 0
2.3599999 0.875 -1.152 150 16 0
2.3629999 0.87400001 -1.147 150 16 0
2.3659999 0.87300003 -1.142 150 16 0
2.369 0.87199998 -1.137 150 16 0
2.3740001 0.87199998 -1.133 150 16 0
2.3740001 0.87099999 -1.126 150 16 0
2.3770001 0.87 -1.1210001 150 16 0
2.3800001 0.86900002 -1.115 150 16 0
2.3859999 0.86799997 -1.1109999 150 16 0
2.388 0.86699998 -1.1059999 150 16 0
2.392 0.866 -1.101 150 16 0
2.3940001 0.86500001 -1.095 150 16 0
2.3970001 0.86299998 -1.089 150 16 0
2.401 0.86199999 -1.084 150 16 0
2.404 0.861 -1.079 150 16 0
2.4070001 0.85900003 -1.073 150 16 0
2.4100001 0.85799998 -1.067 150 16 0
2.414 0.85600001 -1.062 150 16 0
2.4170001 0.85399997 -1.056 150 16 0
2.4189999 0.852 -1.05 150 16 0
2.4260001 0.852 -1.046 150 16 0
2.4260001 0.84899998 -1.039 150 16 0
2.4289999 0.847 -1.033 150 16 0
2.4330001 0.84500003 -1.028 150 16 0
2.4360001 0.84299999 -1.022 150 16 0
2.4400001 0.84200001 -1.016 150 16 0
2.444 0.83899999 -1.01 150 16 0
2.4460001 0.83700001 -1.0039999 150 16 0
2.4489999 0.83499998 -0.99800003 150 16 0
2.457 0.83399999 -0.99400002 150 16 0
2.457 0.83099997 -0.98699999 150 16 0
2.461 0.82800001 -0.98100001 150 16 0
2.4679999 0.82700002 -0.977 150 16 0
2.47 0.824 -0.97000003 150 16 0
2.4749999 0.82200003 -0.96499997 51 16 0
2.4849999 0.82200003 -0.96100003 20 16 0
2.4860001 0.81900001 -0.95499998 7 16 0
2.5239999 0.82700002 -0.96200001 2 18 0
2.5480001 0.83099997 -0.963 4 16 0
2.4660001 0.801 -0.92500001 10 16 0
2.4389999 0.78799999 -0.90799999 14 16 0
2.4400001 0.78399998 -0.90100002 17 16 0
2.444 0.78100002 -0.89499998 8 16 0
2.46 0.78299999 -0.89399999 1 16 0
2.575 0.815 -0.92799997 0 17 0
2.605 0.81999999 -0.93099999 0 16 0
2.5179999 0.78899997 -0.89300001 1 16 0
2.5350001 0.79000002 -0.89200002 17 16 0
2.53 0.78399998 -0.88200003 150 16 0
2.536 0.78100002 -0.87699997 150 16 0
2.5409999 0.778 -0.87099999 150 16 0
2.5409999 0.77399999 -0.86400002 150 16 0
2.5439999 0.77100003 -0.85799998 150 16 0
2.5510001 0.76800001 -0.852 150 16 0
2.553 0.764 -0.84600002 150 16 0
2.556 0.76099998 -0.83899999 150 16 0
2.5599999 0.75700003 -0.833 150 16 0
2.563 0.75400001 -0.82700002 150 16 0
2.5680001 0.75 -0.82099998 150 16 0
2.5710001 0.74599999 -0.815 150 16 0
2.5739999 0.74299997 -0.80800003 150 16 0
2.586 0.74199998 -0.80500001 150 16 0
2.5829999 0.736 -0.796 150 16 0
2.595 0.73400003 -0.79299998 150 16 0
2.605 0.73199999 -0.78799999 150 16 0
2.6029999 0.727 -0.77999997 150 16 0
2.6110001 0.72399998 -0.77499998 150 16 0
2.612 0.71899998 -0.76800001 150 16 0
2.6170001 0.71600002 -0.76200002 150 16 0
2.6199999 0.71100003 -0.75599998 150 16 0
2.6289999 0.70899999 -0.75099999 150 16 0
2.635 0.70499998 -0.745 150 16 0
2.635 0.69999999 -0.73799998 150 16 0
2.641 0.69599998 -0.73199999 150 16 0
2.6440001 0.69199997 -0.72600001 150 16 0
2.6500001 0.68800002 -0.72000003 150 16 0
2.6559999 0.68400002 -0.71499997 150 16 0
2.6589999 0.68000001 -0.708 150 16 0
2.6619999 0.67500001 -0.70200002 150 16 0
2.6700001 0.67199999 -0.69599998 150 16 0
2.6760001 0.66799998 -0.69099998 150 16 0
2.6789999 0.66299999 -0.68400002 150 16 0
2.687 0.66000003 -0.67900002 150 16 0
2.6930001 0.65600002 -0.67299998 150 16 0
2.698 0.65100002 -0.667 150 16 0
2.701 0.64600003 -0.66000003 150 16 0
2.704 0.64200002 -0.65399998 150 16 0
2.71 0.63700002 -0.648 150 16 0
2.7130001 0.63200003 -0.64099997 150 16 0
2.7179999 0.62800002 -0.63499999 150 16 0
2.724 0.62300003 -0.62900001 150 16 0
2.727 0.61799997 -0.62300003 150 16 0
2.737 0.61500001 -0.61799997 150 16 0
2.7390001 0.60900003 -0.611 150 16 0
2.7409999 0.60399997 -0.60399997 150 16 0
2.7479999 0.60000002 -0.59899998 150 16 0
2.756 0.59600002 -0.59299999 150 16 0
2.7590001 0.58999997 -0.58700001 150 16 0
2.766 0.58600003 -0.58099997 150 16 0
2.77 0.58099997 -0.57499999 150 16 0
2.78 0.57700002 -0.56900001 150 16 0
2.7839999 0.57200003 -0.56300002 150 16 0
2.7869999 0.56599998 -0.55699998 150 16 0
2.7950001 0.56199998 -0.551 150 16 0
2.799 0.55699998 -0.54500002 150 16 0
2.8010001 0.551 -0.53799999 150 16 0
2.8099999 0.546 -0.53200001 150 16 0
2.8180001 0.542 -0.52700001 150 16 0
2.819 0.53600001 -0.51999998 150 16 0
2.8269999 0.53100002 -0.514 150 16 0
2.832 0.52600002 -0.50800002 150 16 0
2.835 0.51999998 -0.50099999 150 16 0
2.848 0.51599997 -0.49599999 150 16 0
2.852 0.50999999 -0.49000001 150 16 0
2.8540001 0.50400001 -0.48300001 150 16 0
2.8599999 0.49900001 -0.477 150 16 0
2.8659999 0.49399999 -0.47099999 150 16 0
2.8699999 0.48800001 -0.465 150 16 0
2.872 0.48199999 -0.458 150 16 0
2.8789999 0.477 -0.45199999 150 16 0
2.8859999 0.47099999 -0.44600001 150 16 0
2.892 0.46599999 -0.44 150 16 0
2.901 0.461 -0.43399999 150 16 0
2.9030001 0.454 -0.42699999 150 16 0
2.915 0.44999999 -0.42199999 150 16 0
2.921 0.44400001 -0.41600001 150 16 0
2.921 0.43700001 -0.40900001 150 16 0
2.931 0.43200001 -0.403 150 16 0
2.9330001 0.426 -0.39700001 150 16 0
2.9419999 0.41999999 -0.391 150 16 0
2.948 0.414 -0.384 150 16 0
2.9530001 0.40799999 -0.37799999 150 16 0
2.9619999 0.403 -0.37200001 150 16 0
2.967 0.39700001 -0.366 150 16 0
2.9749999 0.391 -0.36000001 150 16 0
2.977 0.384 -0.35299999 150 16 0
2.9849999 0.37799999 -0.347 150 16 0
2.9909999 0.37200001 -0.34099999 150 16 0
2.9979999 0.366 -0.33399999 150 16 0
3.0009999 0.359 -0.32800001 150 16 0
3.007 0.35299999 -0.32100001 150 16 0
3.013 0.347 -0.315 150 16 0
3.0209999 0.34099999 -0.30899999 150 16 0
3.0250001 0.33399999 -0.30199999 150 16 0
3.0309999 0.32800001 -0.296 150 16 0
3.0350001 0.32100001 -0.289 150 16 0
3.0439999 0.315 -0.28299999 150 16 0
3.052 0.308 -0.27700001 150 16 0
3.056 0.30199999 -0.271 150 16 0
3.0639999 0.29499999 -0.264 150 16 0
3.066 0.28799999 -0.257 150 16 0
3.079 0.28200001 -0.252 150 16 0
3.0840001 0.27500001 -0.245 150 16 0
3.0869999 0.26800001 -0.23800001 150 16 0
3.0999999 0.26199999 -0.23199999 150 16 0
3.102 0.255 -0.226 150 16 0
3.1110001 0.248 -0.219 150 16 0
3.1170001 0.241 -0.213 150 16 0
3.1229999 0.234 -0.206 145 16 0
3.1270001 0.227 -0.2 126 16 0
3.132 0.22 -0.193 136 16 0
3.1440001 0.213 -0.18700001 150 16 0
3.1500001 0.206 -0.18000001 150 16 0
3.1559999 0.199 -0.17399999 150 16 0
3.1670001 0.192 -0.167 150 16 0
3.1700001 0.185 -0.161 150 16 0
3.178 0.177 -0.154 147 16 0
3.188 0.17 -0.148 137 16 0
3.1919999 0.163 -0.141 150 16 0
3.2019999 0.156 -0.134 130 16 0
3.21 0.148 -0.12800001 115 16 0
3.2149999 0.141 -0.121 113 16 0
3.2249999 0.133 -0.114 126 16 0
3.23 0.125 -0.108 136 16 0
3.2390001 0.118 -0.101 128 16 0
3.247 0.11 -0.093999997 130 16 0
3.2509999 0.103 -0.086999997 135 16 0
3.2550001 0.094999999 -0.081 121 16 0
3.2609999 0.086999997 -0.074000001 116 16 0
3.2720001 0.079000004 -0.067000002 120 16 0
3.2780001 0.071000002 -0.059999999 109 16 0
3.2880001 0.063000001 -0.054000001 61 16 0
3.2920001 0.055 -0.046999998 52 16 0
3.2980001 0.046999998 -0.039999999 112 16 0
3.303 0.039000001 -0.033 115 16 0
3.319 0.030999999 -0.026000001 66 16 0
3.316 0.023 -0.018999999 28 16 0
3.2969999 0.015 -0.012 21 16 0
3.286 0.0070000002 -0.0049999999 20 16 0
3.2650001 -0.001 0 18 16 0
3.2550001 -0.0089999996 0.0070000002 24 16 0
3.253 -0.017000001 0.014 79 16 0
3.2579999 -0.025 0.021 150 16 0
3.266 -0.033 0.027000001 150 16 0
3.27 -0.041000001 0.034000002 150 16 0
3.2869999 -0.050000001 0.041000001 150 16 0
3.2909999 -0.057999998 0.048 150 16 0
3.293 -0.066 0.055 126 16 0
3.283 -0.075000003 0.061000001 34 16 0
3.2650001 -0.082000002 0.067000002 32 16 0
3.2490001 -0.090000004 0.074000001 33 16 0
3.2309999 -0.097999997 0.079999998 34 16 0
3.2190001 -0.106 0.086000003 32 16 0
3.2090001 -0.113 0.092 31 16 0
3.1930001 -0.121 0.097999997 31 16 0
3.1760001 -0.12800001 0.104 32 16 0
3.1630001 -0.13600001 0.11 31 16 0
3.1470001 -0.14300001 0.116 32 16 0
3.1300001 -0.15099999 0.121 30 16 0
3.1210001 -0.15800001 0.127 31 16 0
3.1029999 -0.16500001 0.133 30 16 0
3.0940001 -0.17299999 0.138 29 16 0
3.079 -0.18000001 0.14399999 31 16 0
3.066 -0.18700001 0.149 31 16 0
3.043 -0.193 0.154 31 16 0
3.0369999 -0.20100001 0.16 31 16 0
3.0190001 -0.207 0.16500001 32 16 0
3 -0.214 0.17 31 16 0
2.9890001 -0.221 0.175 32 16 0
2.9779999 -0.228 0.18000001 31 16 0
2.9660001 -0.235 0.185 32 16 0
2.9519999 -0.241 0.19 32 16 0
2.937 -0.248 0.19499999 31 16 0
2.9260001 -0.25400001 0.2 31 16 0
2.9119999 -0.26100001 0.204 33 16 0
2.9000001 -0.26699999 0.20900001 33 16 0
2.885 -0.27399999 0.214 33 16 0
2.8759999 -0.28 0.21799999 33 16 0
2.8599999 -0.28600001 0.223 33 16 0
2.8510001 -0.29300001 0.227 34 16 0
2.8369999 -0.29899999 0.23199999 34 16 0
2.822 -0.30500001 0.236 33 16 0
2.8110001 -0.31099999 0.23999999 33 16 0
2.8039999 -0.31799999 0.245 34 16 0
2.7920001 -0.324 0.249 36 16 0
2.779 -0.33000001 0.25299999 37 16 0
2.7609999 -0.33500001 0.257 36 16 0
2.7539999 -0.34200001 0.26100001 37 16 0
2.75 -0.34900001 0.266 38 16 0
2.7290001 -0.354 0.26899999 38 16 0
2.721 -0.36000001 0.27399999 37 16 0
2.7119999 -0.366 0.278 37 16 0
2.7030001 -0.37200001 0.28200001 38 16 0
2.6889999 -0.37799999 0.285 38 16 0
2.6800001 -0.384 0.289 43 16 0
2.6700001 -0.38999999 0.29300001 40 16 0
2.654 -0.39500001 0.296 36 16 0
2.651 -0.40099999 0.301 56 16 0
2.635 -0.40599999 0.30399999 50 16 0
2.622 -0.41100001 0.30700001 49 16 0
2.6140001 -0.417 0.31099999 54 16 0
2.6059999 -0.42300001 0.315 55 16 0
2.5910001 -0.428 0.31799999 60 16 0
2.5810001 -0.43399999 0.32100001 55 16 0
2.569 -0.43900001 0.324 53 16 0
2.556 -0.44400001 0.32699999 57 16 0
2.5480001 -0.449 0.331 59 16 0
2.543 -0.456 0.33500001 70 16 0
2.53 -0.46000001 0.33700001 62 16 0
2.5139999 -0.46399999 0.34 68 16 0
2.5050001 -0.47 0.34299999 62 16 0
2.4960001 -0.47499999 0.34599999 60 16 0
2.483 -0.47999999 0.34900001 68 16 0
2.48 -0.486 0.35299999 66 16 0
2.4630001 -0.49000001 0.354 55 16 0
2.4549999 -0.495 0.35800001 61 16 0
2.45 -0.50099999 0.361 72 16 0
2.438 -0.50599998 0.36399999 68 16 0
2.427 -0.51099998 0.366 66 16 0
2.421 -0.51599997 0.36899999 77 16 0
2.415 -0.52200001 0.373 75 16 0
2.4030001 -0.52600002 0.375 77 16 0
2.3959999 -0.53200001 0.37799999 79 16 0
2.381 -0.53500003 0.38 70 16 0
2.372 -0.54000002 0.382 70 16 0
2.3599999 -0.54400003 0.384 78 16 0
2.3510001 -0.54900002 0.38699999 76 16 0
2.3410001 -0.55299997 0.389 74 16 0
2.332 -0.55800003 0.391 77 16 0
2.326 -0.56300002 0.39399999 82 16 0
2.313 -0.56699997 0.396 96 16 0
2.303 -0.57200003 0.398 91 16 0
2.2909999 -0.57499999 0.40000001 88 16 0
2.2839999 -0.57999998 0.40200001 95 16 0
2.276 -0.58499998 0.40400001 100 16 0
2.2639999 -0.58899999 0.40599999 100 16 0
2.2579999 -0.59399998 0.40900001 104 16 0
2.2460001 -0.59799999 0.41 98 16 0
2.2360001 -0.602 0.412 109 16 0
2.227 -0.60600001 0.414 111 16 0
2.22 -0.61000001 0.41600001 113 16 0
2.2119999 -0.61500001 0.41800001 116 16 0
2.1989999 -0.61799997 0.419 112 16 0
2.197 -0.62400001 0.42199999 103 16 0
2.184 -0.62699997 0.42300001 116 16 0
2.1800001 -0.63200003 0.42500001 111 16 0
2.168 -0.63599998 0.426 123 16 0
2.1589999 -0.639 0.428 116 16 0
2.1530001 -0.64399999 0.43000001 120 16 0
2.1459999 -0.64899999 0.43200001 132 16 0
2.1370001 -0.653 0.433 115 16 0
2.1300001 -0.65700001 0.435 138 16 0
2.1170001 -0.65899998 0.435 123 16 0
2.109 -0.66299999 0.43700001 131 16 0
2.1040001 -0.66799998 0.43900001 128 16 0
2.092 -0.671 0.43900001 131 16 0
2.0799999 -0.67400002 0.44 122 16 0
2.0680001 -0.676 0.44 133 16 0
2.0599999 -0.68000001 0.44100001 140 16 0
2.0569999 -0.685 0.44400001 147 16 0
2.05 -0.68900001 0.44499999 132 16 0
2.0420001 -0.69300002 0.44600001 135 16 0
2.0320001 -0.69599998 0.447 146 16 0
2.0239999 -0.69999999 0.44800001 139 16 0
2.017 -0.70300001 0.449 146 16 0
2.007 -0.70599997 0.449 141 16 0
2.0050001 -0.71200001 0.45199999 142 16 0
1.992 -0.713 0.45100001 149 16 0
1.988 -0.71799999 0.45300001 150 16 0
1.975 -0.72000003 0.45300001 150 16 0
1.971 -0.72399998 0.454 141 16 0
1.965 -0.72799999 0.45500001 150 16 0
1.956 -0.73100001 0.456 141 16 0
1.946 -0.73400003 0.456 150 16 0
1.942 -0.73799998 0.45699999 150 16 0
1.931 -0.74000001 0.45699999 150 16 0
1.923 -0.74299997 0.45699999 150 16 0
1.915 -0.74599999 0.458 150 16 0
1.9119999 -0.75099999 0.46000001 150 16 0
1.906 -0.755 0.46000001 150 16 0
1.897 -0.75700003 0.46000001 150 16 0
1.89 -0.75999999 0.461 150 16 0
1.885 -0.76499999 0.46200001 150 16 0
1.87 -0.764 0.46000001 150 16 0
1.868 -0.76899999 0.46200001 150 16 0
1.8660001 -0.77399999 0.463 150 16 0
1.8559999 -0.77600002 0.463 150 16 0
1.8380001 -0.77499998 0.46000001 150 16 0
1.835 -0.77899998 0.461 150 16 0
1.829 -0.78200001 0.46200001 150 16 0
1.827 -0.787 0.463 150 16 0
1.8200001 -0.79000002 0.463 150 16 0
1.8099999 -0.792 0.46200001 150 16 0
1.8049999 -0.79500002 0.463 150 16 0
1.798 -0.79699999 0.46200001 150 16 0
1.794 -0.80199999 0.463 150 16 0
1.785 -0.80299997 0.46200001 150 16 0
1.781 -0.80699998 0.463 150 16 0
1.773 -0.80900002 0.46200001 150 16 0
1.767 -0.81199998 0.46200001 150 16 0
1.758 -0.81300002 0.461 150 16 0
1.755 -0.81699997 0.46200001 150 16 0
1.747 -0.81900001 0.461 150 16 0
1.744 -0.82300001 0.46200001 150 16 0
1.742 -0.82700002 0.463 150 16 0
