# .PCD v0.7 - Point Cloud Data file format
VERSION 0.7
FIELDS x y z intensity tag line
SIZE 4 4 4 4 1 1
TYPE F F F F U U
COUNT 1 1 1 1 1 1
WIDTH 1349
HEIGHT 1
VIEWPOINT 0 0 0 1 0 0 0
POINTS 1349
DATA ascii
2.0369999 -0.60600001 -0.041999999 108 16 0
2.02 -0.60799998 -0.043000001 107 16 0
2.0150001 -0.61299998 -0.044 108 16 0
2.0050001 -0.61699998 -0.045000002 127 16 0
1.999 -0.62099999 -0.046 131 16 0
1.9859999 -0.62400001 -0.046999998 146 16 0
1.979 -0.62800002 -0.048 140 16 0
1.97 -0.63200003 -0.048999999 130 16 0
1.961 -0.63599998 -0.050000001 145 16 0
1.946 -0.63700002 -0.050999999 131 16 0
1.937 -0.64099997 -0.052000001 137 16 0
1.933 -0.64600003 -0.052999999 135 16 0
1.926 -0.64999998 -0.054000001 140 16 0
1.916 -0.653 -0.055 148 16 0
1.908 -0.65700001 -0.057 138 16 0
1.897 -0.65899998 -0.057999998 150 16 0
1.89 -0.66299999 -0.059 141 16 0
1.882 -0.66600001 -0.059999999 145 16 0
1.877 -0.671 -0.061000001 2 0 0
1.864 -0.67199999 -0.061999999 2 0 0
1.8609999 -0.67699999 -0.063000001 2 0 0
1.8559999 -0.68199998 -0.064999998 2 0 0
1.847 -0.685 -0.066 2 0 0
1.836 -0.68699998 -0.067000002 2 0 0
1.829 -0.69 -0.068000004 2 0 0
1.826 -0.69499999 -0.068999998 2 0 0
1.813 -0.69599998 -0.07 141 16 0
1.804 -0.699 -0.071000002 2 0 0
1.801 -0.704 -0.072999999 2 0 0
1.795 -0.70700002 -0.074000001 2 0 0
1.789 -0.71100003 -0.075000003 1 0 0
1.776 -0.71100003 -0.075999998 2 0 0
1.771 -0.71499997 -0.078000002 1 0 0
1.765 -0.71799999 -0.079000004 3 0 0
1.757 -0.72100002 -0.079999998 1 0 0
1.7539999 -0.72600001 -0.082000002 1 0 0
1.747 -0.72799999 -0.082999997 1 0 0
1.739 -0.73100001 -0.083999999 1 0 0
1.732 -0.73400003 -0.086000003 150 16 0
1.721 -0.73400003 -0.086999997 150 16 0
1.716 -0.73799998 -0.088 150 16 0
1.704 -0.73799998 -0.089000002 2 0 0
1.699 -0.74199998 -0.090999998 1 0 0
1.693 -0.74400002 -0.092 1 0 0
1.691 -0.74900001 -0.093999997 49 0 0
1.678 -0.74900001 -0.094999999 66 0 0
1.676 -0.75300002 -0.096000001 86 0 0
1.666 -0.75400001 -0.097999997 55 0 0
1.664 -0.75800002 -0.098999999 42 0 0
1.655 -0.75999999 -0.101 63 0 0
1.648 -0.76200002 -0.102 63 0 0
1.641 -0.764 -0.103 69 0 0
1.636 -0.76599997 -0.105 81 0 0
1.628 -0.76800001 -0.106 59 0 0
1.6289999 -0.773 -0.108 63 0 0
1.619 -0.77399999 -0.109 52 0 0
1.609 -0.77399999 -0.11 75 0 0
1.605 -0.778 -0.112 71 0 0
1.598 -0.77899998 -0.113 92 0 0
1.5930001 -0.78200001 -0.115 69 0 0
1.5880001 -0.78399998 -0.117 63 0 0
1.586 -0.78799999 -0.118 76 0 0
1.582 -0.79100001 -0.12 81 0 0
1.579 -0.79400003 -0.122 90 0 0
1.571 -0.79500002 -0.123 68 0 0
1.561 -0.79500002 -0.124 66 0 0
1.559 -0.79799998 -0.126 68 0 0
1.552 -0.79900002 -0.12800001 66 0 0
1.549 -0.80199999 -0.12899999 78 0 0
1.546 -0.80599999 -0.131 84 0 0
1.541 -0.80800003 -0.133 72 0 0
1.535 -0.80900002 -0.134 58 0 0
1.527 -0.80900002 -0.13600001 61 0 0
1.523 -0.81199998 -0.13699999 57 0 0
1.521 -0.815 -0.139 81 0 0
1.516 -0.81599998 -0.141 75 0 0
1.51 -0.81800002 -0.14300001 87 0 0
1.506 -0.81999999 -0.14399999 80 0 0
1.505 -0.82300001 -0.146 73 0 0
1.494 -0.82200003 -0.147 103 0 0
1.488 -0.82300001 -0.149 105 0 0
1.484 -0.82499999 -0.15099999 79 0 0
1.482 -0.82800001 -0.153 63 0 0
1.478 -0.829 -0.154 69 0 0
1.476 -0.83200002 -0.156 82 0 0
1.472 -0.83399999 -0.15800001 59 0 0
1.467 -0.83499998 -0.16 67 0 0
1.465 -0.838 -0.162 81 0 0
1.461 -0.83899999 -0.164 56 0 0
1.4529999 -0.838 -0.16500001 97 0 0
1.449 -0.83999997 -0.167 94 0 0
1.444 -0.84100002 -0.168 117 0 0
1.442 -0.84299999 -0.171 139 0 0
1.438 -0.84399998 -0.17200001 129 0 0
1.436 -0.847 -0.17399999 129 0 0
1.428 -0.84600002 -0.176 119 0 0
1.427 -0.84799999 -0.178 94 0 0
1.421 -0.84799999 -0.17900001 126 0 0
1.421 -0.85100001 -0.18099999 98 0 0
1.415 -0.85100001 -0.183 149 0 0
1.411 -0.852 -0.185 117 0 0
1.406 -0.85299999 -0.18700001 105 0 0
1.405 -0.85500002 -0.189 145 0 0
1.402 -0.85600001 -0.191 93 0 0
1.399 -0.85699999 -0.192 99 0 0
1.397 -0.85900003 -0.19400001 138 0 0
1.392 -0.85900003 -0.19599999 119 0 0
1.39 -0.861 -0.198 93 0 0
1.3890001 -0.86299998 -0.2 133 0 0
1.385 -0.86299998 -0.20200001 127 0 0
1.382 -0.86400002 -0.204 145 0 0
1.38 -0.86500001 -0.206 125 0 0
1.378 -0.86699998 -0.208 134 0 0
1.377 -0.86799997 -0.20999999 150 0 0
1.375 -0.87 -0.212 139 0 0
1.374 -0.87199998 -0.214 150 0 0
1.37 -0.87199998 -0.21600001 150 0 0
1.3710001 -0.875 -0.219 144 0 0
1.369 -0.875 -0.22 122 0 0
1.362 -0.87300003 -0.222 103 0 0
1.36 -0.87400001 -0.22400001 134 0 0
1.359 -0.875 -0.226 150 0 0
1.358 -0.87699997 -0.228 150 0 0
1.354 -0.87599999 -0.23 129 0 0
1.351 -0.87599999 -0.23100001 140 0 0
1.347 -0.875 -0.233 139 0 0
1.346 -0.87599999 -0.235 147 0 0
1.345 -0.87699997 -0.237 150 0 0
1.344 -0.87800002 -0.23899999 107 0 0
1.3430001 -0.87900001 -0.241 140 0 0
1.339 -0.87800002 -0.243 115 0 0
1.3380001 -0.87900001 -0.245 136 0 0
1.335 -0.87800002 -0.24699999 150 0 0
1.334 -0.87900001 -0.249 150 0 0
1.336 -0.88099998 -0.25099999 136 0 0
1.337 -0.88300002 -0.25400001 117 0 0
1.334 -0.88200003 -0.255 118 0 0
1.33 -0.88099998 -0.257 150 0 0
1.33 -0.88099998 -0.259 150 0 0
1.327 -0.88099998 -0.26100001 150 0 0
1.327 -0.88099998 -0.26300001 150 0 0
1.325 -0.88099998 -0.264 150 0 0
1.312 -0.87300003 -0.264 138 1 0
1.324 -0.88200003 -0.26800001 150 3 0
1.324 -0.88200003 -0.27000001 150 0 0
1.323 -0.88200003 -0.27200001 150 0 0
1.3099999 -0.87300003 -0.27200001 148 1 0
1.322 -0.88200003 -0.27599999 146 3 0
1.323 -0.88300002 -0.278 150 0 0
1.321 -0.88200003 -0.28 150 0 0
1.321 -0.88200003 -0.28200001 150 0 0
1.316 -0.87800002 -0.28299999 150 3 0
1.3200001 -0.88200003 -0.28600001 150 0 0
1.3200001 -0.88099998 -0.28799999 150 0 0
1.3200001 -0.88099998 -0.28999999 150 0 0
1.317 -0.87900001 -0.29100001 150 0 0
1.3200001 -0.88 -0.29300001 150 0 0
1.3200001 -0.88 -0.29499999 150 0 0
1.318 -0.87800002 -0.29699999 150 0 0
1.3150001 -0.87599999 -0.29800001 150 0 0
1.317 -0.87699997 -0.30000001 150 0 0
1.317 -0.87599999 -0.30199999 150 0 0
1.317 -0.875 -0.303 150 0 0
1.3200001 -0.87599999 -0.30599999 150 0 0
1.3200001 -0.875 -0.30700001 150 0 0
1.321 -0.875 -0.30899999 150 0 0
1.321 -0.87400001 -0.31099999 150 0 0
1.3200001 -0.87300003 -0.31200001 150 0 0
1.3200001 -0.87199998 -0.31400001 150 0 0
1.322 -0.87099999 -0.31600001 150 0 0
1.322 -0.87 -0.317 150 0 0
1.321 -0.86900002 -0.31900001 150 0 0
1.323 -0.86799997 -0.32100001 150 0 0
1.323 -0.86699998 -0.322 150 0 0
1.326 -0.86699998 -0.324 150 0 0
1.324 -0.86500001 -0.32499999 150 0 0
1.324 -0.86299998 -0.32699999 150 0 0
1.33 -0.86500001 -0.329 150 0 0
1.331 -0.86400002 -0.331 150 0 0
1.3329999 -0.86400002 -0.333 150 0 0
1.334 -0.86199999 -0.33399999 150 0 0
1.335 -0.861 -0.33500001 150 0 0
1.335 -0.85900003 -0.33700001 150 0 0
1.339 -0.86000001 -0.33899999 150 0 0
1.34 -0.85799998 -0.34 150 0 0
1.341 -0.85600001 -0.34200001 150 0 0
1.346 -0.85699999 -0.34400001 150 0 0
1.348 -0.85600001 -0.345 150 0 0
1.348 -0.85399997 -0.347 150 0 0
1.349 -0.852 -0.34799999 150 0 0
1.353 -0.852 -0.34999999 150 0 0
1.354 -0.85000002 -0.35100001 150 0 0
1.355 -0.84799999 -0.352 150 0 0
1.3559999 -0.84600002 -0.35299999 150 0 0
1.359 -0.84500003 -0.35499999 150 0 0
1.3609999 -0.84299999 -0.35600001 150 0 0
1.363 -0.84200001 -0.35699999 150 0 0
1.3660001 -0.84100002 -0.35800001 150 0 0
1.372 -0.84100002 -0.361 150 0 0
1.3710001 -0.838 -0.361 150 0 0
1.372 -0.83499998 -0.36199999 150 0 0
1.378 -0.83600003 -0.36399999 150 0 0
1.3789999 -0.833 -0.36500001 150 0 0
1.38 -0.83099997 -0.366 150 0 0
1.382 -0.82800001 -0.366 5 0 0
1.385 -0.82700002 -0.36700001 150 0 0
1.392 -0.82800001 -0.37 150 0 0
1.3940001 -0.82599998 -0.37099999 150 0 0
1.397 -0.824 -0.37200001 150 0 0
1.4 -0.82200003 -0.373 150 0 0
1.401 -0.81900001 -0.373 150 0 0
1.405 -0.81800002 -0.375 150 0 0
1.406 -0.815 -0.375 150 0 0
1.413 -0.815 -0.377 150 0 0
1.418 -0.81400001 -0.37799999 150 0 0
1.421 -0.81199998 -0.37900001 150 0 0
1.425 -0.81099999 -0.38 150 0 0
1.429 -0.80900002 -0.38100001 150 0 0
1.431 -0.80599999 -0.382 150 0 0
1.4349999 -0.80500001 -0.38299999 150 0 0
1.4400001 -0.80299997 -0.384 150 0 0
1.444 -0.80199999 -0.38499999 150 0 0
1.449 -0.80000001 -0.38600001 150 0 0
1.455 -0.79900002 -0.38699999 150 0 0
1.456 -0.796 -0.38699999 150 0 0
1.46 -0.79400003 -0.38800001 150 0 0
1.4630001 -0.79100001 -0.38800001 5 0 0
1.4680001 -0.79000002 -0.389 150 0 0
1.473 -0.78799999 -0.38999999 150 0 0
1.477 -0.78600001 -0.391 150 0 0
1.482 -0.78399998 -0.39199999 142 0 0
1.492 -0.78500003 -0.39399999 150 0 0
1.494 -0.78100002 -0.39399999 5 0 0
1.4960001 -0.778 -0.39399999 150 0 0
1.503 -0.77700001 -0.39500001 150 0 0
1.507 -0.77399999 -0.39500001 150 0 0
1.507 -0.76999998 -0.39399999 150 0 0
1.5190001 -0.77100003 -0.39700001 150 3 0
1.522 -0.76800001 -0.39700001 150 0 0
1.524 -0.764 -0.39700001 150 16 0
1.528 -0.76200002 -0.39700001 150 0 0
1.5369999 -0.76200002 -0.398 150 0 0
1.546 -0.76099998 -0.40000001 150 0 0
1.55 -0.75800002 -0.40000001 150 0 0
1.553 -0.755 -0.40000001 150 0 0
1.5549999 -0.75099999 -0.39899999 150 0 0
1.567 -0.75199997 -0.40099999 150 0 0
1.569 -0.74800003 -0.40000001 150 0 0
1.574 -0.745 -0.40099999 3 0 0
1.579 -0.74299997 -0.40099999 150 0 0
1.581 -0.73900002 -0.40000001 150 0 0
1.586 -0.736 -0.40000001 150 0 0
1.589 -0.73199999 -0.40000001 150 0 0
1.592 -0.72899997 -0.39899999 150 0 0
1.61 -0.73199999 -0.40200001 150 2 0
1.612 -0.72799999 -0.40099999 150 0 0
1.618 -0.72500002 -0.40200001 150 0 0
1.62 -0.72100002 -0.40099999 134 0 0
1.63 -0.72000003 -0.40200001 150 0 0
1.633 -0.71600002 -0.40099999 113 0 0
1.641 -0.71499997 -0.40099999 150 0 0
1.649 -0.713 -0.40200001 150 0 0
1.653 -0.70899999 -0.40099999 149 0 0
1.6619999 -0.708 -0.40200001 150 0 0
1.664 -0.70300001 -0.40099999 150 0 0
1.671 -0.70099998 -0.40099999 120 0 0
1.6799999 -0.699 -0.40099999 99 0 0
1.684 -0.69499999 -0.40000001 110 0 0
1.691 -0.69300002 -0.40000001 81 0 0
1.701 -0.69199997 -0.40099999 116 0 0
1.7079999 -0.68900001 -0.40000001 114 0 0
1.719 -0.68800002 -0.40099999 150 0 0
1.722 -0.68400002 -0.40000001 101 0 0
1.726 -0.68000001 -0.39899999 1 0 0
1.733 -0.67699999 -0.39899999 2 0 0
1.738 -0.67400002 -0.398 2 0 0
1.742 -0.66900003 -0.39700001 2 0 0
1.749 -0.667 -0.396 2 0 0
1.763 -0.66600001 -0.39700001 150 16 0
1.767 -0.662 -0.396 150 16 0
1.777 -0.66000003 -0.396 1 0 0
1.783 -0.65700001 -0.39500001 1 0 0
1.789 -0.653 -0.39500001 150 16 0
1.794 -0.64999998 -0.39300001 150 16 0
1.804 -0.64700001 -0.39300001 150 16 0
1.8150001 -0.64600003 -0.39300001 1 0 0
1.819 -0.64099997 -0.39199999 150 16 0
1.83 -0.639 -0.39199999 150 16 0
1.835 -0.63599998 -0.391 150 16 0
1.841 -0.63200003 -0.389 150 16 0
1.846 -0.62800002 -0.38800001 150 16 0
1.857 -0.625 -0.38800001 150 16 0
1.86 -0.62099999 -0.38600001 150 16 0
1.872 -0.61900002 -0.38600001 150 16 0
1.8839999 -0.61699998 -0.38600001 150 16 0
1.89 -0.61299998 -0.384 150 16 0
1.895 -0.60900003 -0.38299999 147 16 0
1.903 -0.60500002 -0.382 147 16 0
1.906 -0.60000002 -0.38 140 16 0
1.915 -0.597 -0.37900001 142 16 0
1.9220001 -0.59299999 -0.377 130 16 0
1.937 -0.59200001 -0.377 118 16 0
1.946 -0.58899999 -0.37599999 132 16 0
1.951 -0.58399999 -0.375 133 16 0
1.9630001 -0.58200002 -0.37400001 136 16 0
1.97 -0.57800001 -0.37200001 123 16 0
1.977 -0.574 -0.37099999 123 16 0
1.988 -0.57099998 -0.37 128 16 0
1.994 -0.56699997 -0.368 130 16 0
2.007 -0.56400001 -0.368 117 16 0
2.0090001 -0.55900002 -0.36500001 108 16 0
2.0209999 -0.55599999 -0.36399999 124 16 0
2.0309999 -0.55199999 -0.36199999 117 16 0
2.039 -0.54900002 -0.361 116 16 0
2.0439999 -0.54400003 -0.359 112 16 0
2.0580001 -0.54100001 -0.35800001 110 16 0
2.0680001 -0.53799999 -0.35600001 114 16 0
2.0810001 -0.53500003 -0.35499999 101 16 0
2.085 -0.52999997 -0.35299999 104 16 0
2.095 -0.52600002 -0.35100001 102 16 0
2.1059999 -0.523 -0.34999999 101 16 0
2.119 -0.51899999 -0.34799999 101 16 0
2.125 -0.514 -0.34599999 104 16 0
2.132 -0.50999999 -0.34400001 85 16 0
2.141 -0.50599998 -0.34200001 87 16 0
2.1600001 -0.50400001 -0.34099999 79 16 0
2.1670001 -0.49900001 -0.33899999 79 16 0
2.181 -0.49599999 -0.33700001 70 16 0
2.194 -0.49200001 -0.336 78 16 0
2.198 -0.48699999 -0.333 73 16 0
2.21 -0.48300001 -0.331 69 16 0
2.223 -0.479 -0.329 63 16 0
2.2309999 -0.47499999 -0.32699999 67 16 0
2.2409999 -0.47 -0.324 70 16 0
2.2520001 -0.46599999 -0.322 62 16 0
2.2639999 -0.46200001 -0.31999999 68 16 0
2.2709999 -0.45699999 -0.317 63 16 0
2.2880001 -0.454 -0.31600001 65 16 0
2.2920001 -0.44800001 -0.31200001 66 16 0
2.3039999 -0.44400001 -0.31 64 16 0
2.3199999 -0.44 -0.308 55 16 0
2.3269999 -0.435 -0.30500001 59 16 0
2.342 -0.43099999 -0.303 55 16 0
2.352 -0.426 -0.30000001 50 16 0
2.3659999 -0.42199999 -0.29800001 62 16 0
2.375 -0.417 -0.29499999 55 16 0
2.388 -0.412 -0.29300001 56 16 0
2.404 -0.40799999 -0.28999999 55 16 0
2.4119999 -0.403 -0.287 55 16 0
2.427 -0.39899999 -0.285 55 16 0
2.4400001 -0.39399999 -0.28200001 50 16 0
2.448 -0.38800001 -0.278 53 16 0
2.46 -0.38299999 -0.27500001 47 16 0
2.47 -0.37799999 -0.27200001 54 16 0
2.487 -0.37400001 -0.26899999 47 16 0
2.4979999 -0.36899999 -0.266 47 16 0
2.5120001 -0.36399999 -0.26300001 42 16 0
2.5220001 -0.35800001 -0.25999999 42 16 0
2.5350001 -0.35299999 -0.25600001 43 16 0
2.556 -0.34900001 -0.25400001 38 16 0
2.566 -0.34299999 -0.25 42 16 0
2.5769999 -0.33700001 -0.24699999 37 16 0
2.5880001 -0.33199999 -0.243 39 16 0
2.602 -0.32699999 -0.23999999 35 16 0
2.6099999 -0.32100001 -0.236 36 16 0
2.628 -0.31600001 -0.233 35 16 0
2.6429999 -0.31 -0.229 35 16 0
2.6659999 -0.30599999 -0.226 37 16 0
2.6730001 -0.29899999 -0.222 33 16 0
2.687 -0.29300001 -0.21799999 31 16 0
2.7079999 -0.28799999 -0.215 30 16 0
2.7149999 -0.28200001 -0.20999999 28 16 0
2.7279999 -0.27599999 -0.206 29 16 0
2.7360001 -0.26899999 -0.20200001 30 16 0
2.7579999 -0.264 -0.198 29 16 0
2.767 -0.25799999 -0.193 28 16 0
2.7839999 -0.252 -0.189 28 16 0
2.8 -0.24600001 -0.185 28 16 0
2.8099999 -0.23899999 -0.18099999 28 16 0
2.826 -0.233 -0.176 28 16 0
2.846 -0.227 -0.17200001 27 16 0
2.8629999 -0.221 -0.168 27 16 0
2.8770001 -0.214 -0.163 27 16 0
2.891 -0.208 -0.15800001 29 16 0
2.9070001 -0.20100001 -0.154 28 16 0
2.9260001 -0.19499999 -0.149 28 16 0
2.9460001 -0.18799999 -0.14399999 28 16 0
2.9630001 -0.182 -0.14 27 16 0
2.974 -0.175 -0.134 27 16 0
2.9949999 -0.168 -0.12899999 27 16 0
3.007 -0.161 -0.124 27 16 0
3.0369999 -0.155 -0.12 28 19 0
3.0480001 -0.147 -0.114 28 16 0
3.0699999 -0.14 -0.109 26 16 0
3.0899999 -0.133 -0.104 27 16 0
3.1070001 -0.126 -0.097999997 27 16 0
3.1259999 -0.119 -0.093000002 27 16 0
3.145 -0.111 -0.086999997 29 16 0
3.1630001 -0.104 -0.081 27 16 0
3.1860001 -0.096000001 -0.075999998 29 16 0
3.2049999 -0.089000002 -0.07 29 16 0
3.22 -0.081 -0.064000003 28 16 0
3.2420001 -0.072999999 -0.057999998 44 16 0
3.253 -0.064999998 -0.050999999 150 16 0
3.2490001 -0.057 -0.045000002 150 16 0
3.2490001 -0.048999999 -0.037999999 150 16 0
3.2490001 -0.039999999 -0.032000002 150 16 0
3.243 -0.032000002 -0.025 150 16 0
3.2449999 -0.024 -0.018999999 146 16 0
3.2420001 -0.015 -0.012 37 16 0
3.253 -0.0070000002 -0.0060000001 19 16 0
3.28 0 0 18 16 0
3.302 0.0080000004 0.0070000002 19 16 0
3.3180001 0.017000001 0.013 21 16 0
3.3399999 0.025 0.02 39 16 0
3.342 0.034000002 0.027000001 95 16 0
3.335 0.041999999 0.034000002 86 16 0
3.3369999 0.050000001 0.041000001 40 16 0
3.3269999 0.059 0.048 6 16 0
3.303 0.066 0.054000001 4 16 0
3.322 0.075000003 0.061000001 1 16 0
3.3369999 0.083999999 0.068000004 3 16 0
3.329 0.092 0.075000003 35 16 0
3.329 0.1 0.082000002 140 16 0
3.3280001 0.108 0.089000002 126 16 0
3.3199999 0.116 0.096000001 53 16 0
3.3050001 0.124 0.102 37 16 0
3.293 0.132 0.109 34 16 0
3.276 0.139 0.115 34 16 0
3.2620001 0.147 0.121 33 16 0
3.2479999 0.154 0.12800001 35 16 0
3.227 0.161 0.134 41 16 0
3.217 0.168 0.14 77 16 0
3.2130001 0.176 0.147 150 16 0
3.2119999 0.184 0.153 150 16 0
3.1860001 0.19 0.15899999 39 16 0
3.1300001 0.19400001 0.163 24 16 0
3.161 0.204 0.171 36 16 0
3.1719999 0.213 0.17900001 71 16 0
3.132 0.21699999 0.183 33 18 0
3.201 0.23 0.19400001 128 16 0
3.2060001 0.23800001 0.20100001 150 16 0
3.2060001 0.24600001 0.208 150 16 0
3.2049999 0.25400001 0.215 150 16 0
3.204 0.26100001 0.222 150 16 0
3.2049999 0.26899999 0.229 150 16 0
3.2019999 0.27700001 0.236 150 16 0
3.2030001 0.28400001 0.243 150 16 0
3.201 0.292 0.25 150 16 0
3.2 0.30000001 0.257 150 16 0
3.1989999 0.30700001 0.264 150 16 0
3.1960001 0.315 0.271 150 16 0
3.1960001 0.322 0.278 150 16 0
3.1930001 0.33000001 0.285 150 16 0
3.1930001 0.33700001 0.292 150 16 0
3.1919999 0.345 0.29899999 150 16 0
3.1900001 0.352 0.30599999 150 16 0
3.1889999 0.36000001 0.31299999 150 16 0
3.187 0.36700001 0.31999999 150 16 0
3.1889999 0.375 0.32800001 150 16 0
3.1919999 0.38299999 0.33500001 150 16 0
3.1919999 0.38999999 0.34200001 150 16 0
3.1919999 0.398 0.34999999 150 16 0
3.1789999 0.40400001 0.35600001 150 16 0
3.188 0.412 0.36399999 150 16 0
3.187 0.41999999 0.37099999 150 16 0
3.1900001 0.428 0.37900001 150 16 0
3.1849999 0.435 0.38600001 150 16 0
3.181 0.44100001 0.39199999 150 16 0
3.188 0.44999999 0.40099999 150 16 0
3.188 0.45699999 0.40799999 150 16 0
3.1789999 0.46399999 0.41499999 150 16 0
3.181 0.47099999 0.42199999 150 16 0
3.1719999 0.477 0.42899999 93 16 0
3.1600001 0.48300001 0.43399999 48 16 0
3.1489999 0.48899999 0.44 44 16 0
3.1329999 0.493 0.44499999 43 16 0
3.1199999 0.498 0.45100001 40 16 0
3.1070001 0.50400001 0.45699999 47 16 0
3.095 0.509 0.46200001 45 16 0
3.0799999 0.51300001 0.46700001 45 16 0
3.0680001 0.51800001 0.47299999 47 16 0
3.056 0.523 0.47799999 46 16 0
3.043 0.528 0.484 46 16 0
3.03 0.53299999 0.48899999 46 16 0
3.02 0.53799999 0.495 46 16 0
3.0050001 0.542 0.5 46 16 0
2.993 0.54699999 0.505 46 16 0
2.9790001 0.551 0.50999999 46 16 0
2.97 0.55599999 0.51599997 51 16 0
2.9560001 0.56 0.52100003 48 16 0
2.947 0.565 0.52600002 47 16 0
2.9300001 0.56800002 0.53100002 47 16 0
2.924 0.574 0.537 56 16 0
2.9089999 0.57700002 0.54100001 50 16 0
2.891 0.57999998 0.54500002 51 16 0
2.881 0.58499998 0.55000001 50 16 0
2.868 0.58899999 0.55500001 51 16 0
2.862 0.59399998 0.56099999 52 16 0
2.8510001 0.59799999 0.56599998 54 16 0
2.8369999 0.60100001 0.57099998 51 16 0
2.825 0.60500002 0.57499999 46 16 0
2.8150001 0.60900003 0.58099997 62 16 0
2.7980001 0.611 0.58399999 62 16 0
2.789 0.61500001 0.58999997 61 16 0
2.779 0.61900002 0.59500003 65 16 0
2.7720001 0.62400001 0.60000002 79 16 0
2.7639999 0.62800002 0.60600001 84 16 0
2.7490001 0.63099998 0.61000001 83 16 0
2.7379999 0.634 0.61400002 86 16 0
2.7219999 0.63599998 0.61799997 89 16 0
2.7190001 0.64099997 0.62400001 91 16 0
2.7030001 0.64300001 0.62800002 91 16 0
2.694 0.64700001 0.63300002 93 16 0
2.6860001 0.65100002 0.63800001 96 16 0
2.6760001 0.65399998 0.64300001 91 16 0
2.664 0.65700001 0.64700001 92 16 0
2.6559999 0.66000003 0.65200001 98 16 0
2.641 0.662 0.65499997 91 16 0
2.6359999 0.66600001 0.66100001 92 16 0
2.6229999 0.66900003 0.66500002 91 16 0
2.6140001 0.67199999 0.67000002 101 16 0
2.598 0.67299998 0.67299998 101 16 0
2.5910001 0.67699999 0.67799997 99 16 0
2.5880001 0.68099999 0.68400002 95 16 0
2.576 0.68300003 0.68800002 104 16 0
2.5669999 0.68599999 0.69300002 107 16 0
2.559 0.68900001 0.69700003 100 16 0
2.5480001 0.69099998 0.70099998 104 16 0
2.536 0.69300002 0.70499998 105 16 0
2.527 0.69599998 0.70999998 95 16 0
2.517 0.69800001 0.71399999 111 16 0
2.507 0.69999999 0.71799999 116 16 0
2.4979999 0.70300001 0.722 120 16 0
2.4879999 0.70499998 0.72600001 103 16 0
2.4790001 0.70700002 0.73000002 101 16 0
2.467 0.708 0.73400003 101 16 0
2.46 0.71100003 0.73900002 104 16 0
2.451 0.713 0.74299997 107 16 0
2.437 0.71399999 0.745 115 16 0
2.431 0.71700001 0.75 103 16 0
2.4230001 0.71899998 0.755 104 16 0
2.4100001 0.72000003 0.75700003 109 16 0
2.405 0.72299999 0.76300001 112 16 0
2.3940001 0.72399998 0.76599997 106 16 0
2.3870001 0.72600001 0.77100003 111 16 0
2.378 0.72799999 0.77399999 107 16 0
2.368 0.72899997 0.778 112 16 0
2.3610001 0.73100001 0.78200001 111 16 0
2.349 0.73199999 0.78500003 111 16 0
2.3380001 0.73199999 0.78799999 117 16 0
2.329 0.73400003 0.792 144 16 0
2.3210001 0.73500001 0.796 142 16 0
2.312 0.73699999 0.80000001 137 16 0
2.303 0.73799998 0.80299997 141 16 0
2.3 0.741 0.80900002 144 16 0
2.2909999 0.74199998 0.81199998 150 16 0
2.2780001 0.741 0.81400001 150 16 0
2.2720001 0.74299997 0.81900001 145 16 0
2.263 0.74400002 0.82200003 148 16 0
2.2579999 0.74599999 0.82599998 150 16 0
2.247 0.74599999 0.829 146 16 0
2.24 0.74800003 0.833 150 16 0
2.233 0.74900001 0.83700001 150 16 0
2.2290001 0.75099999 0.84200001 150 16 0
2.217 0.75 0.84399998 150 16 0
2.2090001 0.75099999 0.847 137 16 0
2.2019999 0.75199997 0.85100001 137 16 0
2.1989999 0.75400001 0.85600001 132 16 0
2.1830001 0.75199997 0.85600001 132 16 0
2.175 0.75300002 0.86000001 143 16 0
2.1700001 0.75400001 0.86400002 139 16 0
2.1589999 0.75300002 0.866 141 16 0
2.154 0.75400001 0.87 145 16 0
2.1459999 0.755 0.87300003 145 16 0
2.1370001 0.75400001 0.87599999 140 16 0
2.1300001 0.755 0.87900001 131 16 0
2.1229999 0.755 0.88300002 143 16 0
2.115 0.755 0.88499999 146 16 0
2.109 0.75599998 0.889 120 16 0
2.099 0.755 0.89099997 123 16 0
2.095 0.75599998 0.89499998 122 16 0
2.085 0.755 0.89700001 131 16 0
2.0799999 0.75599998 0.90100002 133 16 0
2.0710001 0.755 0.903 135 16 0
2.0680001 0.75700003 0.90799999 139 16 0
2.0610001 0.75599998 0.91000003 135 16 0
2.053 0.75599998 0.91299999 136 16 0
2.0469999 0.75599998 0.91600001 126 16 0
2.039 0.755 0.91799998 137 16 0
2.0309999 0.75400001 0.921 141 16 0
2.0280001 0.755 0.92500001 141 16 0
2.0209999 0.75400001 0.92699999 133 16 0
2.0109999 0.75300002 0.92799997 134 16 0
2.0050001 0.75199997 0.93099999 142 16 0
2.003 0.75300002 0.93599999 125 16 0
1.994 0.75199997 0.93699998 125 16 0
1.99 0.75199997 0.94099998 131 16 0
1.983 0.75099999 0.94300002 133 16 0
1.978 0.75099999 0.94599998 138 16 0
1.967 0.74800003 0.94599998 137 16 0
1.964 0.74800003 0.94999999 138 16 0
1.956 0.74699998 0.95200002 135 16 0
1.957 0.74800003 0.95700002 129 16 0
1.951 0.74800003 0.95999998 139 16 0
1.9450001 0.74599999 0.96200001 142 16 0
1.936 0.74400002 0.96200001 136 16 0
1.934 0.74400002 0.96600002 146 16 0
1.9220001 0.741 0.96600002 139 16 0
1.92 0.741 0.97000003 129 16 0
1.918 0.741 0.97399998 134 16 0
1.908 0.73900002 0.97399998 135 16 0
1.904 0.73799998 0.97600001 141 16 0
1.901 0.73699999 0.98000002 132 16 0
1.895 0.736 0.98100001 141 16 0
1.891 0.73500001 0.98400003 136 16 0
1.885 0.73299998 0.98500001 136 16 0
1.887 0.73400003 0.991 146 16 0
1.874 0.73000002 0.98900002 143 16 0
1.8710001 0.72899997 0.991 145 16 0
1.867 0.72799999 0.99400002 140 16 0
1.857 0.72399998 0.99199998 142 19 0
1.855 0.72399998 0.99599999 147 16 0
1.847 0.72100002 0.99599999 148 16 0
1.846 0.72000003 0.99900001 140 16 0
1.842 0.71899998 1.001 144 16 0
1.8380001 0.71700001 1.003 143 16 0
1.834 0.71600002 1.005 146 16 0
1.832 0.71499997 1.008 150 16 0
1.8279999 0.713 1.0089999 139 16 0
1.821 0.70999998 1.0089999 147 16 0
1.818 0.70899999 1.012 137 16 0
1.813 0.70599997 1.012 150 16 0
1.8150001 0.70599997 1.017 150 16 0
1.806 0.70300001 1.015 150 19 0
1.807 0.70200002 1.0190001 146 16 0
1.804 0.69999999 1.021 142 16 0
1.7970001 0.69700003 1.02 150 16 0
1.796 0.69499999 1.023 140 16 0
1.793 0.69400001 1.024 150 16 0
1.791 0.69199997 1.026 150 16 0
1.79 0.69099998 1.029 150 16 0
1.788 0.68900001 1.03 150 16 0
1.781 0.685 1.029 146 16 0
1.78 0.68400002 1.0319999 141 16 0
1.78 0.68199998 1.034 142 16 0
1.775 0.67900002 1.034 143 16 0
1.773 0.67699999 1.035 135 16 0
1.7690001 0.67500001 1.036 141 16 0
1.7690001 0.67299998 1.038 143 16 0
1.767 0.671 1.039 145 16 0
1.767 0.66900003 1.041 150 16 0
1.761 0.66500002 1.039 150 16 0
1.756 0.662 1.039 144 16 0
1.755 0.66000003 1.04 137 16 0
1.755 0.65799999 1.0420001 148 16 0
1.75 0.65499997 1.041 144 16 0
1.748 0.65200001 1.0420001 146 16 0
1.747 0.64999998 1.0420001 150 16 0
1.7460001 0.648 1.044 147 16 0
1.748 0.64600003 1.046 150 16 0
1.7460001 0.64399999 1.0470001 150 16 0
1.7460001 0.64099997 1.048 150 16 0
1.7460001 0.639 1.049 150 16 0
1.7460001 0.63700002 1.05 149 16 0
1.744 0.634 1.05 150 16 0
1.74 0.63 1.049 146 16 0
1.739 0.62699997 1.049 149 16 0
1.739 0.625 1.05 146 16 0
1.738 0.62300003 1.05 150 16 0
1.738 0.62 1.05 149 16 0
1.733 0.616 1.048 150 16 0
1.735 0.61400002 1.049 150 16 0
1.734 0.611 1.05 150 16 0
1.735 0.60900003 1.05 150 16 0
1.735 0.60600001 1.051 150 16 0
1.733 0.60299999 1.05 150 16 0
1.735 0.60000002 1.051 150 16 0
1.734 0.597 1.05 150 16 0
1.732 0.59399998 1.049 150 16 0
1.735 0.59200001 1.051 150 16 0
1.737 0.58999997 1.051 150 16 0
1.734 0.58600003 1.049 150 16 0
1.737 0.58399999 1.051 150 16 0
1.738 0.58099997 1.051 150 16 0
1.737 0.57800001 1.05 150 16 0
1.738 0.57499999 1.049 150 16 0
1.7410001 0.57300001 1.05 150 16 0
1.74 0.56900001 1.049 150 16 0
1.7410001 0.56699997 1.049 150 16 0
1.745 0.565 1.05 150 16 0
1.74 0.56 1.046 150 16 0
1.7410001 0.55699998 1.046 150 16 0
1.745 0.55500001 1.0470001 150 16 0
1.75 0.55299997 1.048 150 16 0
1.748 0.54900002 1.045 150 16 0
1.75 0.546 1.045 150 16 0
1.7539999 0.54400003 1.046 150 16 0
1.753 0.54000002 1.044 150 16 0
1.757 0.53799999 1.044 150 16 0
1.758 0.53500003 1.043 150 16 0
1.7539999 0.52999997 1.039 150 16 0
1.7589999 0.528 1.04 150 16 0
1.76 0.52499998 1.039 150 16 0
1.7640001 0.523 1.039 150 16 0
1.768 0.51999998 1.039 150 16 0
1.7690001 0.51700002 1.0369999 150 16 0
1.771 0.514 1.036 150 16 0
1.777 0.51200002 1.0369999 150 16 0
1.775 0.50800002 1.034 150 16 0
1.78 0.50599998 1.034 150 16 0
1.781 0.50199997 1.0319999 150 16 0
1.784 0.5 1.031 150 16 0
1.788 0.49700001 1.03 150 16 0
1.789 0.49399999 1.028 150 16 0
1.791 0.491 1.027 150 16 0
1.793 0.48699999 1.025 150 16 0
1.798 0.48500001 1.024 150 16 0
1.801 0.48199999 1.023 150 16 0
1.804 0.479 1.021 150 16 0
1.8099999 0.477 1.022 150 16 0
1.812 0.47400001 1.0190001 150 16 0
1.814 0.47 1.017 150 16 0
1.817 0.46700001 1.015 150 16 0
1.819 0.46399999 1.013 150 16 0
1.831 0.463 1.016 150 16 0
1.8329999 0.46000001 1.0140001 150 16 0
1.837 0.45699999 1.012 150 16 0
1.837 0.45300001 1.0089999 150 16 0
1.8430001 0.45100001 1.008 150 16 0
1.845 0.44800001 1.005 150 16 0
1.852 0.44499999 1.005 150 16 0
1.855 0.442 1.003 150 16 0
1.857 0.43900001 1 150 16 0
1.865 0.43700001 1 150 16 0
1.862 0.43200001 0.99400002 150 16 0
1.87 0.43099999 0.99400002 150 16 0
1.875 0.428 0.99299997 150 16 0
1.877 0.42500001 0.99000001 150 16 0
1.883 0.42199999 0.98799998 150 16 0
1.8890001 0.41999999 0.98699999 150 16 0
1.893 0.417 0.98500001 150 16 0
1.897 0.414 0.98199999 150 16 0
1.9 0.41 0.97899997 150 16 0
1.913 0.40900001 0.98100001 150 16 0
1.914 0.40599999 0.977 150 16 0
1.9170001 0.403 0.97299999 150 16 0
1.923 0.40000001 0.972 150 16 0
1.929 0.39700001 0.97000003 150 16 0
1.937 0.39500001 0.96899998 150 16 0
1.942 0.39199999 0.96600002 150 16 0
1.944 0.389 0.963 150 16 0
1.947 0.38600001 0.95899999 150 16 0
1.952 0.38299999 0.95599997 150 16 0
1.959 0.38100001 0.95499998 150 16 0
1.971 0.37900001 0.95499998 150 16 0
1.978 0.377 0.954 150 16 0
1.985 0.37400001 0.95099998 150 16 0
1.985 0.37 0.94599998 150 16 0
1.992 0.368 0.94400001 150 16 0
2.007 0.36700001 0.94599998 150 16 0
2.0020001 0.36199999 0.93800002 150 16 0
2.0139999 0.361 0.93800002 150 16 0
2.0220001 0.35800001 0.93599999 150 16 0
2.029 0.35600001 0.93300003 150 16 0
2.033 0.35299999 0.93000001 150 16 0
2.0380001 0.34999999 0.926 150 16 0
2.0450001 0.347 0.92400002 150 16 0
2.052 0.345 0.921 150 16 0
2.0569999 0.34200001 0.917 150 16 0
2.0639999 0.33899999 0.91500002 142 16 0
2.073 0.33700001 0.91299999 147 16 0
2.0780001 0.33399999 0.90899998 145 16 0
2.089 0.33199999 0.90799999 147 16 0
2.095 0.33000001 0.90399998 150 16 0
2.1029999 0.32699999 0.90200001 148 16 0
2.1070001 0.324 0.89700001 139 16 0
2.112 0.32100001 0.89300001 129 16 0
2.1210001 0.31900001 0.89099997 139 16 0
2.1270001 0.31600001 0.88700002 131 16 0
2.138 0.31400001 0.88499999 117 16 0
2.1459999 0.31200001 0.88200003 121 16 0
2.1489999 0.30899999 0.87699997 117 16 0
2.1570001 0.30599999 0.87400001 104 16 0
2.1700001 0.30399999 0.87300003 125 16 0
2.1719999 0.301 0.86699998 116 16 0
2.184 0.29899999 0.866 118 16 0
2.1900001 0.29699999 0.861 117 16 0
2.2 0.294 0.85900003 115 16 0
2.2079999 0.292 0.85500002 112 16 0
2.2160001 0.289 0.85100001 103 16 0
2.221 0.287 0.847 130 16 0
2.23 0.28400001 0.84299999 128 16 0
2.2390001 0.28200001 0.83999997 127 16 0
2.2490001 0.28 0.83700001 115 16 0
2.2620001 0.278 0.83499998 122 16 0
2.2679999 0.27500001 0.82999998 123 16 0
2.277 0.273 0.82599998 112 16 0
2.2880001 0.27000001 0.82300001 110 16 0
2.2920001 0.26800001 0.81800002 107 16 0
2.3010001 0.26499999 0.81400001 108 16 0
2.3169999 0.264 0.81300002 105 16 0
2.3269999 0.26100001 0.80900002 102 16 0
2.3329999 0.259 0.80400002 99 16 0
2.3399999 0.25600001 0.79900002 103 16 0
2.352 0.25400001 0.796 113 16 0
2.3599999 0.25099999 0.79100001 107 16 0
2.369 0.249 0.787 105 16 0
2.3759999 0.24600001 0.78200001 102 16 0
2.385 0.244 0.778 98 16 0
2.391 0.241 0.77200001 109 16 0
2.4100001 0.23999999 0.77100003 117 16 0
2.4159999 0.237 0.76499999 102 16 0
2.4260001 0.235 0.76099998 94 16 0
2.4389999 0.233 0.75700003 71 16 0
2.4430001 0.23 0.75099999 46 16 0
2.45 0.227 0.74599999 63 16 0
2.4679999 0.226 0.74299997 97 16 0
2.477 0.223 0.73799998 95 16 0
2.487 0.221 0.73400003 96 16 0
2.5020001 0.219 0.73000002 89 16 0
2.507 0.21600001 0.72399998 89 16 0
2.5190001 0.214 0.71899998 88 16 0
2.527 0.211 0.71399999 94 16 0
2.5420001 0.20900001 0.70999998 89 16 0
2.549 0.207 0.704 97 16 0
2.5639999 0.205 0.69999999 77 16 0
2.573 0.20200001 0.69499999 80 16 0
2.5829999 0.2 0.68900001 76 16 0
2.592 0.198 0.68400002 79 16 0
2.6140001 0.19599999 0.68099999 80 16 0
2.6210001 0.193 0.67500001 69 16 0
2.6329999 0.191 0.66900003 68 16 0
2.6429999 0.189 0.66399997 62 16 0
2.6589999 0.18700001 0.66000003 79 16 0
2.6689999 0.184 0.65399998 67 16 0
2.6789999 0.182 0.648 37 16 0
2.691 0.18000001 0.64200002 39 16 0
2.7060001 0.178 0.63700002 33 16 0
2.717 0.175 0.63099998 35 16 0
2.7279999 0.17299999 0.625 36 16 0
2.7390001 0.171 0.61900002 38 16 0
2.7590001 0.169 0.61500001 37 16 0
2.7679999 0.16599999 0.60799998 39 16 0
2.777 0.164 0.602 48 16 0
2.793 0.162 0.59600002 38 16 0
2.8099999 0.16 0.59100002 34 16 0
2.822 0.15700001 0.58499998 35 16 0
2.835 0.155 0.57800001 34 16 0
2.8469999 0.153 0.57200003 33 16 0
2.8610001 0.15000001 0.56599998 34 16 0
2.8789999 0.148 0.56 34 16 0
2.8929999 0.146 0.55400002 33 16 0
2.911 0.14399999 0.54799998 34 16 0
2.9230001 0.142 0.54100001 34 16 0
2.9389999 0.139 0.53500003 33 16 0
2.947 0.13699999 0.52700001 33 16 0
2.967 0.13500001 0.52100003 34 16 0
2.983 0.132 0.51499999 33 16 0
3.0020001 0.13 0.509 33 16 0
3.0179999 0.12800001 0.50199997 33 16 0
3.03 0.126 0.49399999 35 16 0
3.053 0.124 0.48800001 34 16 0
3.0610001 0.121 0.47999999 32 16 0
3.0810001 0.119 0.47400001 33 16 0
3.0940001 0.117 0.46599999 33 16 0
3.115 0.114 0.45899999 33 16 0
3.135 0.112 0.45199999 34 16 0
3.1459999 0.11 0.44400001 37 16 0
3.1700001 0.108 0.43700001 33 16 0
3.1889999 0.105 0.43000001 37 16 0
3.204 0.103 0.42199999 32 16 0
3.221 0.101 0.414 31 16 0
3.2379999 0.097999997 0.40599999 30 16 0
3.2539999 0.096000001 0.398 30 16 0
3.2750001 0.093999997 0.38999999 30 16 0
3.2920001 0.090999998 0.382 29 16 0
3.3139999 0.089000002 0.37400001 31 16 0
3.3280001 0.086999997 0.36500001 34 16 0
3.342 0.083999999 0.35600001 111 16 0
3.3410001 0.081 0.345 130 16 0
3.3369999 0.078000002 0.33399999 87 16 0
3.3380001 0.075999998 0.324 107 16 0
3.332 0.072999999 0.31299999 108 16 0
3.3280001 0.07 0.30199999 94 16 0
3.3269999 0.067000002 0.29100001 100 16 0
3.323 0.064000003 0.28 114 16 0
3.319 0.061999999 0.27000001 108 16 0
3.3180001 0.059 0.259 99 16 0
3.3150001 0.056000002 0.248 113 16 0
3.3099999 0.054000001 0.23800001 105 16 0
3.3050001 0.050999999 0.227 122 16 0
3.299 0.048 0.21600001 103 16 0
3.296 0.046 0.205 124 16 0
3.296 0.043000001 0.19499999 113 16 0
3.2909999 0.041000001 0.184 106 16 0
3.2850001 0.037999999 0.17399999 117 16 0
3.2850001 0.035999998 0.163 122 16 0
3.2820001 0.033 0.153 121 16 0
3.2780001 0.030999999 0.142 126 16 0
3.273 0.028000001 0.132 143 16 0
3.2739999 0.026000001 0.121 75 16 0
3.2880001 0.024 0.111 30 16 0
3.319 0.022 0.102 27 19 0
3.3380001 0.018999999 0.092 32 16 0
3.3429999 0.017000001 0.082000002 27 16 0
3.346 0.015 0.071000002 20 16 0
3.336 0.012 0.059999999 19 16 0
3.3239999 0.0099999998 0.050000001 18 16 0
3.312 0.0080000004 0.039000001 17 16 0
3.309 0.0060000001 0.028000001 18 16 0
3.296 0.003 0.017999999 17 16 0
3.286 0.001 0.0070000002 17 16 0
3.277 0 -0.0020000001 16 16 0
3.2650001 -0.0020000001 -0.012 16 16 0
3.257 -0.0040000002 -0.023 16 16 0
3.2509999 -0.0060000001 -0.033 16 16 0
3.2420001 -0.0080000004 -0.043000001 16 16 0
3.2309999 -0.0099999998 -0.052999999 17 16 0
3.221 -0.012 -0.063000001 19 16 0
3.21 -0.014 -0.072999999 21 16 0
3.2060001 -0.016000001 -0.082999997 24 16 0
3.201 -0.017999999 -0.093999997 28 16 0
3.194 -0.02 -0.103 35 16 0
3.194 -0.022 -0.114 41 16 0
3.191 -0.024 -0.124 51 16 0
3.1800001 -0.026000001 -0.133 76 16 0
3.1800001 -0.027000001 -0.14300001 114 16 0
3.177 -0.028999999 -0.153 132 16 0
3.171 -0.030999999 -0.163 137 16 0
3.168 -0.033 -0.17299999 146 16 0
3.1700001 -0.035 -0.184 147 16 0
3.1630001 -0.035999998 -0.193 150 16 0
3.158 -0.037999999 -0.20299999 150 16 0
3.1559999 -0.039999999 -0.213 150 16 0
3.1429999 -0.041000001 -0.222 141 16 0
3.1429999 -0.043000001 -0.23199999 128 16 0
3.1429999 -0.044 -0.242 139 16 0
3.1400001 -0.046 -0.252 106 16 0
3.1370001 -0.048 -0.26199999 138 16 0
3.1329999 -0.048999999 -0.27200001 137 16 0
3.131 -0.050999999 -0.28200001 140 16 0
3.1259999 -0.052000001 -0.29100001 132 16 0
3.1229999 -0.054000001 -0.301 140 16 0
3.1170001 -0.055 -0.31099999 139 16 0
3.115 -0.056000002 -0.31999999 117 16 0
3.1129999 -0.057999998 -0.33000001 131 16 0
3.1110001 -0.059 -0.34 124 16 0
3.1010001 -0.061000001 -0.34900001 148 16 0
3.1070001 -0.061999999 -0.36000001 131 16 0
3.096 -0.063000001 -0.368 150 16 0
3.0929999 -0.064999998 -0.37799999 140 16 0
3.0869999 -0.066 -0.38699999 150 16 0
3.0769999 -0.067000002 -0.396 150 16 0
3.0780001 -0.068000004 -0.40599999 150 16 0
3.0769999 -0.07 -0.41600001 150 16 0
3.0680001 -0.071000002 -0.42500001 150 16 0
3.069 -0.071999997 -0.435 150 16 0
3.066 -0.072999999 -0.44400001 150 16 0
3.0599999 -0.074000001 -0.454 150 16 0
3.0550001 -0.075000003 -0.463 129 16 0
3.056 -0.075999998 -0.47299999 114 16 0
3.05 -0.077 -0.48199999 93 16 0
3.0439999 -0.078000002 -0.491 91 16 0
3.04 -0.079000004 -0.5 60 16 0
3.0350001 -0.079999998 -0.509 47 16 0
3.033 -0.081 -0.51899999 40 16 0
3.0280001 -0.082000002 -0.528 37 16 0
3.023 -0.082999997 -0.537 34 16 0
3.0190001 -0.083999999 -0.546 31 16 0
3.013 -0.085000001 -0.55500001 29 16 0
3.0050001 -0.086000003 -0.56300002 28 16 0
2.9979999 -0.086000003 -0.57200003 26 16 0
2.9949999 -0.086999997 -0.58099997 26 16 0
2.99 -0.088 -0.58999997 25 16 0
2.9849999 -0.089000002 -0.59899998 24 16 0
2.9809999 -0.090000004 -0.60799998 25 16 0
2.971 -0.090000004 -0.616 24 16 0
2.9749999 -0.090999998 -0.62599999 24 16 0
2.9649999 -0.090999998 -0.634 29 16 0
2.9560001 -0.092 -0.64200002 28 16 0
2.9449999 -0.092 -0.64999998 27 16 0
2.951 -0.093000002 -0.66100001 29 16 0
2.937 -0.093999997 -0.667 28 16 0
2.9330001 -0.093999997 -0.676 27 16 0
2.9300001 -0.094999999 -0.685 28 16 0
2.928 -0.094999999 -0.69400001 28 16 0
2.925 -0.096000001 -0.70300001 27 16 0
2.9170001 -0.096000001 -0.71100003 27 16 0
2.915 -0.097000003 -0.72000003 27 16 0
2.9119999 -0.097000003 -0.72899997 26 16 0
2.9100001 -0.097000003 -0.73900002 27 16 0
2.901 -0.097999997 -0.74599999 26 16 0
2.895 -0.097999997 -0.75400001 27 16 0
2.8959999 -0.097999997 -0.764 27 16 0
2.8900001 -0.098999999 -0.77200001 27 16 0
2.885 -0.098999999 -0.78100002 27 16 0
2.885 -0.098999999 -0.79000002 27 16 0
2.872 -0.098999999 -0.79699999 27 16 0
2.872 -0.098999999 -0.80599999 26 16 0
2.8670001 -0.1 -0.81400001 27 16 0
2.865 -0.1 -0.82300001 27 16 0
2.862 -0.1 -0.83200002 27 16 0
2.8599999 -0.1 -0.84100002 27 16 0
2.8499999 -0.1 -0.84799999 26 16 0
2.8510001 -0.1 -0.85799998 27 16 0
2.8510001 -0.1 -0.86699998 26 16 0
2.846 -0.1 -0.875 26 16 0
2.8399999 -0.1 -0.88300002 25 16 0
2.8329999 -0.1 -0.89099997 28 16 0
2.832 -0.1 -0.89999998 28 16 0
2.829 -0.1 -0.90899998 28 16 0
2.8280001 -0.1 -0.91799998 28 16 0
2.826 -0.1 -0.92699999 28 16 0
2.8210001 -0.098999999 -0.935 28 16 0
2.8199999 -0.098999999 -0.94400001 28 16 0
2.8139999 -0.098999999 -0.95099998 28 16 0
2.812 -0.098999999 -0.95999998 28 16 0
2.8080001 -0.097999997 -0.96899998 28 16 0
2.8080001 -0.097999997 -0.97799999 28 16 0
2.8050001 -0.097999997 -0.98699999 28 16 0
2.802 -0.097000003 -0.995 28 16 0
2.796 -0.097000003 -1.003 28 16 0
2.7939999 -0.096000001 -1.011 28 16 0
2.793 -0.096000001 -1.021 29 16 0
2.79 -0.096000001 -1.029 28 16 0
2.7880001 -0.094999999 -1.038 27 16 0
2.79 -0.094999999 -1.048 29 16 0
2.7850001 -0.093999997 -1.0549999 29 16 0
2.7809999 -0.093000002 -1.064 30 16 0
2.7850001 -0.093000002 -1.074 32 16 0
2.78 -0.092 -1.082 33 16 0
2.7780001 -0.092 -1.091 38 16 0
2.776 -0.090999998 -1.099 40 16 0
2.7720001 -0.090000004 -1.107 43 16 0
2.7690001 -0.089000002 -1.115 61 16 0
2.766 -0.089000002 -1.124 82 16 0
2.7620001 -0.088 -1.131 104 16 0
2.7609999 -0.086999997 -1.14 124 16 0
2.76 -0.086000003 -1.149 150 16 0
2.756 -0.085000001 -1.1569999 150 16 0
2.7539999 -0.083999999 -1.165 150 16 0
2.7490001 -0.082999997 -1.173 150 16 0
2.7449999 -0.082000002 -1.1799999 150 16 0
2.7420001 -0.081 -1.188 150 16 0
2.7390001 -0.079999998 -1.196 150 16 0
2.7320001 -0.079000004 -1.202 150 16 0
2.7290001 -0.078000002 -1.21 150 16 0
2.7260001 -0.075999998 -1.2180001 150 16 0
2.7179999 -0.075000003 -1.223 150 16 0
2.7090001 -0.074000001 -1.229 150 16 0
2.7149999 -0.072999999 -1.2410001 150 16 0
2.7019999 -0.071000002 -1.244 150 16 0
2.6989999 -0.07 -1.251 150 16 0
2.7030001 -0.068999998 -1.262 150 16 0
2.6900001 -0.067000002 -1.265 150 16 0
2.688 -0.064999998 -1.273 150 16 0
2.6800001 -0.064000003 -1.278 150 16 0
2.6800001 -0.061999999 -1.2869999 150 16 0
2.6730001 -0.061000001 -1.2920001 150 16 0
2.675 -0.059 -1.302 150 16 0
2.6659999 -0.057999998 -1.307 150 16 0
2.6630001 -0.056000002 -1.314 150 16 0
2.6589999 -0.054000001 -1.321 150 16 0
2.655 -0.052999999 -1.3279999 150 16 0
2.6559999 -0.050999999 -1.337 150 16 0
2.652 -0.048999999 -1.3430001 150 16 0
2.642 -0.046999998 -1.347 150 16 0
2.642 -0.045000002 -1.355 150 16 0
2.6389999 -0.044 -1.362 124 16 0
2.6340001 -0.041999999 -1.368 85 16 0
2.6329999 -0.039999999 -1.376 44 16 0
2.6300001 -0.037999999 -1.383 34 16 0
2.632 -0.035999998 -1.393 28 16 0
2.6370001 -0.034000002 -1.403 24 16 0
2.6340001 -0.032000002 -1.41 22 16 0
2.638 -0.029999999 -1.421 21 16 0
2.6389999 -0.028000001 -1.429 21 16 0
2.641 -0.026000001 -1.438 21 16 0
2.6359999 -0.023 -1.444 21 16 0
2.638 -0.021 -1.4529999 21 16 0
2.645 -0.018999999 -1.465 21 16 0
2.645 -0.017000001 -1.473 21 16 0
2.6429999 -0.014 -1.48 21 16 0
2.645 -0.012 -1.489 22 16 0
2.6470001 -0.0099999998 -1.498 22 16 0
2.648 -0.0070000002 -1.507 23 16 0
2.645 -0.0049999999 -1.513 26 16 0
2.6559999 -0.0020000001 -1.527 33 16 0
2.6559999 0 -1.535 44 16 0
2.6530001 0.0020000001 -1.541 68 16 0
2.6500001 0.0049999999 -1.5470001 94 16 0
2.642 0.0070000002 -1.549 98 16 0
2.641 0.0099999998 -1.556 102 16 0
2.635 0.013 -1.5599999 90 16 0
2.632 0.015 -1.566 85 16 0
2.625 0.017999999 -1.569 93 16 0
2.622 0.021 -1.574 88 16 0
2.6170001 0.024 -1.5779999 61 16 0
2.6170001 0.027000001 -1.585 54 16 0
2.609 0.028999999 -1.5880001 44 16 0
2.6059999 0.032000002 -1.5930001 43 16 0
2.6070001 0.035 -1.6 51 16 0
2.602 0.037999999 -1.603 60 16 0
2.6040001 0.041000001 -1.6109999 88 16 0
2.598 0.044 -1.614 87 16 0
2.5899999 0.046999998 -1.6160001 81 16 0
2.5899999 0.050999999 -1.622 82 16 0
2.5840001 0.054000001 -1.625 78 16 0
2.5840001 0.057 -1.631 83 16 0
2.579 0.059999999 -1.6339999 86 16 0
2.573 0.063000001 -1.636 93 16 0
2.5650001 0.066 -1.637 82 16 0
2.566 0.068999998 -1.643 71 16 0
2.5650001 0.071999997 -1.649 88 16 0
2.5599999 0.075999998 -1.651 78 16 0
2.559 0.079000004 -1.656 73 16 0
2.552 0.082000002 -1.656 81 16 0
2.549 0.085000001 -1.66 75 16 0
2.5469999 0.089000002 -1.664 79 16 0
2.5439999 0.092 -1.6670001 74 16 0
2.5420001 0.094999999 -1.671 77 16 0
2.54 0.098999999 -1.674 96 16 0
2.5369999 0.102 -1.677 95 16 0
2.5339999 0.105 -1.6799999 86 16 0
2.527 0.109 -1.6799999 92 16 0
2.527 0.112 -1.684 92 16 0
2.5190001 0.115 -1.683 95 16 0
2.5209999 0.119 -1.688 87 16 0
2.5150001 0.122 -1.688 87 16 0
2.513 0.126 -1.691 91 16 0
2.5109999 0.12899999 -1.693 88 16 0
2.5090001 0.133 -1.696 104 16 0
2.507 0.13600001 -1.698 101 16 0
2.503 0.14 -1.699 99 16 0
2.503 0.14300001 -1.702 104 16 0
2.5009999 0.147 -1.704 96 16 0
2.5 0.15000001 -1.706 96 16 0
2.4920001 0.153 -1.704 95 16 0
2.4909999 0.15700001 -1.706 99 16 0
2.4879999 0.161 -1.707 95 16 0
2.4860001 0.164 -1.709 97 16 0
2.484 0.168 -1.71 90 16 0
2.4849999 0.171 -1.7130001 98 16 0
2.4820001 0.175 -1.712 96 16 0
2.471 0.177 -1.707 92 19 0
2.4749999 0.18099999 -1.712 109 16 0
2.4760001 0.185 -1.714 115 16 0
2.464 0.18799999 -1.707 114 19 0
2.4630001 0.191 -1.7079999 105 16 0
2.461 0.19499999 -1.709 113 16 0
2.4590001 0.198 -1.7079999 110 16 0
2.46 0.20200001 -1.71 115 16 0
2.4560001 0.205 -1.709 109 16 0
2.4530001 0.20900001 -1.7079999 105 16 0
2.4530001 0.212 -1.7079999 111 16 0
2.4519999 0.21600001 -1.7079999 114 16 0
2.451 0.219 -1.7079999 120 16 0
2.451 0.223 -1.7079999 113 16 0
2.45 0.226 -1.7079999 128 16 0
2.4460001 0.229 -1.705 112 16 0
2.4460001 0.233 -1.705 116 16 0
2.448 0.236 -1.706 119 16 0
2.4460001 0.23999999 -1.704 113 16 0
2.4430001 0.243 -1.702 110 16 0
2.4419999 0.24600001 -1.701 113 16 0
2.438 0.249 -1.697 111 16 0
2.4430001 0.25299999 -1.7 112 16 0
2.4430001 0.25600001 -1.698 120 16 0
2.438 0.259 -1.694 122 16 0
2.4389999 0.26199999 -1.693 117 16 0
2.4360001 0.266 -1.6900001 123 16 0
2.434 0.26899999 -1.687 118 16 0
2.437 0.27200001 -1.688 123 16 0
2.437 0.27500001 -1.686 120 16 0
2.4330001 0.278 -1.681 124 16 0
2.431 0.28099999 -1.678 119 16 0
2.434 0.28400001 -1.678 126 16 0
2.4330001 0.287 -1.674 126 16 0
2.434 0.28999999 -1.673 134 16 0
2.437 0.294 -1.6720001 134 16 0
2.434 0.296 -1.668 132 16 0
2.4349999 0.29899999 -1.665 133 16 0
2.4330001 0.30199999 -1.661 142 16 0
2.4319999 0.30500001 -1.6569999 140 16 0
2.4300001 0.30700001 -1.653 134 16 0
2.437 0.31099999 -1.654 142 16 0
2.4300001 0.31299999 -1.646 139 16 0
2.431 0.31600001 -1.643 139 16 0
2.4300001 0.31799999 -1.6390001 137 16 0
2.4289999 0.31999999 -1.635 140 16 0
2.4330001 0.324 -1.633 137 16 0
2.4330001 0.32600001 -1.6289999 129 16 0
2.4349999 0.329 -1.626 143 16 0
2.4319999 0.331 -1.6210001 142 16 0
2.434 0.33399999 -1.618 143 16 0
2.434 0.336 -1.613 148 16 0
2.437 0.33899999 -1.6109999 138 16 0
2.437 0.34099999 -1.6059999 143 16 0
2.437 0.34299999 -1.601 142 16 0
2.437 0.345 -1.596 137 16 0
2.4389999 0.34799999 -1.5930001 147 16 0
2.4400001 0.34999999 -1.5880001 150 16 0
2.4419999 0.352 -1.585 138 16 0
2.4419999 0.354 -1.58 150 16 0
2.441 0.35600001 -1.574 145 16 0
2.447 0.359 -1.572 146 16 0
2.4460001 0.361 -1.566 150 16 0
2.4460001 0.36199999 -1.5599999 150 16 0
2.4449999 0.36399999 -1.554 150 16 0
2.4449999 0.366 -1.548 150 16 0
2.444 0.36700001 -1.5420001 150 16 0
2.4489999 0.37 -1.539 150 16 0
2.4519999 0.37200001 -1.535 150 16 0
2.4530001 0.373 -1.529 150 16 0
2.45 0.375 -1.521 150 16 0
2.457 0.377 -1.5190001 150 16 0
2.4579999 0.37799999 -1.5140001 150 16 0
2.4630001 0.38100001 -1.51 150 16 0
2.464 0.382 -1.5039999 150 16 0
2.461 0.38299999 -1.4960001 150 16 0
2.461 0.384 -1.489 150 16 0
2.464 0.38600001 -1.484 150 16 0
2.467 0.38699999 -1.479 150 16 0
2.47 0.389 -1.474 150 16 0
2.4719999 0.38999999 -1.469 150 16 0
2.4719999 0.391 -1.462 150 16 0
2.4760001 0.39199999 -1.457 150 16 0
2.4760001 0.39300001 -1.45 150 16 0
2.4820001 0.39500001 -1.446 150 16 0
2.4820001 0.396 -1.439 150 16 0
2.4849999 0.39700001 -1.434 150 16 0
2.4879999 0.398 -1.428 150 16 0
2.49 0.39899999 -1.4220001 150 16 0
2.4920001 0.40000001 -1.416 150 16 0
2.4949999 0.40099999 -1.41 150 16 0
2.4990001 0.40200001 -1.404 150 16 0
2.497 0.40200001 -1.396 150 16 0
2.4979999 0.40200001 -1.3890001 150 16 0
2.5020001 0.403 -1.383 150 16 0
2.5050001 0.40400001 -1.377 150 16 0
2.507 0.405 -1.3710001 150 16 0
2.5090001 0.405 -1.364 150 16 0
2.5150001 0.40599999 -1.359 150 16 0
2.5179999 0.40700001 -1.353 150 16 0
2.517 0.40700001 -1.344 150 16 0
2.523 0.40799999 -1.34 150 16 0
2.526 0.40799999 -1.3329999 150 16 0
2.526 0.40799999 -1.325 150 16 0
2.5309999 0.40799999 -1.3200001 150 16 0
2.5309999 0.40799999 -1.312 150 16 0
2.536 0.40900001 -1.306 150 16 0
2.539 0.40900001 -1.299 150 16 0
2.5409999 0.40900001 -1.2920001 150 16 0
2.546 0.41 -1.286 150 16 0
2.5420001 0.40900001 -1.276 150 16 0
2.546 0.40900001 -1.27 150 16 0
2.553 0.40900001 -1.265 150 16 0
2.5550001 0.40900001 -1.258 150 16 0
2.556 0.40900001 -1.25 150 16 0
2.5669999 0.41 -1.247 150 16 0
2.563 0.40799999 -1.2359999 150 16 0
2.569 0.40900001 -1.23 150 16 0
2.5769999 0.40900001 -1.226 150 16 0
2.573 0.40799999 -1.215 150 16 0
2.576 0.40700001 -1.2079999 150 16 0
2.582 0.40700001 -1.2029999 150 16 0
2.585 0.40700001 -1.196 150 16 0
2.589 0.40700001 -1.188 150 16 0
2.592 0.40599999 -1.181 150 16 0
2.5940001 0.405 -1.174 150 16 0
2.596 0.40400001 -1.166 150 16 0
2.6029999 0.40400001 -1.16 150 16 0
2.6059999 0.40400001 -1.153 150 16 0
2.609 0.403 -1.146 150 16 0
2.6129999 0.40200001 -1.138 150 16 0
2.6159999 0.40200001 -1.131 150 16 0
2.619 0.40099999 -1.124 150 16 0
2.6229999 0.40000001 -1.1160001 150 16 0
2.6259999 0.39899999 -1.109 150 16 0
2.6289999 0.398 -1.102 150 16 0
2.632 0.39700001 -1.094 150 16 0
2.638 0.396 -1.087 150 16 0
2.6389999 0.39500001 -1.079 150 16 0
2.6489999 0.39500001 -1.074 150 16 0
2.652 0.39399999 -1.067 150 16 0
2.6600001 0.39300001 -1.061 150 16 0
2.6670001 0.39199999 -1.0549999 122 16 0
2.6700001 0.391 -1.0470001 10 16 0
2.605 0.38 -1.013 0 17 0
2.6530001 0.38499999 -1.023 0 16 0
2.605 0.37599999 -0.99599999 0 16 0
2.6600001 0.382 -1.008 0 16 0
2.678 0.38299999 -1.006 0 16 0
0 0 0 0 16 0
0 0 0 0 16 0
0 0 0 0 16 0
0 0 0 0 16 0
4.3800001 0.611 -1.572 5 17 0
2.7160001 0.37599999 -0.96600002 14 17 0
2.7179999 0.375 -0.95700002 150 16 0
2.717 0.37200001 -0.94800001 150 16 0
2.721 0.37099999 -0.94 150 16 0
2.7249999 0.36899999 -0.93199998 150 16 0
2.7320001 0.368 -0.926 150 16 0
2.7309999 0.36500001 -0.91600001 150 16 0
2.7409999 0.36399999 -0.91100001 150 16 0
2.7449999 0.36199999 -0.903 150 16 0
2.7479999 0.36000001 -0.89499998 150 16 0
2.7509999 0.35800001 -0.88700002 150 16 0
2.7579999 0.35699999 -0.88 150 16 0
2.756 0.354 -0.87099999 150 16 0
2.7639999 0.35299999 -0.86400002 150 16 0
2.7720001 0.35100001 -0.85699999 150 16 0
2.776 0.34900001 -0.85000002 150 16 0
2.776 0.34599999 -0.84100002 150 16 0
2.783 0.345 -0.83399999 150 16 0
2.786 0.34200001 -0.82499999 150 16 0
2.7880001 0.34 -0.81699997 150 16 0
2.7980001 0.33899999 -0.81099999 150 16 0
2.803 0.336 -0.80299997 150 16 0
2.8050001 0.33399999 -0.79500002 150 16 0
2.809 0.33199999 -0.787 150 16 0
2.8169999 0.33000001 -0.77999997 150 16 0
2.8199999 0.32699999 -0.77200001 150 16 0
2.823 0.32499999 -0.76300001 150 16 0
2.8280001 0.322 -0.75599998 150 16 0
2.832 0.31999999 -0.74699998 150 16 0
2.8340001 0.317 -0.73900002 150 16 0
2.846 0.31600001 -0.73299998 150 16 0
2.848 0.31299999 -0.72399998 150 16 0
2.8510001 0.31 -0.71600002 150 16 0
2.855 0.308 -0.708 150 16 0
2.862 0.30500001 -0.70099998 150 16 0
2.865 0.303 -0.69199997 150 16 0
2.8770001 0.301 -0.68599999 150 16 0
2.8789999 0.29800001 -0.67699999 150 16 0
2.8859999 0.29499999 -0.67000002 150 16 0
2.8900001 0.29300001 -0.662 150 16 0
2.8959999 0.28999999 -0.65399998 150 16 0
2.8989999 0.287 -0.64600003 150 16 0
2.908 0.285 -0.63800001 150 16 0
2.9100001 0.28099999 -0.63 150 16 0
2.9189999 0.27900001 -0.62199998 150 16 0
2.9230001 0.27599999 -0.61400002 150 16 0
2.927 0.273 -0.60600001 150 16 0
2.9330001 0.27000001 -0.59799999 150 16 0
2.9400001 0.26699999 -0.58999997 150 16 0
2.9419999 0.264 -0.58200002 150 16 0
