# .PCD v0.7 - Point Cloud Data file format
VERSION 0.7
FIELDS x y z intensity tag line
SIZE 4 4 4 4 1 1
TYPE F F F F U U
COUNT 1 1 1 1 1 1
WIDTH 1351
HEIGHT 1
VIEWPOINT 0 0 0 1 0 0 0
POINTS 1351
DATA ascii
1.706 -0.77200001 0.071999997 2 0 0
1.71 -0.76800001 0.071000002 1 0 0
1.72 -0.76700002 0.068999998 150 16 0
1.721 -0.76200002 0.068000004 1 0 0
1.729 -0.75999999 0.067000002 2 0 0
1.7410001 -0.759 0.064999998 36 0 0
1.747 -0.75599998 0.064000003 30 0 0
1.751 -0.75199997 0.063000001 1 0 0
1.755 -0.74800003 0.061000001 150 16 0
1.761 -0.745 0.059999999 1 0 0
1.772 -0.74400002 0.059 132 16 0
1.778 -0.74000001 0.057999998 2 0 0
1.777 -0.73400003 0.056000002 136 16 0
1.79 -0.73400003 0.055 131 16 0
1.796 -0.73000002 0.054000001 138 16 0
1.8 -0.72600001 0.052999999 150 16 0
1.809 -0.72299999 0.052000001 126 16 0
1.811 -0.71799999 0.050000001 133 16 0
1.818 -0.71499997 0.048999999 127 16 0
1.83 -0.713 0.048 134 16 0
1.84 -0.71100003 0.046999998 134 16 0
1.845 -0.70700002 0.046 118 16 0
1.853 -0.704 0.045000002 1 0 0
1.858 -0.699 0.044 1 0 0
1.8660001 -0.69599998 0.043000001 136 16 0
1.875 -0.69300002 0.041999999 124 16 0
1.882 -0.69 0.039999999 121 16 0
1.893 -0.68699998 0.039000001 123 16 0
1.897 -0.68199998 0.037999999 116 16 0
1.904 -0.67900002 0.037 124 16 0
1.9119999 -0.67500001 0.035999998 120 16 0
1.918 -0.671 0.035 118 16 0
1.924 -0.66600001 0.034000002 124 16 0
1.931 -0.662 0.033 113 16 0
1.951 -0.66299999 0.032000002 121 19 0
1.956 -0.65799999 0.030999999 116 16 0
1.962 -0.653 0.029999999 111 16 0
1.9680001 -0.64899999 0.028999999 108 16 0
1.979 -0.64499998 0.028999999 105 16 0
1.988 -0.64200002 0.028000001 102 16 0
1.997 -0.63800001 0.027000001 103 16 0
2.0050001 -0.634 0.026000001 106 16 0
2.013 -0.63 0.025 104 16 0
2.023 -0.62599999 0.024 94 16 0
2.027 -0.62099999 0.023 95 16 0
2.0409999 -0.61799997 0.022 94 16 0
2.0469999 -0.61299998 0.022 90 16 0
2.059 -0.61000001 0.021 89 16 0
2.0699999 -0.60600001 0.02 92 16 0
2.0769999 -0.60100001 0.018999999 83 16 0
2.0869999 -0.597 0.017999999 88 16 0
2.0940001 -0.59200001 0.017999999 81 16 0
2.108 -0.58899999 0.017000001 76 16 0
2.1129999 -0.583 0.016000001 81 16 0
2.122 -0.579 0.015 85 16 0
2.132 -0.574 0.015 79 16 0
2.1429999 -0.56999999 0.014 78 16 0
2.1559999 -0.56599998 0.013 79 16 0
2.164 -0.56099999 0.012 83 16 0
2.1800001 -0.55800003 0.012 84 16 0
2.1900001 -0.55299997 0.011 77 16 0
2.201 -0.54900002 0.0099999998 72 16 0
2.21 -0.54400003 0.0099999998 72 16 0
2.2219999 -0.53899997 0.0089999996 66 16 0
2.233 -0.53500003 0.0080000004 67 16 0
2.2409999 -0.52899998 0.0080000004 63 16 0
2.2579999 -0.52499998 0.0070000002 65 16 0
2.2679999 -0.51999998 0.0070000002 63 16 0
2.2750001 -0.514 0.0060000001 68 16 0
2.2839999 -0.509 0.0049999999 59 16 0
2.296 -0.50400001 0.0049999999 58 16 0
2.309 -0.49900001 0.0040000002 64 16 0
2.3210001 -0.49399999 0.0040000002 65 16 0
2.3329999 -0.48899999 0.003 61 16 0
2.3429999 -0.48300001 0.003 58 16 0
2.3570001 -0.47799999 0.0020000001 59 16 0
2.369 -0.47299999 0.0020000001 51 16 0
2.382 -0.46799999 0.001 34 16 0
2.395 -0.46200001 0.001 45 16 0
2.4089999 -0.45699999 0 45 16 0
2.424 -0.45199999 0 49 16 0
2.434 -0.44600001 0 41 16 0
2.451 -0.44100001 0 44 16 0
2.4590001 -0.43399999 0 45 16 0
2.474 -0.428 -0.001 41 16 0
2.484 -0.42199999 -0.001 32 16 0
2.4979999 -0.41600001 -0.0020000001 31 16 0
2.5079999 -0.41 -0.0020000001 31 16 0
2.5220001 -0.40400001 -0.0020000001 30 16 0
2.536 -0.398 -0.003 31 16 0
2.549 -0.391 -0.003 29 16 0
2.5639999 -0.38499999 -0.003 31 16 0
2.5769999 -0.37900001 -0.003 29 16 0
2.5929999 -0.373 -0.0040000002 30 16 0
2.6070001 -0.366 -0.0040000002 28 16 0
2.622 -0.36000001 -0.0040000002 30 16 0
2.6370001 -0.35299999 -0.0040000002 31 16 0
2.654 -0.347 -0.0049999999 32 16 0
2.6719999 -0.34 -0.0049999999 30 16 0
2.6819999 -0.333 -0.0049999999 30 16 0
2.698 -0.32600001 -0.0049999999 31 16 0
2.7179999 -0.31900001 -0.0049999999 30 16 0
2.7290001 -0.31200001 -0.0060000001 29 16 0
2.7360001 -0.30399999 -0.0060000001 28 16 0
2.7579999 -0.29699999 -0.0060000001 29 16 0
2.7720001 -0.28999999 -0.0060000001 28 16 0
2.79 -0.28200001 -0.0060000001 28 16 0
2.803 -0.27399999 -0.0060000001 28 16 0
2.823 -0.26699999 -0.0060000001 27 16 0
2.842 -0.25999999 -0.0060000001 27 16 0
2.855 -0.252 -0.0060000001 27 16 0
2.8759999 -0.244 -0.0060000001 28 16 0
2.898 -0.237 -0.0060000001 28 16 0
2.9100001 -0.228 -0.0060000001 27 16 0
2.9219999 -0.22 -0.0060000001 27 16 0
2.95 -0.212 -0.0060000001 26 19 0
2.9619999 -0.20299999 -0.0060000001 27 16 0
2.98 -0.19499999 -0.0060000001 26 16 0
3.0020001 -0.18700001 -0.0060000001 27 16 0
3.027 -0.178 -0.0060000001 26 16 0
3.0439999 -0.17 -0.0060000001 26 16 0
3.069 -0.161 -0.0049999999 26 16 0
3.089 -0.152 -0.0049999999 26 16 0
3.1029999 -0.14300001 -0.0049999999 27 16 0
3.1259999 -0.134 -0.0049999999 28 16 0
3.1459999 -0.124 -0.0040000002 28 16 0
3.1670001 -0.115 -0.0040000002 28 16 0
3.194 -0.105 -0.0040000002 28 16 0
3.2149999 -0.096000001 -0.0040000002 28 16 0
3.234 -0.086000003 -0.003 28 16 0
3.257 -0.075999998 -0.003 32 16 0
3.27 -0.066 -0.0020000001 133 16 0
3.2609999 -0.055 -0.0020000001 125 16 0
3.257 -0.044 -0.0020000001 109 16 0
3.253 -0.034000002 -0.001 120 16 0
3.25 -0.023 -0.001 94 16 0
3.244 -0.012 0 22 16 0
3.2739999 -0.0020000001 0 17 19 0
3.2939999 0.0080000004 0 18 16 0
3.3199999 0.017999999 0 22 16 0
3.3299999 0.028999999 0.001 47 16 0
3.3210001 0.039999999 0.0020000001 52 16 0
3.3169999 0.050999999 0.0020000001 42 16 0
3.3169999 0.061000001 0.003 44 16 0
3.309 0.071999997 0.0040000002 54 16 0
3.3039999 0.082000002 0.0040000002 53 16 0
3.293 0.093000002 0.0049999999 53 16 0
3.2920001 0.103 0.0060000001 55 16 0
3.2880001 0.114 0.0060000001 53 16 0
3.2869999 0.125 0.0070000002 61 16 0
3.2820001 0.13500001 0.0080000004 54 16 0
3.2720001 0.145 0.0089999996 58 16 0
3.2709999 0.156 0.0089999996 77 16 0
3.26 0.16599999 0.0099999998 72 16 0
3.2579999 0.176 0.011 82 16 0
3.2520001 0.186 0.012 90 16 0
3.2479999 0.197 0.013 83 16 0
3.2490001 0.207 0.013 83 16 0
3.2409999 0.21699999 0.014 57 16 0
3.233 0.227 0.015 51 16 0
3.2320001 0.237 0.016000001 66 16 0
3.23 0.248 0.017000001 77 16 0
3.223 0.257 0.017999999 68 16 0
3.2149999 0.26699999 0.018999999 76 16 0
3.2090001 0.27700001 0.02 74 16 0
3.2049999 0.287 0.021 83 16 0
3.2 0.29699999 0.022 74 16 0
3.2 0.30700001 0.023 73 16 0
3.1930001 0.317 0.024 68 16 0
3.1889999 0.32699999 0.025 71 16 0
3.1819999 0.33700001 0.026000001 74 16 0
3.1789999 0.347 0.027000001 71 16 0
3.1689999 0.35600001 0.028000001 59 16 0
3.1670001 0.366 0.028999999 63 16 0
3.161 0.37599999 0.030999999 73 16 0
3.1559999 0.38499999 0.032000002 72 16 0
3.1530001 0.39500001 0.033 69 16 0
3.1500001 0.405 0.034000002 101 16 0
3.1459999 0.41499999 0.035 94 16 0
3.142 0.42399999 0.037 75 16 0
3.1400001 0.43399999 0.037999999 97 16 0
3.132 0.44299999 0.039000001 81 16 0
3.128 0.45300001 0.039999999 71 16 0
3.1210001 0.46200001 0.041999999 79 16 0
3.119 0.472 0.043000001 83 16 0
3.118 0.48199999 0.044 87 16 0
3.1099999 0.491 0.046 93 16 0
3.096 0.49900001 0.046999998 88 16 0
3.095 0.50800002 0.048 97 16 0
3.0910001 0.51800001 0.050000001 97 16 0
3.0899999 0.528 0.050999999 105 16 0
3.086 0.537 0.052000001 103 16 0
3.079 0.546 0.054000001 93 16 0
3.0769999 0.55599999 0.055 97 16 0
3.075 0.565 0.057 97 16 0
3.0710001 0.57499999 0.057999998 91 16 0
3.0710001 0.58499998 0.059999999 105 16 0
3.066 0.59399998 0.061000001 105 16 0
3.0569999 0.602 0.063000001 95 16 0
3.0550001 0.611 0.064000003 100 16 0
3.05 0.62 0.066 109 16 0
3.046 0.63 0.068000004 103 16 0
3.04 0.63800001 0.068999998 105 16 0
3.033 0.64700001 0.071000002 98 16 0
3.03 0.65600002 0.071999997 115 16 0
3.0280001 0.66600001 0.074000001 106 16 0
3.0220001 0.67400002 0.075999998 104 16 0
3.0190001 0.68300003 0.077 109 16 0
3.0139999 0.69199997 0.079000004 106 16 0
3.0079999 0.69999999 0.081 110 16 0
3.007 0.70999998 0.082999997 114 16 0
3.0039999 0.71899998 0.085000001 107 16 0
2.9979999 0.72799999 0.086000003 120 16 0
2.9909999 0.736 0.088 107 16 0
2.9920001 0.74599999 0.090000004 119 16 0
2.9890001 0.755 0.092 111 16 0
2.983 0.76300001 0.093999997 118 16 0
2.9809999 0.77200001 0.096000001 113 16 0
2.9790001 0.78200001 0.097999997 124 16 0
2.973 0.79000002 0.1 111 16 0
2.973 0.80000001 0.102 124 16 0
2.9679999 0.80800003 0.104 114 16 0
2.964 0.81699997 0.106 117 16 0
2.9590001 0.82499999 0.108 131 16 0
2.9590001 0.83499998 0.11 133 16 0
2.951 0.84200001 0.112 139 16 0
2.9489999 0.85100001 0.114 131 16 0
2.9460001 0.86000001 0.116 133 16 0
2.9430001 0.86900002 0.118 131 16 0
2.938 0.87699997 0.12 129 16 0
2.9330001 0.88499999 0.122 143 16 0
2.928 0.89300001 0.125 133 16 0
2.928 0.903 0.127 143 16 0
2.925 0.91100001 0.12899999 140 16 0
2.9189999 0.91900003 0.132 130 16 0
2.914 0.92699999 0.134 138 16 0
2.9159999 0.93699998 0.13600001 135 16 0
2.9089999 0.94400001 0.138 117 16 0
2.908 0.954 0.141 129 16 0
2.905 0.96200001 0.14300001 114 16 0
2.901 0.97000003 0.146 41 16 0
2.9059999 0.98199999 0.149 30 16 0
2.8940001 0.98699999 0.15099999 123 16 0
2.8889999 0.995 0.153 141 16 0
2.882 1.002 0.155 130 16 0
2.8829999 1.012 0.15800001 132 16 0
2.8759999 1.0190001 0.16 122 16 0
2.878 1.029 0.163 134 16 0
2.8710001 1.036 0.16599999 131 16 0
2.8699999 1.044 0.168 139 16 0
2.869 1.054 0.171 133 16 0
2.8659999 1.062 0.17399999 136 16 0
2.855 1.067 0.176 120 16 0
2.859 1.0779999 0.17900001 118 16 0
2.8510001 1.084 0.182 120 16 0
2.848 1.092 0.185 121 16 0
2.848 1.101 0.18799999 135 16 0
2.842 1.108 0.19 113 16 0
2.8429999 1.118 0.193 116 16 0
2.839 1.126 0.19599999 117 16 0
2.8380001 1.135 0.199 113 16 0
2.8310001 1.14 0.20200001 118 16 0
2.8299999 1.149 0.205 107 16 0
2.8269999 1.1569999 0.208 129 16 0
2.822 1.164 0.211 118 16 0
2.822 1.173 0.214 126 16 0
2.816 1.1799999 0.21699999 138 16 0
2.8150001 1.188 0.22 129 16 0
2.813 1.197 0.223 150 16 0
2.813 1.205 0.227 150 16 0
2.8050001 1.211 0.229 144 16 0
2.8099999 1.222 0.233 145 16 0
2.8050001 1.229 0.236 149 16 0
2.803 1.237 0.23999999 148 16 0
2.8 1.244 0.243 150 16 0
2.796 1.251 0.24600001 150 16 0
2.793 1.258 0.249 150 16 0
2.7909999 1.266 0.25299999 139 16 0
2.786 1.273 0.25600001 138 16 0
2.7850001 1.281 0.259 128 16 0
2.7809999 1.288 0.26300001 116 16 0
2.78 1.296 0.266 90 16 0
2.78 1.3049999 0.27000001 76 16 0
2.7780001 1.312 0.27399999 64 16 0
2.7780001 1.321 0.27700001 63 16 0
2.7709999 1.326 0.28099999 77 16 0
2.77 1.334 0.28400001 103 16 0
2.763 1.339 0.287 145 16 0
2.7609999 1.346 0.29100001 131 16 0
2.7609999 1.354 0.29499999 142 16 0
2.7539999 1.359 0.29800001 127 16 0
2.75 1.3660001 0.30199999 150 16 0
2.753 1.375 0.30599999 150 16 0
2.747 1.38 0.31 150 16 0
2.7460001 1.388 0.31400001 144 16 0
2.747 1.397 0.31799999 135 16 0
2.744 1.403 0.322 99 16 0
2.7420001 1.41 0.32499999 52 16 0
2.734 1.414 0.329 41 16 0
2.7320001 1.42 0.333 37 16 0
2.7179999 1.421 0.33500001 35 16 0
2.7130001 1.426 0.33899999 35 16 0
2.701 1.427 0.34099999 33 16 0
2.6930001 1.431 0.345 34 16 0
2.6930001 1.438 0.34900001 33 16 0
2.6789999 1.438 0.35100001 32 16 0
2.665 1.437 0.354 31 16 0
2.661 1.443 0.35800001 33 16 0
2.6530001 1.446 0.361 37 16 0
2.6440001 1.448 0.36399999 33 16 0
2.6259999 1.4450001 0.366 26 16 0
2.612 1.444 0.368 22 16 0
2.6170001 1.454 0.373 41 16 0
2.6329999 1.469 0.38 125 16 0
2.618 1.4680001 0.382 71 16 0
2.5869999 1.457 0.382 28 16 0
2.5610001 1.449 0.382 23 16 0
2.5699999 1.46 0.38800001 25 16 0
2.6029999 1.485 0.39700001 45 16 0
2.6210001 1.502 0.405 127 16 0
2.622 1.5089999 0.40900001 150 16 0
2.619 1.5140001 0.41299999 150 16 0
2.6159999 1.518 0.417 145 16 0
2.619 1.526 0.42199999 150 16 0
2.6170001 1.531 0.42699999 150 16 0
2.615 1.536 0.43099999 150 16 0
2.619 1.544 0.43599999 150 16 0
2.612 1.546 0.44 150 16 0
2.615 1.553 0.44499999 150 16 0
2.618 1.5599999 0.44999999 150 16 0
2.6110001 1.562 0.45300001 149 16 0
2.608 1.566 0.458 138 16 0
2.6110001 1.573 0.463 150 16 0
2.608 1.576 0.46700001 137 16 0
2.6129999 1.584 0.472 146 16 0
2.6099999 1.5880001 0.477 134 16 0
2.6070001 1.591 0.48100001 134 16 0
2.609 1.597 0.486 139 16 0
2.609 1.602 0.491 139 16 0
2.6070001 1.605 0.495 141 16 0
2.6110001 1.612 0.5 134 16 0
2.6070001 1.614 0.50400001 118 16 0
2.6070001 1.619 0.509 110 16 0
2.612 1.626 0.51499999 126 16 0
2.6099999 1.6289999 0.51899999 125 16 0
2.609 1.633 0.52399999 132 16 0
2.608 1.636 0.528 117 16 0
2.6070001 1.6390001 0.53200001 120 16 0
2.6029999 1.641 0.53600001 126 16 0
2.608 1.648 0.542 117 16 0
2.6070001 1.65 0.546 125 16 0
2.6099999 1.656 0.55199999 106 16 0
2.6070001 1.658 0.55599999 112 16 0
2.612 1.664 0.56199998 115 16 0
2.608 1.664 0.565 114 16 0
2.609 1.668 0.56999999 111 16 0
2.612 1.673 0.57499999 116 16 0
2.6059999 1.6720001 0.579 103 16 0
2.6129999 1.679 0.58499998 103 16 0
2.6140001 1.682 0.58899999 108 16 0
2.6099999 1.682 0.59299999 137 16 0
2.6129999 1.686 0.59799999 130 16 0
2.6170001 1.6900001 0.60399997 119 16 0
2.612 1.689 0.60699999 113 16 0
2.6140001 1.692 0.61199999 110 16 0
2.6199999 1.698 0.61799997 121 16 0
2.6170001 1.698 0.62199998 119 16 0
2.6159999 1.699 0.62599999 124 16 0
2.618 1.701 0.63 146 16 0
2.622 1.705 0.63599998 149 16 0
2.6240001 1.707 0.63999999 150 16 0
2.622 1.707 0.64399999 146 16 0
2.618 1.706 0.64700001 82 16 0
2.6170001 1.706 0.65100002 45 16 0
2.6110001 1.702 0.65399998 37 16 0
2.602 1.697 0.65600002 35 16 0
2.596 1.693 0.65799999 34 16 0
2.5899999 1.689 0.66100001 34 16 0
2.585 1.686 0.66399997 35 16 0
2.5810001 1.683 0.66600001 35 16 0
2.575 1.679 0.66900003 33 16 0
2.5669999 1.674 0.67000002 34 16 0
2.563 1.67 0.67299998 34 16 0
2.5580001 1.666 0.67500001 34 16 0
2.553 1.663 0.67699999 35 16 0
2.5480001 1.658 0.68000001 34 16 0
2.5439999 1.655 0.68199998 34 16 0
2.5380001 1.65 0.68400002 34 16 0
2.5309999 1.643 0.685 34 16 0
2.5309999 1.642 0.68800002 35 16 0
2.526 1.637 0.69 34 16 0
2.523 1.6339999 0.69300002 34 16 0
2.5179999 1.6289999 0.69400001 35 16 0
2.5109999 1.622 0.69499999 35 16 0
2.5050001 1.617 0.69700003 34 16 0
2.507 1.6160001 0.70099998 35 16 0
2.4979999 1.608 0.70099998 36 19 0
2.4990001 1.6059999 0.704 36 16 0
2.49 1.598 0.704 35 19 0
2.4909999 1.595 0.70700002 35 16 0
2.487 1.59 0.708 36 16 0
2.4749999 1.58 0.70700002 36 16 0
2.4719999 1.575 0.70899999 36 16 0
2.473 1.572 0.71200001 37 16 0
2.47 1.567 0.713 37 16 0
2.47 1.564 0.71600002 38 16 0
2.4660001 1.558 0.71600002 37 16 0
2.4679999 1.5549999 0.71899998 38 16 0
2.46 1.5470001 0.71899998 36 19 0
2.4590001 1.543 0.72100002 39 16 0
2.451 1.533 0.72000003 37 19 0
2.454 1.5319999 0.72299999 38 16 0
2.4519999 1.526 0.72399998 38 16 0
2.448 1.52 0.72500002 40 16 0
2.4449999 1.513 0.72500002 38 16 0
2.444 1.508 0.72600001 37 16 0
2.4449999 1.5039999 0.72799999 38 16 0
2.4400001 1.497 0.72799999 39 16 0
2.4400001 1.493 0.73000002 40 16 0
2.4419999 1.489 0.73100001 41 16 0
2.434 1.479 0.73000002 40 16 0
2.4319999 1.473 0.73100001 40 16 0
2.4319999 1.4680001 0.73199999 42 16 0
2.4289999 1.461 0.73199999 41 16 0
2.431 1.457 0.73299998 41 16 0
2.4300001 1.451 0.73400003 44 16 0
2.4300001 1.446 0.73500001 43 16 0
2.4260001 1.438 0.73400003 43 16 0
2.428 1.434 0.736 46 16 0
2.428 1.428 0.736 42 16 0
2.4219999 1.419 0.73500001 45 16 0
2.4260001 1.416 0.73699999 51 16 0
2.427 1.411 0.73699999 44 16 0
2.428 1.405 0.73799998 46 16 0
2.428 1.4 0.73799998 38 16 0
2.4260001 1.392 0.73699999 36 16 0
2.4230001 1.3839999 0.73699999 38 16 0
2.427 1.381 0.73799998 38 16 0
2.427 1.375 0.73799998 38 16 0
2.425 1.367 0.73699999 38 16 0
2.427 1.362 0.73799998 38 16 0
2.427 1.3559999 0.73799998 41 16 0
2.4300001 1.351 0.73799998 40 16 0
2.4319999 1.345 0.73799998 41 16 0
2.427 1.336 0.736 40 16 0
2.428 1.33 0.736 41 16 0
2.4289999 1.324 0.736 43 16 0
2.4319999 1.319 0.73699999 42 16 0
2.4319999 1.312 0.736 41 16 0
2.4319999 1.3049999 0.73500001 38 16 0
2.4349999 1.3 0.73500001 40 16 0
2.438 1.295 0.73500001 39 16 0
2.4400001 1.289 0.73500001 40 16 0
2.437 1.28 0.73299998 38 16 0
2.441 1.276 0.73299998 41 16 0
2.4419999 1.2690001 0.73199999 40 16 0
2.4449999 1.263 0.73199999 46 16 0
2.45 1.2589999 0.73199999 48 16 0
2.451 1.252 0.73100001 46 16 0
2.448 1.243 0.72899997 45 16 0
2.4519999 1.238 0.72899997 47 16 0
2.454 1.232 0.72799999 47 16 0
2.4549999 1.225 0.727 43 16 0
2.4579999 1.219 0.72600001 50 16 0
2.461 1.2130001 0.72500002 53 16 0
2.4630001 1.207 0.72399998 56 16 0
2.467 1.201 0.72399998 57 16 0
2.4679999 1.194 0.722 49 16 0
2.4679999 1.187 0.72000003 53 16 0
2.4760001 1.183 0.72100002 54 16 0
2.4809999 1.178 0.72000003 62 16 0
2.4820001 1.171 0.71899998 57 16 0
2.4809999 1.163 0.71600002 48 16 0
2.4860001 1.1569999 0.71600002 59 16 0
2.4849999 1.149 0.713 53 16 0
2.493 1.145 0.713 61 16 0
2.4960001 1.1390001 0.71200001 66 16 0
2.4990001 1.133 0.70999998 58 16 0
2.5039999 1.127 0.70899999 65 16 0
2.506 1.12 0.70700002 64 16 0
2.5090001 1.113 0.70599997 61 16 0
2.5139999 1.108 0.70499998 61 16 0
2.516 1.101 0.70200002 60 16 0
2.516 1.0930001 0.69999999 62 16 0
2.527 1.09 0.69999999 65 16 0
2.53 1.0829999 0.69800001 56 16 0
2.533 1.077 0.69599998 61 16 0
2.5380001 1.071 0.69499999 67 16 0
2.5420001 1.064 0.69300002 69 16 0
2.543 1.057 0.69099998 65 16 0
2.549 1.052 0.68900001 61 16 0
2.5510001 1.045 0.68699998 67 16 0
2.556 1.038 0.685 70 16 0
2.559 1.0319999 0.68300003 73 16 0
2.5639999 1.026 0.68099999 71 16 0
2.5669999 1.0190001 0.67900002 71 16 0
2.5739999 1.0140001 0.67699999 75 16 0
2.5799999 1.008 0.67500001 62 16 0
2.585 1.002 0.67299998 58 16 0
2.589 0.99599999 0.671 60 16 0
2.595 0.98900002 0.66900003 61 16 0
2.598 0.98299998 0.66600001 51 16 0
2.608 0.97799999 0.66600001 64 16 0
2.6129999 0.972 0.66299999 51 16 0
2.6170001 0.96499997 0.66100001 56 16 0
2.6210001 0.95899999 0.65799999 41 16 0
2.6270001 0.95300001 0.65600002 46 16 0
2.6329999 0.94700003 0.65399998 41 16 0
2.6389999 0.94099998 0.65200001 40 16 0
2.642 0.93400002 0.64899999 41 16 0
2.645 0.92699999 0.64600003 42 16 0
2.6530001 0.921 0.64399999 38 16 0
2.6659999 0.917 0.64300001 46 16 0
2.6700001 0.91100001 0.63999999 41 16 0
2.677 0.90499997 0.63800001 46 16 0
2.681 0.898 0.634 42 16 0
2.684 0.89099997 0.63099998 43 16 0
2.691 0.88499999 0.62900001 42 16 0
2.6989999 0.87900001 0.62599999 42 16 0
2.7030001 0.87300003 0.62300003 40 16 0
2.7079999 0.866 0.62 42 16 0
2.717 0.86000001 0.61799997 42 16 0
2.723 0.85399997 0.61500001 41 16 0
2.7290001 0.84799999 0.61199999 39 16 0
2.7409999 0.84299999 0.61000001 42 16 0
2.7449999 0.83600003 0.60699999 42 16 0
2.7539999 0.82999998 0.60399997 41 16 0
2.7609999 0.824 0.60100001 43 16 0
2.7620001 0.81599998 0.597 42 16 0
2.7709999 0.81099999 0.59500003 40 16 0
2.777 0.80400002 0.59100002 40 16 0
2.78 0.79699999 0.58700001 40 16 0
2.793 0.792 0.58499998 38 16 0
2.802 0.787 0.583 41 16 0
2.8080001 0.77999997 0.579 41 16 0
2.8210001 0.77499998 0.57700002 42 16 0
2.825 0.76800001 0.57300001 40 16 0
2.832 0.76099998 0.56999999 39 16 0
2.8380001 0.755 0.56599998 40 16 0
2.845 0.74800003 0.56300002 40 16 0
2.8510001 0.741 0.55900002 41 16 0
2.858 0.73500001 0.55500001 38 16 0
2.875 0.73100001 0.55400002 36 16 0
2.8870001 0.72600001 0.551 37 16 0
2.8900001 0.71799999 0.546 35 16 0
2.898 0.71200001 0.54299998 37 16 0
2.902 0.704 0.53799999 34 16 0
2.9130001 0.699 0.53500003 35 16 0
2.9219999 0.69199997 0.53200001 36 16 0
2.928 0.685 0.528 34 16 0
2.9400001 0.68000001 0.52399999 35 16 0
2.9489999 0.67299998 0.52100003 35 16 0
2.9590001 0.667 0.51700002 34 16 0
2.97 0.66100001 0.514 33 16 0
2.98 0.65499997 0.50999999 35 16 0
2.9849999 0.648 0.50599998 35 16 0
2.9979999 0.64200002 0.50199997 34 16 0
3.006 0.63599998 0.498 34 16 0
3.0109999 0.62800002 0.493 33 16 0
3.0239999 0.62199998 0.49000001 34 16 0
3.0369999 0.61699998 0.48699999 34 16 0
3.0450001 0.61000001 0.48199999 32 16 0
3.056 0.60299999 0.47799999 34 16 0
3.063 0.59600002 0.47299999 35 16 0
3.076 0.58999997 0.47 35 16 0
3.0869999 0.58399999 0.46599999 36 16 0
3.098 0.57800001 0.461 34 16 0
3.105 0.56999999 0.45699999 34 16 0
3.119 0.56400001 0.45300001 39 16 0
3.1300001 0.55699998 0.44800001 51 16 0
3.1370001 0.55000001 0.44299999 100 16 0
3.1400001 0.542 0.43799999 150 16 0
3.145 0.53500003 0.433 150 16 0
3.145 0.52600002 0.426 150 16 0
3.1459999 0.51800001 0.421 150 16 0
3.1559999 0.51099998 0.41600001 150 16 0
3.1530001 0.50199997 0.40900001 150 16 0
3.1589999 0.49399999 0.40400001 150 16 0
3.1589999 0.486 0.398 128 16 0
3.1559999 0.477 0.391 146 16 0
3.1589999 0.46900001 0.38499999 145 16 0
3.1600001 0.461 0.37900001 149 16 0
3.161 0.45199999 0.373 150 16 0
3.168 0.44499999 0.368 143 16 0
3.1659999 0.43599999 0.361 139 16 0
3.1670001 0.428 0.35499999 150 16 0
3.1689999 0.41999999 0.34900001 139 16 0
3.1700001 0.412 0.34299999 141 16 0
3.171 0.40400001 0.33700001 118 16 0
3.174 0.396 0.331 128 16 0
3.175 0.38800001 0.32499999 125 16 0
3.1760001 0.37900001 0.31799999 119 16 0
3.184 0.37200001 0.31299999 127 16 0
3.1800001 0.36300001 0.30599999 132 16 0
3.1819999 0.35499999 0.30000001 122 16 0
3.1830001 0.347 0.294 122 16 0
3.1900001 0.34 0.28799999 134 16 0
3.191 0.331 0.28099999 139 16 0
3.187 0.32300001 0.27500001 123 16 0
3.194 0.315 0.26899999 130 16 0
3.1849999 0.30599999 0.26100001 117 16 0
3.1960001 0.29899999 0.25600001 108 16 0
3.194 0.29100001 0.249 123 16 0
3.194 0.28299999 0.243 119 16 0
3.2 0.27500001 0.237 127 16 0
3.2019999 0.26699999 0.23 119 16 0
3.1919999 0.25799999 0.223 123 16 0
3.204 0.25099999 0.21699999 116 16 0
3.1989999 0.243 0.20999999 117 16 0
3.1989999 0.235 0.204 114 16 0
3.191 0.226 0.19599999 61 16 0
3.131 0.214 0.186 29 18 0
3.165 0.208 0.182 45 16 0
3.1459999 0.199 0.17399999 29 16 0
3.1270001 0.19 0.16599999 21 16 0
3.1889999 0.186 0.163 42 16 0
3.2119999 0.17900001 0.15800001 113 16 0
3.2119999 0.171 0.15099999 94 16 0
3.22 0.164 0.14399999 50 16 0
3.221 0.156 0.138 37 16 0
3.243 0.149 0.132 30 16 0
3.2579999 0.142 0.126 29 16 0
3.2720001 0.134 0.119 28 16 0
3.2869999 0.127 0.113 29 16 0
3.306 0.119 0.106 30 16 0
3.322 0.112 0.1 41 16 0
3.329 0.104 0.093000002 80 16 0
3.3280001 0.096000001 0.086000003 101 16 0
3.3280001 0.088 0.079000004 23 16 0
3.329 0.079999998 0.071999997 2 16 0
3.2920001 0.071000002 0.064000003 0 19 0
3.3 0.063000001 0.057 4 16 0
3.3329999 0.055 0.050000001 9 19 0
3.3329999 0.048 0.043000001 38 16 0
3.3280001 0.039000001 0.035999998 50 16 0
3.342 0.032000002 0.028999999 54 16 0
3.332 0.023 0.021 31 16 0
3.3139999 0.015 0.014 18 16 0
3.299 0.0070000002 0.0070000002 17 16 0
3.273 0 0 16 16 0
3.2590001 -0.0070000002 -0.0070000002 16 16 0
3.2349999 -0.015 -0.014 25 16 0
3.2360001 -0.023 -0.021 67 16 0
3.2390001 -0.029999999 -0.028000001 120 16 0
3.2390001 -0.037999999 -0.035 113 16 0
3.2390001 -0.046 -0.041999999 103 16 0
3.2420001 -0.054000001 -0.050000001 132 16 0
3.243 -0.061000001 -0.057 150 16 0
3.2409999 -0.068999998 -0.064000003 107 16 0
3.2290001 -0.075999998 -0.071000002 34 16 0
3.2079999 -0.082999997 -0.078000002 26 16 0
3.1889999 -0.090000004 -0.083999999 25 16 0
3.1700001 -0.097000003 -0.090999998 26 16 0
3.1500001 -0.104 -0.097000003 25 16 0
3.1300001 -0.11 -0.104 25 16 0
3.115 -0.117 -0.11 25 16 0
3.0999999 -0.124 -0.117 25 16 0
3.0780001 -0.13 -0.123 25 16 0
3.0680001 -0.13699999 -0.12899999 25 16 0
3.0469999 -0.14300001 -0.13500001 26 16 0
3.026 -0.149 -0.141 25 16 0
3.006 -0.155 -0.147 25 16 0
2.994 -0.161 -0.154 25 16 0
2.977 -0.167 -0.15899999 24 16 0
2.96 -0.17299999 -0.16500001 24 16 0
2.9449999 -0.17900001 -0.171 24 16 0
2.925 -0.184 -0.177 25 16 0
2.9130001 -0.19 -0.183 25 16 0
2.8989999 -0.19599999 -0.189 25 16 0
2.885 -0.20200001 -0.19400001 25 16 0
2.869 -0.207 -0.2 25 16 0
2.8610001 -0.213 -0.206 25 16 0
2.8399999 -0.21799999 -0.211 25 16 0
2.8280001 -0.22400001 -0.21699999 25 16 0
2.813 -0.229 -0.222 26 16 0
2.796 -0.234 -0.228 26 16 0
2.7820001 -0.23899999 -0.233 25 16 0
2.7690001 -0.244 -0.23800001 26 16 0
2.756 -0.249 -0.244 25 16 0
2.7460001 -0.25400001 -0.25 26 16 0
2.7309999 -0.259 -0.255 27 16 0
2.7219999 -0.264 -0.25999999 27 16 0
2.714 -0.26899999 -0.266 27 16 0
2.7 -0.27399999 -0.271 27 16 0
2.6830001 -0.278 -0.27599999 28 16 0
2.674 -0.28299999 -0.28099999 26 16 0
2.6659999 -0.28799999 -0.287 28 16 0
2.645 -0.292 -0.29100001 27 16 0
2.6340001 -0.29699999 -0.296 28 16 0
2.6210001 -0.301 -0.301 27 16 0
2.6129999 -0.30599999 -0.30599999 27 16 0
2.5999999 -0.31 -0.31099999 27 16 0
2.5910001 -0.315 -0.317 28 16 0
2.5769999 -0.31900001 -0.32100001 27 16 0
2.5669999 -0.32300001 -0.32600001 27 16 0
2.5580001 -0.32800001 -0.331 28 16 0
2.539 -0.331 -0.33500001 28 16 0
2.5320001 -0.33500001 -0.34 27 16 0
2.5209999 -0.34 -0.345 28 16 0
2.506 -0.34299999 -0.34900001 26 16 0
2.497 -0.347 -0.354 28 16 0
2.4890001 -0.35100001 -0.36000001 28 16 0
2.4749999 -0.35499999 -0.36399999 28 16 0
2.4660001 -0.359 -0.36899999 28 16 0
2.4590001 -0.36300001 -0.37400001 29 16 0
2.447 -0.36700001 -0.37799999 28 16 0
2.4400001 -0.37099999 -0.38299999 28 16 0
2.434 -0.375 -0.38800001 29 16 0
2.4170001 -0.37799999 -0.39199999 28 16 0
2.4100001 -0.382 -0.39700001 28 16 0
2.402 -0.38600001 -0.40200001 29 16 0
2.391 -0.389 -0.40599999 27 16 0
2.3800001 -0.39199999 -0.41 27 16 0
2.368 -0.39500001 -0.414 27 16 0
2.358 -0.39899999 -0.419 28 16 0
2.3499999 -0.40200001 -0.42300001 25 16 0
2.3380001 -0.405 -0.42699999 26 16 0
2.332 -0.40900001 -0.43200001 27 16 0
2.322 -0.412 -0.43599999 29 16 0
2.3080001 -0.414 -0.44 27 16 0
2.3010001 -0.41800001 -0.44400001 38 16 0
2.2920001 -0.421 -0.449 41 16 0
2.2869999 -0.42500001 -0.454 37 16 0
2.277 -0.428 -0.458 47 16 0
2.2690001 -0.43099999 -0.46200001 39 16 0
2.2590001 -0.43399999 -0.46599999 55 16 0
2.2509999 -0.43700001 -0.47099999 55 16 0
2.2409999 -0.43900001 -0.47400001 56 16 0
2.237 -0.44299999 -0.47999999 60 16 0
2.2290001 -0.44600001 -0.484 51 16 0
2.2160001 -0.44800001 -0.48699999 53 16 0
2.214 -0.45199999 -0.493 51 16 0
2.1989999 -0.454 -0.495 56 16 0
2.194 -0.45699999 -0.5 53 16 0
2.188 -0.46000001 -0.505 59 16 0
2.1760001 -0.46200001 -0.50800002 52 16 0
2.1689999 -0.465 -0.51200002 63 16 0
2.1600001 -0.46700001 -0.51599997 56 16 0
2.1570001 -0.47099999 -0.52100003 54 16 0
2.1489999 -0.47299999 -0.52499998 63 16 0
2.1440001 -0.47600001 -0.52999997 67 16 0
2.132 -0.47799999 -0.53299999 67 16 0
2.118 -0.479 -0.53500003 65 16 0
2.1140001 -0.48199999 -0.54000002 69 16 0
2.108 -0.48500001 -0.54400003 64 16 0
2.105 -0.48800001 -0.54900002 72 16 0
2.0929999 -0.49000001 -0.55199999 69 16 0
2.0840001 -0.491 -0.55599999 69 16 0
2.0780001 -0.49399999 -0.56 66 16 0
2.069 -0.49599999 -0.56300002 63 16 0
2.0650001 -0.49900001 -0.56800002 66 16 0
2.0599999 -0.50099999 -0.57300001 72 16 0
2.05 -0.50300002 -0.57599998 66 16 0
2.043 -0.505 -0.579 70 16 0
2.0350001 -0.50700003 -0.583 71 16 0
2.03 -0.509 -0.58700001 68 16 0
2.0250001 -0.51200002 -0.59200001 79 16 0
2.0220001 -0.51499999 -0.597 73 16 0
2.0150001 -0.51700002 -0.60100001 72 16 0
2.0050001 -0.51800001 -0.60299999 80 16 0
2.0009999 -0.51999998 -0.60799998 72 16 0
1.995 -0.52200001 -0.61199999 80 16 0
1.987 -0.52399999 -0.61500001 81 16 0
1.98 -0.52499998 -0.61900002 76 16 0
1.978 -0.528 -0.62400001 77 16 0
1.973 -0.52999997 -0.62800002 81 16 0
1.966 -0.53200001 -0.63099998 86 16 0
1.964 -0.53500003 -0.63599998 84 16 0
1.954 -0.53500003 -0.639 81 16 0
1.948 -0.537 -0.64300001 84 16 0
1.9400001 -0.53799999 -0.64600003 72 16 0
1.933 -0.54000002 -0.64899999 114 16 0
1.931 -0.542 -0.65399998 118 16 0
1.925 -0.54400003 -0.65799999 108 16 0
1.918 -0.54500002 -0.662 117 16 0
1.9119999 -0.546 -0.66500002 108 16 0
1.909 -0.54900002 -0.67000002 112 16 0
1.9069999 -0.551 -0.67500001 128 16 0
1.9 -0.55199999 -0.67799997 123 16 0
1.8940001 -0.55299997 -0.68099999 122 16 0
1.89 -0.55500001 -0.68599999 120 16 0
1.883 -0.55599999 -0.68800002 109 16 0
1.878 -0.55699998 -0.69199997 114 16 0
1.875 -0.55900002 -0.69700003 107 16 0
1.873 -0.56199998 -0.70200002 114 16 0
1.869 -0.56300002 -0.70599997 114 16 0
1.8609999 -0.56400001 -0.708 114 16 0
1.857 -0.565 -0.713 118 16 0
1.855 -0.56699997 -0.71700001 116 16 0
1.848 -0.56800002 -0.72000003 113 16 0
1.846 -0.56999999 -0.72500002 107 16 0
1.837 -0.56999999 -0.727 145 16 0
1.835 -0.57099998 -0.73199999 135 16 0
1.835 -0.574 -0.73699999 148 16 0
1.83 -0.57499999 -0.741 143 16 0
1.814 -0.57200003 -0.74000001 143 16 0
1.809 -0.57300001 -0.74299997 139 16 0
1.807 -0.57499999 -0.74800003 144 16 0
1.803 -0.57599998 -0.75099999 147 16 0
1.8 -0.57700002 -0.75599998 137 16 0
1.796 -0.57800001 -0.75999999 140 16 0
1.7920001 -0.579 -0.76300001 138 16 0
1.79 -0.58099997 -0.76800001 147 16 0
1.788 -0.58200002 -0.77200001 139 16 0
1.784 -0.583 -0.77600002 145 16 0
1.7819999 -0.58399999 -0.77999997 148 16 0
1.78 -0.58600003 -0.78500003 150 16 0
1.775 -0.58600003 -0.78799999 150 16 0
1.772 -0.58700001 -0.792 144 16 0
1.77 -0.588 -0.796 150 16 0
1.7640001 -0.588 -0.79900002 150 16 0
1.762 -0.58899999 -0.80299997 150 16 0
1.76 -0.58999997 -0.80699998 150 16 0
1.757 -0.59100002 -0.81099999 145 16 0
1.753 -0.59100002 -0.81400001 150 16 0
1.749 -0.59100002 -0.81800002 148 16 0
1.747 -0.59200001 -0.82200003 150 16 0
1.745 -0.59299999 -0.82599998 150 16 0
1.742 -0.59399998 -0.82999998 150 16 0
1.74 -0.59500003 -0.83399999 150 16 0
1.738 -0.59500003 -0.838 150 16 0
1.7359999 -0.59600002 -0.84200001 150 16 0
1.734 -0.59600002 -0.84600002 150 16 0
1.7309999 -0.597 -0.84899998 150 16 0
1.729 -0.597 -0.85299999 150 16 0
1.728 -0.59799999 -0.85699999 150 16 0
1.725 -0.59799999 -0.861 150 16 0
1.723 -0.59899998 -0.86500001 150 16 0
1.721 -0.59899998 -0.86900002 150 16 0
1.719 -0.59899998 -0.87300003 150 16 0
1.714 -0.59899998 -0.875 150 16 0
1.711 -0.59799999 -0.87800002 150 16 0
1.709 -0.59899998 -0.88200003 150 16 0
1.712 -0.60000002 -0.88700002 150 16 0
1.707 -0.59899998 -0.88999999 150 16 0
1.7079999 -0.60000002 -0.89499998 150 16 0
1.702 -0.59899998 -0.89600003 150 16 0
1.7029999 -0.60000002 -0.90100002 150 16 0
1.701 -0.60000002 -0.90499997 150 16 0
1.697 -0.59899998 -0.90700001 150 16 0
1.698 -0.60000002 -0.91100001 150 16 0
1.697 -0.60000002 -0.91500002 150 16 0
1.694 -0.59899998 -0.91799998 150 16 0
1.694 -0.59899998 -0.92199999 150 16 0
1.692 -0.59899998 -0.92500001 150 16 0
1.6900001 -0.59899998 -0.92799997 150 16 0
1.689 -0.59799999 -0.93199998 150 16 0
1.687 -0.59799999 -0.935 150 16 0
1.689 -0.59799999 -0.94 150 16 0
1.686 -0.597 -0.94199997 150 16 0
1.687 -0.597 -0.94599998 150 16 0
1.683 -0.59600002 -0.94800001 150 16 0
1.686 -0.597 -0.954 150 16 0
1.6849999 -0.59600002 -0.95700002 150 16 0
1.684 -0.59600002 -0.95999998 150 16 0
1.683 -0.59500003 -0.963 150 16 0
1.681 -0.59399998 -0.96499997 150 16 0
1.683 -0.59399998 -0.97000003 150 16 0
1.681 -0.59299999 -0.972 150 16 0
1.6799999 -0.59200001 -0.97500002 150 16 0
1.679 -0.59100002 -0.97799999 150 16 0
1.679 -0.59100002 -0.98100001 150 16 0
1.678 -0.58899999 -0.98400003 150 16 0
1.677 -0.58899999 -0.98699999 150 16 0
1.676 -0.58700001 -0.98900002 150 16 0
1.678 -0.58700001 -0.99299997 150 16 0
1.677 -0.58600003 -0.995 150 16 0
1.678 -0.58499998 -0.99900001 150 16 0
1.677 -0.58399999 -1.001 150 16 0
1.678 -0.583 -1.005 150 16 0
1.677 -0.58200002 -1.006 150 16 0
1.689 -0.58499998 -1.016 150 17 0
1.692 -0.58399999 -1.02 150 16 0
1.688 -0.58200002 -1.021 150 16 0
1.693 -0.58200002 -1.026 150 16 0
1.692 -0.58099997 -1.028 150 16 0
1.693 -0.57999998 -1.031 150 16 0
1.694 -0.57800001 -1.034 150 16 0
1.6950001 -0.57700002 -1.036 150 16 0
1.701 -0.57800001 -1.0420001 150 16 0
1.7 -0.57599998 -1.043 150 16 0
1.7 -0.574 -1.045 150 16 0
1.702 -0.57300001 -1.048 150 16 0
1.702 -0.57099998 -1.05 150 16 0
1.704 -0.56999999 -1.053 150 16 0
1.709 -0.56999999 -1.058 150 19 0
1.709 -0.56800002 -1.059 150 16 0
1.709 -0.56599998 -1.0599999 150 16 0
1.714 -0.56599998 -1.0650001 150 19 0
1.716 -0.56400001 -1.067 150 16 0
1.714 -0.56099999 -1.068 150 16 0
1.721 -0.56099999 -1.073 150 19 0
1.723 -0.56 -1.075 150 16 0
1.723 -0.55699998 -1.076 150 16 0
1.725 -0.55599999 -1.0779999 150 16 0
1.73 -0.55500001 -1.082 150 16 0
1.733 -0.55400002 -1.085 150 16 0
1.735 -0.55199999 -1.086 150 16 0
1.735 -0.54900002 -1.087 150 16 0
1.7410001 -0.54900002 -1.091 150 16 0
1.744 -0.54699999 -1.0930001 150 16 0
1.747 -0.54500002 -1.095 150 16 0
1.748 -0.54299998 -1.096 150 16 0
1.75 -0.54100001 -1.097 150 16 0
1.7589999 -0.54100001 -1.103 150 18 0
1.755 -0.537 -1.101 150 16 0
1.762 -0.53600001 -1.104 150 16 0
1.767 -0.53500003 -1.107 150 16 0
1.77 -0.53299999 -1.109 150 16 0
1.772 -0.52999997 -1.11 150 16 0
1.777 -0.52899998 -1.112 150 16 0
1.778 -0.52600002 -1.112 150 16 0
1.786 -0.52600002 -1.117 143 19 0
1.789 -0.523 -1.117 150 16 0
1.7920001 -0.52100003 -1.119 150 16 0
1.793 -0.51800001 -1.118 147 16 0
1.8 -0.51700002 -1.1210001 150 16 0
1.801 -0.514 -1.1210001 149 16 0
1.808 -0.51300001 -1.124 143 16 0
1.809 -0.50999999 -1.123 136 16 0
1.818 -0.509 -1.127 141 19 0
1.821 -0.50700003 -1.128 150 16 0
1.823 -0.50400001 -1.127 135 16 0
1.83 -0.50199997 -1.13 143 16 0
1.836 -0.50099999 -1.132 150 16 0
1.84 -0.498 -1.132 148 16 0
1.845 -0.49599999 -1.133 150 16 0
1.849 -0.49399999 -1.1339999 150 16 0
1.855 -0.49200001 -1.135 150 16 0
1.857 -0.48899999 -1.1339999 150 16 0
1.864 -0.48699999 -1.136 142 16 0
1.867 -0.484 -1.136 144 16 0
1.869 -0.48100001 -1.1339999 150 16 0
1.882 -0.48100001 -1.14 144 19 0
1.89 -0.479 -1.142 130 16 0
1.8940001 -0.477 -1.142 135 16 0
1.896 -0.47299999 -1.14 121 16 0
1.903 -0.47099999 -1.141 119 16 0
1.908 -0.46900001 -1.141 127 16 0
1.913 -0.46599999 -1.141 126 16 0
1.919 -0.46399999 -1.142 120 16 0
1.9299999 -0.463 -1.145 117 16 0
1.933 -0.46000001 -1.143 115 16 0
1.938 -0.45699999 -1.143 121 16 0
1.943 -0.45500001 -1.142 125 16 0
1.948 -0.45199999 -1.142 116 16 0
1.95 -0.449 -1.1390001 111 16 0
1.961 -0.447 -1.142 126 16 0
1.9680001 -0.44499999 -1.142 121 16 0
1.972 -0.442 -1.141 121 16 0
1.982 -0.44100001 -1.143 125 16 0
1.979 -0.43599999 -1.137 101 16 0
1.99 -0.435 -1.1390001 119 16 0
1.993 -0.43099999 -1.137 119 16 0
2.003 -0.42899999 -1.138 104 16 0
2.006 -0.426 -1.136 103 16 0
2.0139999 -0.42399999 -1.136 107 16 0
2.02 -0.421 -1.135 109 16 0
2.0250001 -0.419 -1.133 99 16 0
2.0309999 -0.41600001 -1.132 111 16 0
2.0409999 -0.414 -1.132 99 16 0
2.046 -0.41100001 -1.131 101 16 0
2.0539999 -0.40900001 -1.131 103 16 0
2.0580001 -0.405 -1.128 96 16 0
2.062 -0.40200001 -1.125 102 16 0
2.072 -0.40000001 -1.125 113 16 0
2.079 -0.398 -1.124 107 16 0
2.0869999 -0.39500001 -1.123 108 16 0
2.0929999 -0.39300001 -1.122 109 16 0
2.102 -0.38999999 -1.1210001 97 16 0
2.108 -0.38800001 -1.119 92 16 0
2.112 -0.384 -1.1160001 98 16 0
2.122 -0.382 -1.115 111 16 0
2.131 -0.38 -1.114 108 16 0
2.1359999 -0.377 -1.112 110 16 0
2.1400001 -0.37400001 -1.108 108 16 0
2.1500001 -0.37200001 -1.108 107 16 0
2.1570001 -0.36899999 -1.105 110 16 0
2.1659999 -0.36700001 -1.104 117 16 0
2.1670001 -0.36300001 -1.099 109 16 0
2.178 -0.361 -1.099 112 16 0
2.1830001 -0.35800001 -1.095 111 16 0
2.1949999 -0.35600001 -1.095 114 16 0
2.201 -0.35299999 -1.092 105 16 0
2.2079999 -0.34999999 -1.09 109 16 0
2.2149999 -0.347 -1.087 115 16 0
2.221 -0.345 -1.0829999 106 16 0
2.227 -0.34200001 -1.08 112 16 0
2.234 -0.33899999 -1.077 115 16 0
2.2379999 -0.336 -1.073 111 16 0
2.2479999 -0.333 -1.071 109 16 0
2.2550001 -0.331 -1.068 108 16 0
2.2609999 -0.32800001 -1.064 108 16 0
2.2679999 -0.32499999 -1.061 112 16 0
2.2750001 -0.322 -1.057 115 16 0
2.2839999 -0.31999999 -1.0549999 109 16 0
2.293 -0.317 -1.052 113 16 0
2.2980001 -0.31400001 -1.048 102 16 0
2.306 -0.31200001 -1.044 107 16 0
2.312 -0.30899999 -1.041 90 16 0
2.3210001 -0.30599999 -1.0369999 91 16 0
2.3299999 -0.30399999 -1.035 91 16 0
2.3399999 -0.30199999 -1.0319999 93 16 0
2.3429999 -0.29800001 -1.026 85 16 0
2.3529999 -0.296 -1.024 94 16 0
2.3559999 -0.29300001 -1.018 88 16 0
2.3640001 -0.28999999 -1.0140001 62 16 0
2.372 -0.28799999 -1.01 66 16 0
2.3840001 -0.285 -1.008 57 16 0
2.391 -0.28299999 -1.0039999 59 16 0
2.3989999 -0.28 -1 58 16 0
2.408 -0.278 -0.99599999 59 16 0
2.411 -0.27399999 -0.99000001 57 16 0
2.4170001 -0.27200001 -0.98500001 60 16 0
2.428 -0.26899999 -0.98199999 52 16 0
2.431 -0.266 -0.97600001 57 16 0
2.441 -0.264 -0.972 58 16 0
2.451 -0.26199999 -0.96799999 56 16 0
2.457 -0.259 -0.963 62 16 0
2.4649999 -0.25600001 -0.95899999 55 16 0
2.4719999 -0.25400001 -0.95300001 55 16 0
2.4779999 -0.25099999 -0.94800001 56 16 0
2.4890001 -0.249 -0.94400001 57 16 0
2.4909999 -0.245 -0.93800002 59 16 0
2.5009999 -0.243 -0.93300003 55 16 0
2.513 -0.241 -0.93000001 57 16 0
2.523 -0.23899999 -0.926 46 16 0
2.527 -0.236 -0.91900003 50 16 0
2.5339999 -0.233 -0.91299999 55 16 0
2.5420001 -0.23100001 -0.90799999 63 16 0
2.55 -0.228 -0.903 52 16 0
2.563 -0.226 -0.89999998 58 16 0
2.5680001 -0.223 -0.89300001 48 16 0
2.576 -0.221 -0.88800001 44 16 0
2.582 -0.21799999 -0.88200003 43 16 0
2.5899999 -0.21600001 -0.87599999 43 16 0
2.5969999 -0.213 -0.87 48 16 0
2.6029999 -0.20999999 -0.86400002 42 16 0
2.605 -0.208 -0.85699999 40 16 0
2.6140001 -0.205 -0.85100001 43 16 0
2.622 -0.20299999 -0.84600002 45 16 0
2.6389999 -0.20100001 -0.84299999 46 16 0
2.6440001 -0.198 -0.83600003 44 16 0
2.6470001 -0.19499999 -0.82800001 43 16 0
2.652 -0.193 -0.82099998 38 16 0
2.665 -0.191 -0.81699997 35 16 0
2.6730001 -0.18799999 -0.81099999 36 16 0
2.678 -0.186 -0.80400002 35 16 0
2.6900001 -0.184 -0.79900002 37 16 0
2.6960001 -0.18099999 -0.792 37 16 0
2.701 -0.17900001 -0.78500003 35 16 0
2.7060001 -0.176 -0.77700001 35 16 0
2.7190001 -0.17399999 -0.77200001 36 16 0
2.7279999 -0.17200001 -0.76599997 35 16 0
2.733 -0.169 -0.759 33 16 0
2.7390001 -0.167 -0.75199997 34 16 0
2.75 -0.16500001 -0.74599999 34 16 0
2.757 -0.162 -0.73900002 34 16 0
2.7639999 -0.16 -0.73199999 35 16 0
2.7750001 -0.15800001 -0.72600001 33 16 0
2.7809999 -0.155 -0.71899998 33 16 0
2.7920001 -0.153 -0.71200001 35 16 0
2.7939999 -0.15099999 -0.704 32 16 0
2.8050001 -0.149 -0.69800001 34 16 0
2.813 -0.146 -0.69099998 35 16 0
2.8199999 -0.14399999 -0.68400002 37 16 0
2.8299999 -0.142 -0.67699999 35 16 0
2.835 -0.14 -0.66900003 36 16 0
2.845 -0.13699999 -0.662 35 16 0
2.8499999 -0.13500001 -0.65399998 36 16 0
2.8599999 -0.133 -0.64700001 35 16 0
2.875 -0.131 -0.64099997 33 16 0
2.8770001 -0.12899999 -0.63300002 34 16 0
2.8859999 -0.126 -0.625 35 16 0
2.892 -0.124 -0.61699998 35 16 0
2.901 -0.122 -0.61000001 34 16 0
2.9119999 -0.12 -0.60299999 34 16 0
2.915 -0.118 -0.59399998 29 16 0
2.924 -0.116 -0.58700001 28 16 0
2.934 -0.114 -0.579 29 16 0
2.937 -0.111 -0.57099998 29 16 0
2.947 -0.109 -0.56300002 28 16 0
2.9530001 -0.107 -0.55500001 29 16 0
2.9579999 -0.105 -0.546 30 16 0
2.977 -0.103 -0.54000002 30 16 0
2.983 -0.101 -0.53100002 31 16 0
2.99 -0.098999999 -0.523 30 16 0
3.0039999 -0.097000003 -0.51599997 31 16 0
3.0079999 -0.094999999 -0.50700003 30 16 0
3.017 -0.093000002 -0.49900001 30 16 0
3.0280001 -0.090999998 -0.491 30 16 0
3.033 -0.089000002 -0.48199999 27 16 0
3.0420001 -0.086999997 -0.47400001 27 16 0
3.049 -0.085000001 -0.465 28 16 0
3.0610001 -0.082999997 -0.45699999 30 16 0
3.066 -0.081 -0.44800001 34 16 0
3.075 -0.079000004 -0.44 43 16 0
3.0780001 -0.077 -0.43000001 74 16 0
3.082 -0.074000001 -0.421 125 16 0
3.0829999 -0.071999997 -0.41100001 150 16 0
3.0910001 -0.07 -0.40200001 150 16 0
3.0910001 -0.068000004 -0.39300001 150 16 0
3.0999999 -0.066 -0.384 150 16 0
3.1029999 -0.064000003 -0.37400001 150 16 0
3.1040001 -0.061999999 -0.36399999 150 16 0
3.1040001 -0.059999999 -0.354 150 16 0
3.109 -0.057999998 -0.345 150 16 0
3.1240001 -0.057 -0.33700001 150 16 0
3.1199999 -0.055 -0.32600001 150 16 0
3.1170001 -0.052999999 -0.31600001 150 16 0
3.131 -0.050999999 -0.30700001 150 16 0
3.131 -0.048999999 -0.29699999 150 16 0
3.1329999 -0.046999998 -0.28799999 150 16 0
3.1340001 -0.045000002 -0.278 150 16 0
3.138 -0.043000001 -0.26800001 150 16 0
3.142 -0.041000001 -0.25799999 150 16 0
3.142 -0.039999999 -0.248 150 16 0
3.1489999 -0.037999999 -0.23899999 150 16 0
3.1500001 -0.035999998 -0.229 150 16 0
3.1570001 -0.034000002 -0.219 150 16 0
3.161 -0.033 -0.20900001 150 16 0
3.1630001 -0.030999999 -0.199 150 16 0
3.1659999 -0.028999999 -0.189 150 16 0
3.171 -0.027000001 -0.18000001 150 16 0
3.1719999 -0.026000001 -0.169 150 16 0
3.1789999 -0.024 -0.16 150 16 0
3.1800001 -0.022 -0.15000001 138 16 0
3.1849999 -0.021 -0.14 122 16 0
3.188 -0.018999999 -0.12899999 70 16 0
3.194 -0.017999999 -0.12 48 16 0
3.2 -0.016000001 -0.109 41 16 0
3.204 -0.014 -0.098999999 34 16 0
3.211 -0.013 -0.089000002 29 16 0
3.2149999 -0.011 -0.079000004 25 16 0
3.2260001 -0.0099999998 -0.068999998 23 16 0
3.2290001 -0.0080000004 -0.059 21 16 0
3.2390001 -0.0070000002 -0.048999999 20 16 0
3.2490001 -0.0049999999 -0.037999999 18 16 0
3.2550001 -0.0040000002 -0.028000001 18 16 0
3.2639999 -0.0020000001 -0.017999999 18 16 0
3.2650001 -0.001 -0.0070000002 18 16 0
3.277 0 0.0020000001 19 16 0
3.289 0.001 0.013 19 16 0
3.2920001 0.003 0.024 19 16 0
3.296 0.0040000002 0.034000002 19 16 0
3.3099999 0.0060000001 0.045000002 19 16 0
3.313 0.0070000002 0.056000002 19 16 0
3.323 0.0080000004 0.066 20 16 0
3.3310001 0.0099999998 0.077 21 16 0
3.3310001 0.011 0.088 33 16 0
3.3169999 0.012 0.097999997 42 16 0
3.2980001 0.014 0.108 44 16 0
3.28 0.015 0.118 150 16 0
3.283 0.016000001 0.12899999 150 16 0
3.286 0.017000001 0.14 150 16 0
3.29 0.018999999 0.15000001 150 16 0
3.2920001 0.02 0.161 150 16 0
3.2980001 0.021 0.17200001 150 16 0
3.303 0.022 0.183 150 16 0
3.3099999 0.023 0.19400001 150 16 0
3.312 0.025 0.205 150 16 0
3.3180001 0.026000001 0.21600001 150 16 0
3.325 0.027000001 0.227 150 16 0
3.326 0.028000001 0.23800001 150 16 0
3.3310001 0.028999999 0.249 150 16 0
3.3299999 0.029999999 0.25999999 150 16 0
3.3429999 0.030999999 0.27200001 150 16 0
3.342 0.032000002 0.28200001 150 16 0
3.346 0.033 0.294 150 16 0
3.3510001 0.034000002 0.30500001 150 16 0
3.359 0.035999998 0.31600001 150 16 0
3.3570001 0.035999998 0.32699999 150 16 0
3.3640001 0.037 0.33899999 150 16 0
3.358 0.037999999 0.34900001 128 16 0
3.346 0.039000001 0.359 39 16 0
3.323 0.039999999 0.36700001 39 16 0
3.3010001 0.039999999 0.375 37 16 0
3.2839999 0.041000001 0.384 38 16 0
3.2639999 0.041000001 0.39199999 38 16 0
3.247 0.041999999 0.40099999 39 16 0
3.2279999 0.041999999 0.40900001 38 16 0
3.214 0.043000001 0.41800001 39 16 0
3.1889999 0.043000001 0.42500001 43 16 0
3.178 0.044 0.43399999 43 16 0
3.158 0.044 0.44100001 46 16 0
3.132 0.044 0.44800001 39 16 0
3.1199999 0.045000002 0.456 41 16 0
3.1010001 0.045000002 0.46399999 41 16 0
3.0799999 0.045000002 0.47099999 42 16 0
3.0669999 0.046 0.479 41 16 0
3.056 0.046 0.48699999 41 16 0
3.029 0.046 0.493 39 16 0
3.0209999 0.046 0.50099999 40 16 0
2.9979999 0.046 0.50800002 41 16 0
2.9860001 0.046999998 0.51499999 40 16 0
2.9690001 0.046999998 0.52200001 42 16 0
2.9549999 0.046999998 0.52899998 42 16 0
2.938 0.046999998 0.53600001 44 16 0
2.924 0.046999998 0.54299998 42 16 0
2.902 0.046999998 0.54900002 43 16 0
2.8829999 0.046999998 0.55500001 49 16 0
2.868 0.046999998 0.56099999 64 16 0
2.852 0.046999998 0.56800002 59 16 0
2.839 0.046999998 0.574 53 16 0
2.8269999 0.046999998 0.58099997 70 16 0
2.819 0.046999998 0.58899999 51 16 0
2.806 0.046999998 0.59600002 50 16 0
2.79 0.046999998 0.60100001 48 16 0
2.7720001 0.046999998 0.60699999 54 16 0
2.7650001 0.046999998 0.61400002 51 16 0
2.753 0.046999998 0.62099999 54 16 0
2.7360001 0.046 0.62599999 60 16 0
2.7219999 0.046 0.63200003 54 16 0
2.704 0.046 0.63700002 70 16 0
2.6919999 0.046 0.64300001 82 16 0
2.681 0.045000002 0.64899999 59 16 0
2.6659999 0.045000002 0.65499997 86 16 0
2.655 0.045000002 0.66100001 75 16 0
2.6459999 0.045000002 0.667 70 16 0
2.6340001 0.044 0.67299998 68 16 0
2.6259999 0.044 0.68000001 112 16 0
2.609 0.044 0.68400002 114 16 0
2.595 0.043000001 0.68900001 116 16 0
2.5829999 0.043000001 0.69499999 115 16 0
2.5680001 0.041999999 0.699 135 16 0
2.552 0.041999999 0.704 143 16 0
2.5409999 0.041000001 0.70899999 150 16 0
2.5280001 0.041000001 0.71399999 150 16 0
2.5190001 0.039999999 0.72000003 150 16 0
2.507 0.039999999 0.72500002 150 16 0
2.49 0.039000001 0.72799999 150 16 0
2.48 0.039000001 0.73400003 150 16 0
2.471 0.037999999 0.73900002 150 16 0
2.4549999 0.037999999 0.74299997 150 16 0
2.45 0.037 0.75 150 16 0
2.438 0.037 0.75400001 150 16 0
2.427 0.035999998 0.759 150 16 0
2.418 0.035 0.764 150 16 0
2.4100001 0.035 0.76999998 150 16 0
2.398 0.034000002 0.77399999 150 16 0
2.388 0.033 0.77899998 150 16 0
2.3789999 0.033 0.78399998 150 16 0
2.3670001 0.032000002 0.78799999 150 16 0
2.359 0.030999999 0.79400003 150 16 0
2.3540001 0.029999999 0.80000001 150 16 0
2.345 0.029999999 0.80500001 150 16 0
2.335 0.028999999 0.80900002 150 16 0
2.326 0.028000001 0.81400001 150 16 0
2.3099999 0.027000001 0.81599998 150 16 0
2.3010001 0.026000001 0.82099998 150 16 0
2.2950001 0.026000001 0.82700002 150 16 0
2.2850001 0.025 0.83099997 150 16 0
2.28 0.024 0.83600003 150 16 0
2.2690001 0.023 0.83999997 150 16 0
2.2550001 0.022 0.84299999 150 16 0
2.247 0.021 0.847 150 16 0
2.2360001 0.02 0.85100001 150 16 0
2.23 0.018999999 0.85600001 150 16 0
2.22 0.017999999 0.86000001 150 16 0
2.214 0.017000001 0.86500001 150 16 0
2.2019999 0.016000001 0.86699998 150 16 0
2.191 0.015 0.87099999 150 16 0
2.1800001 0.014 0.87400001 150 16 0
2.174 0.013 0.87900001 150 16 0
2.1659999 0.012 0.88300002 150 16 0
2.154 0.011 0.88499999 150 16 0
2.148 0.0099999998 0.88999999 150 16 0
2.1389999 0.0080000004 0.89300001 150 16 0
2.1329999 0.0070000002 0.898 150 16 0
2.122 0.0060000001 0.90100002 150 16 0
2.119 0.0049999999 0.90600002 150 16 0
2.1059999 0.0040000002 0.90799999 150 16 0
2.098 0.0020000001 0.91100001 150 16 0
2.0929999 0.001 0.91600001 150 16 0
2.0829999 0 0.91900003 150 16 0
2.079 0 0.92400002 150 16 0
2.0680001 -0.0020000001 0.926 150 16 0
2.063 -0.003 0.93099999 150 16 0
2.0539999 -0.0040000002 0.93400002 150 16 0
2.0450001 -0.0060000001 0.93599999 150 16 0
2.0420001 -0.0070000002 0.94099998 150 16 0
2.027 -0.0080000004 0.94199997 150 16 0
2.02 -0.0099999998 0.94499999 150 16 0
2.0120001 -0.011 0.94800001 150 16 0
2.0079999 -0.012 0.95200002 150 16 0
1.994 -0.014 0.95200002 150 16 0
1.987 -0.015 0.95499998 150 16 0
1.982 -0.017000001 0.95999998 150 16 0
1.977 -0.017999999 0.96399999 150 16 0
1.9680001 -0.02 0.96600002 150 16 0
1.961 -0.021 0.96899998 150 16 0
1.951 -0.023 0.97000003 150 16 0
1.948 -0.024 0.97500002 150 16 0
1.941 -0.026000001 0.977 150 16 0
1.9349999 -0.028000001 0.98100001 150 16 0
1.923 -0.028999999 0.98000002 150 16 0
1.918 -0.030999999 0.98400003 150 16 0
1.9119999 -0.032000002 0.98699999 150 16 0
1.904 -0.034000002 0.98900002 150 16 0
1.902 -0.035 0.99400002 150 16 0
1.893 -0.037 0.995 150 16 0
1.891 -0.039000001 1 150 16 0
1.876 -0.039999999 0.99800003 150 16 0
1.874 -0.041999999 1.003 150 16 0
1.865 -0.044 1.0039999 150 16 0
1.859 -0.045000002 1.006 150 16 0
1.855 -0.046999998 1.0089999 150 16 0
1.852 -0.048999999 1.013 150 16 0
1.845 -0.050999999 1.015 150 16 0
1.8380001 -0.052999999 1.017 150 16 0
1.8329999 -0.054000001 1.02 150 16 0
1.827 -0.056000002 1.022 150 16 0
1.825 -0.057999998 1.026 150 16 0
1.813 -0.059999999 1.025 150 16 0
1.809 -0.061999999 1.028 150 16 0
1.804 -0.063000001 1.03 150 16 0
1.802 -0.064999998 1.034 150 16 0
1.794 -0.067000002 1.035 150 16 0
1.7920001 -0.068999998 1.038 150 16 0
1.776 -0.071000002 1.034 150 19 0
1.771 -0.072999999 1.036 150 16 0
1.767 -0.075000003 1.039 150 16 0
1.765 -0.077 1.0420001 150 16 0
1.758 -0.079000004 1.043 150 16 0
1.756 -0.081 1.046 150 16 0
1.751 -0.082999997 1.048 150 16 0
1.749 -0.085000001 1.052 150 16 0
1.744 -0.086999997 1.053 150 16 0
1.74 -0.089000002 1.0549999 150 16 0
1.737 -0.090999998 1.058 150 16 0
1.735 -0.093000002 1.061 150 16 0
1.732 -0.094999999 1.064 150 16 0
1.728 -0.097000003 1.0650001 150 16 0
1.723 -0.098999999 1.066 150 16 0
1.716 -0.101 1.066 150 16 0
1.71 -0.103 1.067 150 16 0
1.707 -0.105 1.069 150 16 0
1.704 -0.107 1.071 150 16 0
1.698 -0.109 1.071 150 16 0
1.6950001 -0.112 1.073 150 16 0
1.692 -0.114 1.074 150 16 0
1.688 -0.116 1.076 150 16 0
1.686 -0.118 1.0779999 150 16 0
1.6849999 -0.121 1.081 150 16 0
1.677 -0.122 1.079 150 16 0
1.676 -0.125 1.082 150 16 0
1.671 -0.127 1.082 150 16 0
1.669 -0.12899999 1.084 150 16 0
1.6670001 -0.131 1.086 150 16 0
1.666 -0.134 1.0880001 150 16 0
1.6619999 -0.13600001 1.089 150 16 0
