# .PCD v0.7 - Point Cloud Data file format
VERSION 0.7
FIELDS x y z intensity tag line
SIZE 4 4 4 4 1 1
TYPE F F F F U U
COUNT 1 1 1 1 1 1
WIDTH 1363
HEIGHT 1
VIEWPOINT 0 0 0 1 0 0 0
POINTS 1363
DATA ascii
2.3959999 -0.53200001 0.396 84 16 0
2.381 -0.53500003 0.39700001 66 16 0
2.3759999 -0.54100001 0.40099999 79 16 0
2.369 -0.546 0.40400001 74 16 0
2.355 -0.55000001 0.405 70 16 0
2.349 -0.55500001 0.40799999 86 16 0
2.342 -0.56 0.41100001 79 16 0
2.3329999 -0.565 0.41299999 88 16 0
2.3210001 -0.56900001 0.41499999 78 16 0
2.309 -0.57300001 0.417 87 16 0
2.2939999 -0.57599998 0.41800001 90 16 0
2.29 -0.58099997 0.42199999 95 16 0
2.2809999 -0.58600003 0.42399999 100 16 0
2.2739999 -0.59100002 0.426 100 16 0
2.2650001 -0.59500003 0.428 113 16 0
2.2550001 -0.59899998 0.43000001 99 16 0
2.2409999 -0.602 0.43099999 103 16 0
2.234 -0.60699999 0.43399999 105 16 0
2.2290001 -0.61199999 0.43599999 105 16 0
2.217 -0.61500001 0.43799999 111 16 0
2.2090001 -0.62 0.44 106 16 0
2.2019999 -0.62400001 0.442 110 16 0
2.191 -0.62800002 0.44299999 107 16 0
2.181 -0.63099998 0.44400001 111 16 0
2.171 -0.63499999 0.44600001 108 16 0
2.1659999 -0.63999999 0.44800001 130 16 0
2.1559999 -0.64399999 0.449 123 16 0
2.151 -0.64899999 0.45199999 122 16 0
2.1429999 -0.653 0.45300001 120 16 0
2.131 -0.65600002 0.454 125 16 0
2.122 -0.65899998 0.456 102 16 0
2.1159999 -0.66399997 0.45699999 119 16 0
2.109 -0.66799998 0.45899999 127 16 0
2.098 -0.671 0.46000001 124 16 0
2.0929999 -0.676 0.46200001 138 16 0
2.0840001 -0.67900002 0.463 123 16 0
2.0739999 -0.68300003 0.46399999 132 16 0
2.0599999 -0.68400002 0.46399999 141 16 0
2.0550001 -0.68900001 0.46599999 139 16 0
2.049 -0.69300002 0.46700001 150 16 0
2.0380001 -0.69599998 0.46799999 127 16 0
2.03 -0.699 0.46900001 147 16 0
2.0239999 -0.704 0.47 142 16 0
2.016 -0.70700002 0.47099999 147 16 0
2.0079999 -0.70999998 0.472 150 16 0
1.999 -0.713 0.47299999 150 16 0
1.993 -0.71700001 0.47400001 150 16 0
1.985 -0.72100002 0.47499999 150 16 0
1.98 -0.72500002 0.47600001 144 16 0
1.97 -0.72799999 0.477 138 16 0
1.9630001 -0.73100001 0.477 150 16 0
1.959 -0.736 0.479 150 16 0
1.948 -0.73799998 0.479 150 16 0
1.938 -0.74000001 0.479 147 16 0
1.934 -0.745 0.47999999 150 16 0
1.927 -0.74800003 0.48100001 150 16 0
1.92 -0.75099999 0.48199999 150 16 0
1.911 -0.75400001 0.48199999 150 16 0
1.905 -0.75800002 0.48300001 150 16 0
1.898 -0.76099998 0.48300001 150 16 0
1.896 -0.76599997 0.48500001 150 16 0
1.8839999 -0.76700002 0.484 150 16 0
1.877 -0.76999998 0.484 150 16 0
1.869 -0.773 0.484 150 16 0
1.86 -0.77499998 0.484 150 16 0
1.858 -0.77999997 0.48500001 150 16 0
1.851 -0.78299999 0.486 150 16 0
1.832 -0.78100002 0.48300001 150 19 0
1.8279999 -0.78500003 0.484 150 16 0
1.825 -0.78899997 0.48500001 150 16 0
1.819 -0.792 0.48500001 150 16 0
1.816 -0.79699999 0.486 150 16 0
1.8099999 -0.79900002 0.486 150 16 0
1.798 -0.80000001 0.48500001 150 16 0
1.794 -0.80400002 0.48500001 150 16 0
1.788 -0.80699998 0.486 150 16 0
1.7819999 -0.80900002 0.48500001 150 16 0
1.775 -0.81199998 0.48500001 150 16 0
1.7690001 -0.815 0.48500001 150 16 0
1.761 -0.81599998 0.484 150 16 0
1.755 -0.81900001 0.484 150 16 0
1.75 -0.82200003 0.484 150 16 0
1.745 -0.82499999 0.484 150 16 0
1.7410001 -0.829 0.484 150 16 0
1.733 -0.82999998 0.48300001 150 16 0
1.722 -0.82999998 0.48199999 150 16 0
1.719 -0.83399999 0.48199999 150 16 0
1.717 -0.83899999 0.48300001 150 16 0
1.704 -0.83700001 0.47999999 150 16 0
1.701 -0.84100002 0.47999999 150 16 0
1.699 -0.84500003 0.48100001 150 16 0
1.6900001 -0.84600002 0.47999999 150 16 0
1.686 -0.84899998 0.479 2 0 0
1.681 -0.852 0.479 3 0 0
1.675 -0.85299999 0.47799999 4 0 0
1.6720001 -0.85699999 0.47799999 3 0 0
1.668 -0.86000001 0.47799999 4 0 0
1.663 -0.86199999 0.477 5 0 0
1.654 -0.86299998 0.47499999 3 0 0
1.652 -0.866 0.47600001 3 0 0
1.645 -0.86699998 0.47400001 4 0 0
1.6390001 -0.86900002 0.47299999 103 0 0
1.633 -0.87099999 0.472 128 0 0
1.626 -0.87199998 0.47 90 0 0
1.624 -0.875 0.47 148 0 0
1.623 -0.87900001 0.47 97 0 0
1.615 -0.87900001 0.46799999 150 0 0
1.6109999 -0.88099998 0.46799999 123 0 0
1.609 -0.88499999 0.46799999 124 0 0
1.604 -0.88700002 0.46599999 132 0 0
1.602 -0.88999999 0.46599999 128 0 0
1.59 -0.88700002 0.463 86 3 0
1.5880001 -0.88999999 0.46200001 121 0 0
1.581 -0.89099997 0.46000001 118 0 0
1.577 -0.89300001 0.45899999 111 0 0
1.576 -0.89600003 0.45899999 126 0 0
1.568 -0.89600003 0.45699999 124 0 0
1.566 -0.89899999 0.456 124 0 0
1.563 -0.90100002 0.45500001 130 0 0
1.5599999 -0.903 0.454 92 0 0
1.5549999 -0.90399998 0.45199999 118 0 0
1.551 -0.90499997 0.45100001 96 0 0
1.546 -0.90600002 0.449 123 0 0
1.543 -0.90899998 0.44800001 91 0 0
1.538 -0.90899998 0.44600001 132 0 0
1.534 -0.91000003 0.44499999 102 0 0
1.527 -0.91000003 0.44299999 131 0 0
1.53 -0.91500002 0.44299999 150 0 0
1.523 -0.91399997 0.44 131 0 0
1.52 -0.91600001 0.43900001 129 0 0
1.5190001 -0.91799998 0.43799999 116 0 0
1.5140001 -0.91900003 0.43599999 114 0 0
1.5089999 -0.91900003 0.43399999 142 0 0
1.507 -0.921 0.433 106 0 0
1.506 -0.92299998 0.43200001 115 0 0
1.5 -0.92199999 0.42899999 104 0 0
1.4960001 -0.92299998 0.42699999 92 0 0
1.494 -0.92500001 0.426 99 0 0
1.493 -0.92699999 0.42500001 127 0 0
1.488 -0.926 0.42199999 128 0 0
1.489 -0.93000001 0.421 141 0 0
1.478 -0.92500001 0.417 103 2 0
1.475 -0.926 0.41499999 118 0 0
1.474 -0.92799997 0.414 108 0 0
1.471 -0.92799997 0.412 131 0 0
1.472 -0.93199998 0.41100001 150 0 0
1.469 -0.93199998 0.40900001 150 0 0
1.4680001 -0.93300003 0.40700001 145 0 0
1.465 -0.93300003 0.405 114 0 0
1.464 -0.935 0.40400001 136 0 0
1.461 -0.935 0.40200001 115 0 0
1.46 -0.93599999 0.40000001 98 0 0
1.4579999 -0.93699998 0.398 103 0 0
1.454 -0.93599999 0.396 84 0 0
1.454 -0.93699998 0.39399999 89 0 0
1.4529999 -0.93900001 0.39199999 101 0 0
1.4529999 -0.94 0.391 96 0 0
1.449 -0.93900001 0.38800001 94 0 0
1.45 -0.94099998 0.38699999 113 0 0
1.448 -0.94099998 0.384 112 0 0
1.448 -0.94199997 0.38299999 125 0 0
1.448 -0.94300002 0.38100001 100 0 0
1.442 -0.94099998 0.37799999 111 3 0
1.444 -0.94300002 0.37599999 108 0 0
1.441 -0.94199997 0.37400001 108 0 0
1.4400001 -0.94300002 0.37200001 128 0 0
1.434 -0.93900001 0.368 112 3 0
1.434 -0.94 0.366 101 0 0
1.436 -0.94199997 0.36500001 86 0 0
1.436 -0.94199997 0.36300001 85 0 0
1.434 -0.94199997 0.361 90 0 0
1.434 -0.94199997 0.359 84 0 0
1.432 -0.94099998 0.35600001 87 0 0
1.432 -0.94199997 0.354 90 0 0
1.432 -0.94199997 0.352 107 0 0
1.432 -0.94199997 0.34999999 109 0 0
1.431 -0.94199997 0.34799999 109 0 0
1.4299999 -0.94099998 0.345 86 0 0
1.432 -0.94199997 0.34299999 129 0 0
1.433 -0.94199997 0.34099999 102 0 0
1.429 -0.93900001 0.338 101 0 0
1.432 -0.94099998 0.33700001 113 0 0
1.432 -0.94099998 0.33500001 129 0 0
1.428 -0.93800002 0.331 105 0 0
1.429 -0.93800002 0.329 110 0 0
1.433 -0.94 0.32800001 98 0 0
1.432 -0.93900001 0.32499999 92 0 0
1.432 -0.93800002 0.32300001 103 0 0
1.431 -0.93599999 0.31999999 86 0 0
1.427 -0.93300003 0.317 90 0 0
1.428 -0.93199998 0.315 90 0 0
1.434 -0.935 0.31400001 134 0 0
1.4299999 -0.93099999 0.31 75 0 0
1.438 -0.93599999 0.31 100 0 0
1.431 -0.93000001 0.30599999 74 0 0
1.432 -0.92900002 0.30399999 98 0 0
1.438 -0.93199998 0.30199999 133 0 0
1.439 -0.93099999 0.30000001 132 0 0
1.443 -0.93199998 0.29800001 77 0 0
1.443 -0.93000001 0.296 107 0 0
1.4450001 -0.93000001 0.294 89 0 0
1.439 -0.92400002 0.28999999 77 3 0
1.447 -0.92799997 0.289 80 0 0
1.446 -0.92500001 0.28600001 82 0 0
1.451 -0.92699999 0.285 92 0 0
1.451 -0.92400002 0.28200001 102 0 0
1.447 -0.92000002 0.27900001 84 0 0
1.4529999 -0.92199999 0.278 90 0 0
1.455 -0.92000002 0.27500001 108 0 0
1.4579999 -0.92000002 0.273 94 0 0
1.459 -0.91900003 0.271 5 0 0
1.46 -0.917 0.26899999 88 0 0
1.4630001 -0.91600001 0.266 98 0 0
1.4630001 -0.91399997 0.264 86 0 0
1.465 -0.91299999 0.26199999 76 0 0
1.469 -0.912 0.25999999 85 0 0
1.47 -0.91000003 0.257 70 0 0
1.472 -0.90899998 0.255 92 0 0
1.473 -0.90700001 0.25299999 105 0 0
1.476 -0.90600002 0.25099999 83 0 0
1.478 -0.90399998 0.248 73 0 0
1.48 -0.90200001 0.24600001 86 0 0
1.4809999 -0.89999998 0.244 116 0 0
1.485 -0.89899999 0.242 57 0 0
1.489 -0.898 0.23999999 66 0 0
1.4910001 -0.89600003 0.23800001 69 0 0
1.493 -0.89399999 0.235 74 0 0
1.495 -0.89200002 0.233 96 0 0
1.4960001 -0.889 0.23100001 75 0 0
1.502 -0.889 0.229 86 0 0
1.5 -0.88499999 0.226 88 0 0
1.51 -0.88800001 0.22499999 89 0 0
1.511 -0.88499999 0.223 63 0 0
1.513 -0.88200003 0.221 4 0 0
1.518 -0.88099998 0.219 66 0 0
1.52 -0.87900001 0.21600001 77 0 0
1.525 -0.87800002 0.215 71 0 0
1.527 -0.875 0.212 75 0 0
1.53 -0.87300003 0.20999999 74 0 0
1.533 -0.87099999 0.208 62 0 0
1.535 -0.86799997 0.206 72 0 0
1.536 -0.86400002 0.204 66 0 0
1.543 -0.86400002 0.20200001 70 0 0
1.543 -0.86000001 0.199 54 0 0
1.548 -0.85900003 0.198 68 0 0
1.552 -0.85699999 0.19599999 77 0 0
1.554 -0.85399997 0.193 77 0 0
1.557 -0.85100001 0.191 64 0 0
1.561 -0.84899998 0.19 76 0 0
1.571 -0.85000002 0.18799999 72 0 0
1.576 -0.84799999 0.186 61 0 0
1.576 -0.84399998 0.184 50 0 0
1.584 -0.84399998 0.183 55 0 0
1.589 -0.84200001 0.18099999 57 0 0
1.591 -0.83899999 0.17900001 75 0 0
1.595 -0.83600003 0.177 81 0 0
1.6 -0.83399999 0.175 58 0 0
1.607 -0.833 0.17299999 58 0 0
1.613 -0.83200002 0.17200001 43 0 0
1.612 -0.82599998 0.169 58 0 0
1.618 -0.82499999 0.167 47 0 0
1.62 -0.82099998 0.16500001 47 0 0
1.6289999 -0.82099998 0.164 51 0 0
1.631 -0.81699997 0.162 46 0 0
1.637 -0.815 0.16 49 0 0
1.642 -0.81300002 0.15899999 54 0 0
1.649 -0.81099999 0.15700001 47 0 0
1.652 -0.80699998 0.155 45 0 0
1.659 -0.80500001 0.153 45 0 0
1.666 -0.80400002 0.152 28 0 0
1.671 -0.801 0.15000001 41 0 0
1.674 -0.79699999 0.148 35 0 0
1.683 -0.796 0.147 33 0 0
1.689 -0.79400003 0.145 34 0 0
1.693 -0.79100001 0.14300001 30 0 0
1.697 -0.787 0.142 36 0 0
1.7 -0.78299999 0.14 28 0 0
1.705 -0.77999997 0.138 32 0 0
1.714 -0.77899998 0.13699999 28 0 0
1.723 -0.778 0.13500001 31 0 0
1.721 -0.77100003 0.133 32 0 0
1.7359999 -0.77200001 0.132 1 0 0
1.739 -0.76800001 0.13 27 0 0
1.748 -0.76700002 0.12899999 2 0 0
1.752 -0.76300001 0.127 1 0 0
1.76 -0.76099998 0.126 135 16 0
1.761 -0.755 0.124 150 16 0
1.771 -0.75400001 0.122 136 16 0
1.776 -0.75099999 0.121 133 16 0
1.784 -0.74800003 0.119 130 16 0
1.786 -0.74299997 0.118 136 16 0
1.791 -0.73900002 0.116 122 16 0
1.801 -0.73799998 0.115 134 16 0
1.807 -0.73400003 0.113 128 16 0
1.814 -0.73100001 0.112 129 16 0
1.819 -0.727 0.11 132 16 0
1.8329999 -0.727 0.109 132 16 0
1.836 -0.722 0.108 134 16 0
1.8430001 -0.71899998 0.106 112 16 0
1.852 -0.71600002 0.105 1 0 0
1.857 -0.71200001 0.103 1 0 0
1.86 -0.70700002 0.102 120 16 0
1.869 -0.70499998 0.1 1 0 0
1.877 -0.70200002 0.098999999 114 16 0
1.887 -0.699 0.097999997 1 0 0
1.895 -0.69599998 0.096000001 1 0 0
1.9 -0.69099998 0.094999999 121 16 0
1.908 -0.68800002 0.093999997 119 16 0
1.911 -0.68300003 0.092 108 16 0
1.916 -0.67799997 0.090999998 105 16 0
1.924 -0.67500001 0.089000002 110 16 0
1.941 -0.67400002 0.088 100 16 0
1.946 -0.67000002 0.086999997 104 16 0
1.956 -0.667 0.086000003 104 16 0
1.962 -0.662 0.083999999 106 16 0
1.969 -0.65799999 0.082999997 106 16 0
1.979 -0.65499997 0.082000002 101 16 0
1.984 -0.64999998 0.079999998 103 16 0
1.995 -0.64700001 0.079000004 102 16 0
2.0039999 -0.64399999 0.078000002 93 16 0
2.0090001 -0.63800001 0.077 102 16 0
2.0209999 -0.63599998 0.075999998 92 16 0
2.033 -0.63300002 0.075000003 92 16 0
2.0409999 -0.62800002 0.072999999 100 16 0
2.0450001 -0.62300003 0.071999997 100 16 0
2.053 -0.61900002 0.071000002 95 16 0
2.0650001 -0.61500001 0.07 97 16 0
2.0810001 -0.61299998 0.068999998 85 16 0
2.086 -0.60799998 0.067000002 90 16 0
2.0929999 -0.60299999 0.066 91 16 0
2.099 -0.59799999 0.064999998 77 16 0
2.1099999 -0.59399998 0.064000003 84 16 0
2.1229999 -0.59100002 0.063000001 80 16 0
2.1300001 -0.58600003 0.061999999 82 16 0
2.1370001 -0.57999998 0.061000001 81 16 0
2.152 -0.57700002 0.059999999 82 16 0
2.155 -0.57099998 0.057999998 86 16 0
2.175 -0.56900001 0.057999998 83 16 0
2.1830001 -0.56400001 0.056000002 75 16 0
2.1949999 -0.56 0.055 72 16 0
2.2 -0.55400002 0.054000001 69 16 0
2.2130001 -0.55000001 0.052999999 53 16 0
2.2260001 -0.546 0.052000001 55 16 0
2.2349999 -0.54100001 0.050999999 48 16 0
2.2479999 -0.53600001 0.050000001 51 16 0
2.253 -0.52999997 0.048999999 61 16 0
2.267 -0.52600002 0.048 57 16 0
2.2750001 -0.51999998 0.046999998 54 16 0
2.29 -0.51599997 0.046 48 16 0
2.299 -0.51099998 0.045000002 44 16 0
2.3069999 -0.505 0.044 41 16 0
2.3210001 -0.5 0.043000001 44 16 0
2.3369999 -0.49599999 0.041999999 44 16 0
2.342 -0.49000001 0.041000001 38 16 0
2.3599999 -0.486 0.041000001 45 16 0
2.369 -0.47999999 0.039999999 34 16 0
2.3800001 -0.47400001 0.039000001 32 16 0
2.395 -0.46900001 0.037999999 46 16 0
2.408 -0.46399999 0.037 43 16 0
2.4189999 -0.458 0.035999998 48 16 0
2.4319999 -0.45300001 0.035 42 16 0
2.444 -0.447 0.034000002 38 16 0
2.457 -0.44100001 0.033 36 16 0
2.4719999 -0.43599999 0.033 43 16 0
2.483 -0.43000001 0.032000002 41 16 0
2.4960001 -0.42399999 0.030999999 36 16 0
2.5039999 -0.417 0.029999999 40 16 0
2.5179999 -0.41100001 0.028999999 32 16 0
2.5309999 -0.405 0.028000001 33 16 0
2.5450001 -0.39899999 0.027000001 32 16 0
2.559 -0.39300001 0.027000001 30 16 0
2.5710001 -0.38600001 0.026000001 31 16 0
2.589 -0.38 0.025 32 16 0
2.6029999 -0.37400001 0.024 32 16 0
2.6140001 -0.36700001 0.024 32 16 0
2.6340001 -0.361 0.023 31 16 0
2.642 -0.35299999 0.022 30 16 0
2.6619999 -0.34799999 0.021 28 16 0
2.674 -0.34 0.021 29 16 0
2.6919999 -0.33399999 0.02 29 16 0
2.7079999 -0.32699999 0.018999999 30 16 0
2.721 -0.31999999 0.017999999 29 16 0
2.7349999 -0.31299999 0.017999999 28 16 0
2.7390001 -0.30399999 0.017000001 28 16 0
2.766 -0.29800001 0.016000001 28 19 0
2.7709999 -0.28999999 0.016000001 26 16 0
2.793 -0.28299999 0.015 27 16 0
2.812 -0.27599999 0.014 28 16 0
2.823 -0.26800001 0.014 27 16 0
2.8440001 -0.25999999 0.013 27 16 0
2.862 -0.25299999 0.012 27 16 0
2.8770001 -0.245 0.012 27 16 0
2.8989999 -0.237 0.011 27 16 0
2.9130001 -0.229 0.011 28 16 0
2.9349999 -0.221 0.0099999998 26 16 0
2.9519999 -0.213 0.0089999996 27 16 0
2.9649999 -0.204 0.0089999996 26 16 0
2.987 -0.19599999 0.0080000004 26 16 0
3.006 -0.18799999 0.0080000004 26 16 0
3.0190001 -0.17900001 0.0070000002 24 16 0
3.0439999 -0.17 0.0070000002 26 16 0
3.0699999 -0.162 0.0060000001 26 16 0
3.092 -0.153 0.0060000001 26 16 0
3.1059999 -0.14399999 0.0049999999 26 16 0
3.131 -0.13500001 0.0049999999 28 16 0
3.1459999 -0.125 0.0040000002 27 16 0
3.1719999 -0.116 0.0040000002 28 16 0
3.1919999 -0.106 0.003 27 16 0
3.2119999 -0.096000001 0.003 27 16 0
3.2349999 -0.086999997 0.003 28 16 0
3.263 -0.077 0.0020000001 31 16 0
3.273 -0.067000002 0.0020000001 147 16 0
3.2650001 -0.056000002 0.001 121 16 0
3.2609999 -0.045000002 0.001 115 16 0
3.257 -0.034000002 0.001 105 16 0
3.2490001 -0.024 0 87 16 0
3.244 -0.013 0 23 16 0
3.2709999 -0.003 0 16 16 0
3.2920001 0.0070000002 0 17 16 0
3.3139999 0.017000001 0 20 16 0
3.3299999 0.028000001 0 45 16 0
3.316 0.039000001 0 53 16 0
3.3150001 0.050000001 -0.001 45 16 0
3.306 0.059999999 -0.001 44 16 0
3.3050001 0.071000002 -0.001 54 16 0
3.3 0.082000002 -0.001 50 16 0
3.293 0.092 -0.001 54 16 0
3.2880001 0.103 -0.001 54 16 0
3.2880001 0.113 -0.0020000001 53 16 0
3.2780001 0.124 -0.0020000001 53 16 0
3.2780001 0.134 -0.0020000001 54 16 0
3.267 0.14399999 -0.0020000001 53 16 0
3.2609999 0.155 -0.0020000001 58 16 0
3.257 0.16500001 -0.0020000001 54 16 0
3.2539999 0.175 -0.0020000001 65 16 0
3.247 0.186 -0.0020000001 57 16 0
3.2409999 0.19599999 -0.0020000001 61 16 0
3.2360001 0.206 -0.0020000001 69 16 0
3.2349999 0.21600001 -0.0020000001 68 16 0
3.23 0.227 -0.001 61 16 0
3.2279999 0.237 -0.001 63 16 0
3.217 0.24699999 -0.001 78 16 0
3.2160001 0.257 -0.001 77 16 0
3.2049999 0.26699999 -0.001 71 16 0
3.2 0.27599999 -0.001 75 16 0
3.1930001 0.28600001 0 78 16 0
3.191 0.296 0 72 16 0
3.1849999 0.30599999 0 72 16 0
3.1800001 0.31600001 0 70 16 0
3.1730001 0.32600001 0 70 16 0
3.1719999 0.336 0 71 16 0
3.1670001 0.34599999 0 67 16 0
3.1600001 0.35499999 0.001 71 16 0
3.155 0.36500001 0.001 73 16 0
3.148 0.375 0.001 81 16 0
3.1470001 0.38499999 0.0020000001 76 16 0
3.1429999 0.39399999 0.0020000001 59 16 0
3.135 0.403 0.003 65 16 0
3.1300001 0.41299999 0.003 70 16 0
3.1270001 0.42300001 0.003 62 16 0
3.122 0.43200001 0.0040000002 69 16 0
3.1170001 0.442 0.0040000002 73 16 0
3.109 0.45100001 0.0049999999 75 16 0
3.102 0.46000001 0.0049999999 82 16 0
3.1010001 0.47 0.0060000001 87 16 0
3.0940001 0.479 0.0070000002 82 16 0
3.092 0.48899999 0.0070000002 73 16 0
3.0869999 0.49900001 0.0080000004 88 16 0
3.086 0.50800002 0.0080000004 91 16 0
3.0810001 0.51800001 0.0089999996 89 16 0
3.072 0.52600002 0.0099999998 95 16 0
3.0699999 0.53600001 0.0099999998 100 16 0
3.062 0.54500002 0.011 93 16 0
3.0610001 0.55500001 0.012 95 16 0
3.053 0.56300002 0.013 98 16 0
3.0480001 0.57200003 0.013 107 16 0
3.046 0.58200002 0.014 103 16 0
3.0369999 0.58999997 0.015 102 16 0
3.0350001 0.60000002 0.016000001 101 16 0
3.029 0.60900003 0.017000001 103 16 0
3.023 0.61699998 0.017999999 87 16 0
3.0209999 0.62699997 0.017999999 103 16 0
3.02 0.63700002 0.018999999 109 16 0
3.013 0.64499998 0.02 118 16 0
3.007 0.65399998 0.021 128 16 0
3.0050001 0.66299999 0.022 113 16 0
3.003 0.67299998 0.023 119 16 0
3.0009999 0.68199998 0.024 116 16 0
2.993 0.69 0.025 117 16 0
2.99 0.69999999 0.026000001 116 16 0
2.98 0.70700002 0.027000001 116 16 0
2.9779999 0.71700001 0.028000001 94 16 0
2.9779999 0.727 0.028999999 118 16 0
2.971 0.73500001 0.030999999 102 16 0
2.9679999 0.74400002 0.032000002 112 16 0
2.961 0.75199997 0.033 122 16 0
2.957 0.76099998 0.034000002 112 16 0
2.9549999 0.76999998 0.035 101 16 0
2.954 0.77999997 0.037 132 16 0
2.95 0.78799999 0.037999999 104 16 0
2.9460001 0.79699999 0.039000001 104 16 0
2.941 0.80500001 0.039999999 110 16 0
2.9349999 0.81400001 0.041999999 105 16 0
2.9319999 0.82300001 0.043000001 127 16 0
2.9300001 0.83200002 0.044 108 16 0
2.927 0.84100002 0.046 109 16 0
2.9219999 0.84899998 0.046999998 110 16 0
2.915 0.85699999 0.048 121 16 0
2.9100001 0.86500001 0.050000001 110 16 0
2.9070001 0.87400001 0.050999999 112 16 0
2.9070001 0.88300002 0.052999999 124 16 0
2.902 0.89200002 0.054000001 108 16 0
2.8959999 0.89999998 0.056000002 119 16 0
2.8940001 0.90799999 0.057999998 125 16 0
2.8870001 0.91600001 0.059 140 16 0
2.882 0.92400002 0.061000001 135 16 0
2.885 0.935 0.061999999 142 16 0
2.8740001 0.94099998 0.064000003 138 16 0
2.8759999 0.95099998 0.066 135 16 0
2.8729999 0.95899999 0.067000002 125 16 0
2.865 0.96600002 0.068999998 62 16 0
2.875 0.97899997 0.071000002 27 16 0
2.8640001 0.98500001 0.072999999 96 16 0
2.8559999 0.99199998 0.074000001 121 16 0
2.8529999 1 0.075999998 129 16 0
2.8469999 1.008 0.078000002 130 16 0
2.8410001 1.015 0.079999998 135 16 0
2.8399999 1.024 0.082000002 121 16 0
2.8410001 1.034 0.083999999 132 16 0
2.835 1.041 0.086000003 132 16 0
2.835 1.05 0.088 133 16 0
2.826 1.057 0.090000004 131 16 0
2.823 1.0650001 0.092 130 16 0
2.8199999 1.073 0.093999997 128 16 0
2.816 1.081 0.096000001 138 16 0
2.813 1.089 0.097999997 124 16 0
2.8099999 1.097 0.1 136 16 0
2.8069999 1.105 0.102 127 16 0
2.803 1.113 0.104 127 16 0
2.799 1.1210001 0.107 134 16 0
2.802 1.131 0.109 131 16 0
2.793 1.137 0.111 121 16 0
2.79 1.145 0.113 134 16 0
2.786 1.152 0.116 138 16 0
2.7809999 1.159 0.118 129 16 0
2.78 1.168 0.121 131 16 0
2.776 1.176 0.123 134 16 0
2.7709999 1.183 0.125 119 16 0
2.77 1.191 0.12800001 126 16 0
2.767 1.199 0.13 132 16 0
2.763 1.206 0.133 119 16 0
2.7590001 1.214 0.13500001 115 16 0
2.7620001 1.224 0.138 125 16 0
2.753 1.229 0.14 123 16 0
2.7550001 1.239 0.14300001 122 16 0
2.7520001 1.2460001 0.146 132 16 0
2.7449999 1.252 0.148 133 16 0
2.744 1.26 0.15099999 127 16 0
2.7379999 1.266 0.154 150 16 0
2.734 1.273 0.156 150 16 0
2.7360001 1.283 0.16 150 16 0
2.734 1.29 0.162 150 16 0
2.7320001 1.298 0.16500001 148 16 0
2.733 1.307 0.168 150 16 0
2.7309999 1.3150001 0.171 150 16 0
2.721 1.319 0.17399999 145 16 0
2.7190001 1.326 0.177 137 16 0
2.7190001 1.335 0.18000001 150 16 0
2.7149999 1.342 0.183 143 16 0
2.7079999 1.347 0.186 146 16 0
2.7179999 1.36 0.189 150 16 0
2.7060001 1.362 0.192 136 16 0
2.704 1.369 0.19499999 130 16 0
2.7049999 1.378 0.198 123 16 0
2.701 1.3839999 0.20200001 130 16 0
2.698 1.391 0.205 136 16 0
2.697 1.399 0.208 146 16 0
2.6960001 1.406 0.211 135 16 0
2.697 1.415 0.215 136 16 0
2.6919999 1.42 0.21799999 143 16 0
2.6860001 1.425 0.221 136 16 0
2.687 1.433 0.22499999 145 16 0
2.6830001 1.439 0.228 130 16 0
2.684 1.448 0.23199999 138 16 0
2.6819999 1.454 0.235 150 16 0
2.6730001 1.457 0.23800001 147 16 0
2.675 1.465 0.242 150 16 0
2.675 1.473 0.24600001 138 16 0
2.6730001 1.48 0.249 116 16 0
2.6689999 1.485 0.25299999 58 16 0
2.664 1.49 0.25600001 37 16 0
2.6589999 1.494 0.25999999 30 16 0
2.6489999 1.4960001 0.26199999 27 16 0
2.642 1.499 0.266 26 16 0
2.6240001 1.4960001 0.26800001 26 16 0
2.6159999 1.498 0.271 36 16 0
2.6129999 1.5039999 0.27399999 77 16 0
2.608 1.508 0.278 128 16 0
2.5999999 1.5089999 0.28099999 95 16 0
2.602 1.517 0.285 77 16 0
2.6029999 1.525 0.289 94 16 0
2.595 1.527 0.292 100 16 0
2.5929999 1.5319999 0.296 98 16 0
2.5940001 1.539 0.30000001 99 16 0
2.5929999 1.544 0.30399999 102 16 0
2.5899999 1.549 0.308 106 16 0
2.5899999 1.5549999 0.31200001 106 16 0
2.5899999 1.561 0.31600001 104 16 0
2.5869999 1.5650001 0.31999999 100 16 0
2.586 1.571 0.324 104 16 0
2.586 1.577 0.32800001 102 16 0
2.5880001 1.584 0.33199999 108 16 0
2.592 1.592 0.33700001 119 16 0
2.599 1.602 0.34200001 113 16 0
2.622 1.6210001 0.34900001 122 16 0
2.6340001 1.6339999 0.35499999 106 16 0
2.6359999 1.641 0.36000001 88 16 0
2.638 1.647 0.36399999 77 16 0
2.638 1.653 0.36899999 45 16 0
2.6270001 1.651 0.37200001 36 16 0
2.6199999 1.652 0.375 31 16 0
2.6140001 1.653 0.37799999 30 16 0
2.6040001 1.651 0.38100001 30 16 0
2.598 1.652 0.38499999 30 16 0
2.592 1.653 0.38800001 29 16 0
2.5769999 1.648 0.38999999 28 16 0
2.569 1.647 0.39300001 28 16 0
2.5639999 1.648 0.39700001 33 16 0
2.556 1.647 0.40000001 39 16 0
2.5450001 1.6440001 0.403 50 16 0
2.5480001 1.649 0.40700001 122 16 0
2.5439999 1.651 0.41100001 150 16 0
2.5469999 1.656 0.41600001 150 16 0
2.546 1.659 0.41999999 150 16 0
2.5439999 1.661 0.42399999 143 16 0
2.543 1.664 0.428 150 16 0
2.546 1.669 0.433 150 16 0
2.5450001 1.671 0.43700001 149 16 0
2.5450001 1.674 0.44100001 145 16 0
2.5469999 1.678 0.44600001 141 16 0
2.543 1.678 0.449 144 16 0
2.5480001 1.684 0.454 141 16 0
2.5480001 1.686 0.458 149 16 0
2.5450001 1.687 0.46200001 135 16 0
2.5510001 1.693 0.46799999 132 16 0
2.55 1.694 0.47099999 141 16 0
2.549 1.696 0.47499999 150 16 0
2.549 1.698 0.47999999 122 16 0
2.5510001 1.7 0.484 125 16 0
2.552 1.702 0.48800001 120 16 0
2.553 1.705 0.493 133 16 0
2.553 1.706 0.49700001 146 16 0
2.556 1.709 0.50099999 129 16 0
2.559 1.712 0.50599998 149 16 0
2.5610001 1.714 0.50999999 150 16 0
2.5599999 1.714 0.514 150 16 0
2.5639999 1.717 0.51899999 146 16 0
2.5599999 1.715 0.52200001 135 16 0
2.5639999 1.7180001 0.52600002 142 16 0
2.5680001 1.721 0.53100002 136 16 0
2.569 1.722 0.53500003 122 16 0
2.5680001 1.721 0.53899997 127 16 0
2.5680001 1.721 0.542 138 16 0
2.5680001 1.721 0.546 133 16 0
2.572 1.723 0.551 122 16 0
2.575 1.724 0.55500001 133 16 0
2.575 1.723 0.55800003 130 16 0
2.575 1.722 0.56199998 119 16 0
2.576 1.722 0.56599998 137 16 0
2.5840001 1.726 0.57099998 135 16 0
2.5840001 1.725 0.574 128 16 0
2.585 1.724 0.57800001 129 16 0
2.5869999 1.724 0.58200002 137 16 0
2.5880001 1.723 0.58499998 146 16 0
2.589 1.722 0.58899999 136 16 0
2.5910001 1.721 0.59200001 139 16 0
2.5940001 1.721 0.59600002 125 16 0
2.598 1.721 0.60000002 129 16 0
2.598 1.719 0.60299999 115 16 0
2.6059999 1.722 0.60799998 133 16 0
2.602 1.716 0.61000001 141 16 0
2.6059999 1.716 0.61400002 150 16 0
2.609 1.715 0.61699998 149 16 0
2.6070001 1.711 0.62 141 16 0
2.6129999 1.711 0.62400001 150 16 0
2.612 1.7079999 0.62599999 150 16 0
2.615 1.706 0.63 150 16 0
2.6199999 1.705 0.63300002 150 16 0
2.6210001 1.7029999 0.63599998 150 16 0
2.622 1.7 0.639 150 16 0
2.6270001 1.699 0.64200002 150 16 0
2.625 1.693 0.64399999 150 16 0
2.6259999 1.6900001 0.64600003 126 16 0
2.6240001 1.6849999 0.648 57 16 0
2.619 1.676 0.64899999 44 16 0
2.6199999 1.673 0.65100002 40 16 0
2.618 1.6670001 0.653 39 16 0
2.612 1.658 0.653 37 16 0
2.6110001 1.653 0.65499997 33 16 0
2.6070001 1.645 0.65600002 33 16 0
2.6029999 1.638 0.65600002 34 16 0
2.599 1.63 0.65700001 33 16 0
2.6010001 1.626 0.65899998 32 16 0
2.599 1.62 0.66000003 33 16 0
2.5999999 1.615 0.662 35 16 0
2.5969999 1.608 0.662 35 16 0
2.592 1.599 0.662 33 16 0
2.5929999 1.594 0.66399997 33 16 0
2.592 1.587 0.66500002 34 16 0
2.586 1.5779999 0.66399997 33 16 0
2.5869999 1.572 0.66500002 32 16 0
2.586 1.566 0.66600001 33 16 0
2.5880001 1.561 0.66799998 32 16 0
2.5899999 1.556 0.66900003 35 16 0
2.5869999 1.548 0.66900003 37 16 0
2.586 1.541 0.66900003 34 16 0
2.5829999 1.533 0.66900003 34 16 0
2.585 1.527 0.67000002 36 16 0
2.582 1.5190001 0.67000002 35 16 0
2.582 1.512 0.67000002 36 16 0
2.582 1.506 0.671 36 16 0
2.5769999 1.4960001 0.67000002 37 16 0
2.5769999 1.49 0.67000002 36 16 0
2.5780001 1.483 0.67000002 37 16 0
2.5769999 1.475 0.67000002 35 16 0
2.5810001 1.471 0.671 36 16 0
2.582 1.464 0.671 37 16 0
2.5829999 1.4579999 0.67199999 37 16 0
2.579 1.448 0.67000002 39 16 0
2.582 1.443 0.671 37 16 0
2.5799999 1.434 0.67000002 37 16 0
2.5810001 1.427 0.67000002 38 16 0
2.579 1.419 0.66900003 40 16 0
2.5769999 1.41 0.66799998 38 16 0
2.5799999 1.404 0.66799998 38 16 0
2.5799999 1.397 0.66799998 40 16 0
2.582 1.39 0.66799998 39 16 0
2.586 1.385 0.66799998 41 16 0
2.589 1.3789999 0.66799998 42 16 0
2.5869999 1.37 0.667 39 16 0
2.5899999 1.364 0.667 40 16 0
2.592 1.357 0.66600001 39 16 0
2.5910001 1.349 0.66500002 39 16 0
2.595 1.3430001 0.66500002 39 16 0
2.598 1.337 0.66399997 40 16 0
2.596 1.3279999 0.66299999 38 16 0
2.602 1.323 0.66299999 40 16 0
2.6029999 1.3150001 0.662 42 16 0
2.6059999 1.309 0.66100001 38 16 0
2.608 1.302 0.66100001 39 16 0
2.6099999 1.295 0.66000003 40 16 0
2.615 1.289 0.65899998 40 16 0
2.6140001 1.28 0.65799999 39 16 0
2.619 1.275 0.65700001 43 16 0
2.6170001 1.265 0.65499997 40 16 0
2.6240001 1.261 0.65499997 40 16 0
2.628 1.2539999 0.65399998 41 16 0
2.625 1.244 0.65200001 42 16 0
2.631 1.239 0.65100002 40 16 0
2.6370001 1.233 0.65100002 41 16 0
2.635 1.224 0.64899999 43 16 0
2.6389999 1.217 0.64700001 41 16 0
2.642 1.21 0.64600003 42 16 0
2.6459999 1.204 0.64499998 42 16 0
2.652 1.198 0.64399999 44 16 0
2.655 1.191 0.64300001 47 16 0
2.6559999 1.183 0.64099997 43 16 0
2.6589999 1.176 0.639 42 16 0
2.6659999 1.17 0.639 43 16 0
2.6659999 1.1619999 0.63599998 43 16 0
2.6719999 1.156 0.63499999 40 16 0
2.6760001 1.149 0.634 43 16 0
2.677 1.141 0.63099998 42 16 0
2.6800001 1.133 0.63 41 16 0
2.6849999 1.127 0.62800002 47 16 0
2.6930001 1.122 0.62699997 41 16 0
2.6989999 1.115 0.62599999 43 16 0
2.698 1.1059999 0.62300003 41 16 0
2.7060001 1.101 0.62199998 41 16 0
2.71 1.094 0.62 41 16 0
2.7130001 1.086 0.61799997 41 16 0
2.717 1.079 0.616 40 16 0
2.7260001 1.074 0.61500001 40 16 0
2.724 1.064 0.611 45 16 0
2.7320001 1.059 0.61000001 43 16 0
2.7379999 1.052 0.60799998 42 16 0
2.7409999 1.045 0.60600001 44 16 0
2.744 1.0369999 0.60299999 38 16 0
2.7479999 1.03 0.60100001 38 16 0
2.7539999 1.023 0.59899998 40 16 0
2.757 1.016 0.59600002 37 16 0
2.763 1.0089999 0.59399998 38 16 0
2.7739999 1.0039999 0.59299999 38 16 0
2.7709999 0.99400002 0.58899999 37 16 0
2.786 0.991 0.58899999 37 16 0
2.7909999 0.98400003 0.58700001 39 16 0
2.7920001 0.97500002 0.583 37 16 0
2.8069999 0.972 0.583 38 16 0
2.8069999 0.963 0.579 38 16 0
2.8150001 0.95700002 0.57700002 38 16 0
2.8210001 0.94999999 0.57499999 38 16 0
2.8269999 0.94300002 0.57200003 39 16 0
2.8299999 0.935 0.56900001 37 16 0
2.8380001 0.92900002 0.56699997 39 16 0
2.842 0.921 0.56400001 37 16 0
2.848 0.91399997 0.56099999 38 16 0
2.8599999 0.90899998 0.55900002 38 16 0
2.8640001 0.90200001 0.55599999 39 16 0
2.8670001 0.89399999 0.55299997 38 16 0
2.8770001 0.88800001 0.551 38 16 0
2.8840001 0.88099998 0.54799998 39 16 0
2.8900001 0.87400001 0.54500002 36 16 0
2.8989999 0.86799997 0.54299998 38 16 0
2.905 0.86000001 0.54000002 39 16 0
2.908 0.852 0.53600001 39 16 0
2.9170001 0.84600002 0.53299999 36 16 0
2.927 0.83999997 0.53100002 38 16 0
2.9319999 0.83200002 0.528 38 16 0
2.938 0.82499999 0.52399999 37 16 0
2.951 0.81999999 0.52200001 39 16 0
2.9530001 0.81099999 0.51800001 36 16 0
2.9590001 0.80400002 0.51499999 37 16 0
2.9690001 0.79799998 0.51200002 37 16 0
2.9749999 0.79000002 0.509 37 16 0
2.984 0.78399998 0.50599998 38 16 0
2.993 0.77700001 0.50199997 36 16 0
3.0009999 0.76999998 0.49900001 36 16 0
3.01 0.76300001 0.49599999 38 16 0
3.0179999 0.75599998 0.493 39 16 0
3.0220001 0.74800003 0.48899999 38 16 0
3.0320001 0.74199998 0.486 40 16 0
3.04 0.73400003 0.48199999 44 16 0
3.05 0.72799999 0.479 52 16 0
3.053 0.72000003 0.47400001 89 16 0
3.062 0.713 0.47099999 150 16 0
3.0610001 0.70300001 0.46599999 150 16 0
3.0669999 0.69499999 0.46200001 150 16 0
3.073 0.68800002 0.458 150 16 0
3.0739999 0.67900002 0.45300001 150 16 0
3.0769999 0.671 0.449 150 16 0
3.0840001 0.66299999 0.44400001 150 16 0
3.0780001 0.653 0.43900001 150 16 0
3.0840001 0.64499998 0.43399999 150 16 0
3.0869999 0.63700002 0.43000001 150 16 0
3.0899999 0.62800002 0.42500001 150 16 0
3.092 0.62 0.41999999 150 16 0
3.0940001 0.611 0.41499999 150 16 0
3.096 0.60299999 0.41 145 16 0
3.099 0.59500003 0.40599999 150 16 0
3.1010001 0.58600003 0.40099999 150 16 0
3.1029999 0.57700002 0.396 150 16 0
3.1059999 0.56900001 0.391 150 16 0
3.1099999 0.56099999 0.38600001 150 16 0
3.1099999 0.55199999 0.38100001 147 16 0
3.1140001 0.54400003 0.37599999 150 16 0
3.118 0.53600001 0.37099999 150 16 0
3.1159999 0.52600002 0.36500001 150 16 0
3.118 0.51800001 0.36000001 150 16 0
3.122 0.50999999 0.35499999 150 16 0
3.1210001 0.50099999 0.34999999 146 16 0
3.1240001 0.493 0.345 150 16 0
3.1289999 0.484 0.34 150 16 0
3.128 0.47600001 0.33399999 150 16 0
3.135 0.46799999 0.329 150 16 0
3.1329999 0.45899999 0.324 150 16 0
3.1359999 0.45100001 0.31799999 150 16 0
3.1400001 0.442 0.31299999 150 16 0
3.1389999 0.43399999 0.308 150 16 0
3.1400001 0.42500001 0.30199999 143 16 0
3.148 0.417 0.29699999 150 16 0
3.1500001 0.40900001 0.292 150 16 0
3.151 0.40000001 0.28600001 150 16 0
3.1530001 0.39199999 0.28099999 150 16 0
3.1530001 0.38299999 0.27500001 150 16 0
3.151 0.37400001 0.26899999 135 16 0
3.1570001 0.36700001 0.264 142 16 0
3.1589999 0.35800001 0.259 147 16 0
3.1570001 0.34900001 0.25299999 150 16 0
3.1619999 0.34099999 0.24699999 127 16 0
3.164 0.333 0.242 128 16 0
3.165 0.324 0.236 127 16 0
3.1659999 0.31600001 0.23 128 16 0
3.168 0.30700001 0.22499999 133 16 0
3.1689999 0.29899999 0.219 136 16 0
3.1700001 0.29100001 0.213 122 16 0
3.171 0.28200001 0.207 128 16 0
3.1719999 0.27399999 0.20100001 125 16 0
3.1800001 0.266 0.19599999 127 16 0
3.1760001 0.257 0.19 124 16 0
3.1800001 0.249 0.184 112 16 0
3.1800001 0.23999999 0.178 83 16 0
3.148 0.23 0.171 27 19 0
3.175 0.223 0.16599999 51 16 0
3.1800001 0.215 0.16 43 16 0
3.1630001 0.206 0.154 22 16 0
3.171 0.198 0.148 21 16 0
3.214 0.192 0.14399999 30 18 0
3.2190001 0.184 0.138 31 16 0
3.237 0.176 0.133 30 16 0
3.2550001 0.169 0.127 30 16 0
3.2690001 0.161 0.121 30 16 0
3.28 0.153 0.116 30 16 0
3.2939999 0.145 0.11 33 16 0
3.3080001 0.13699999 0.104 41 16 0
3.309 0.12800001 0.097000003 55 16 0
3.316 0.12 0.090999998 75 16 0
3.319 0.111 0.085000001 68 16 0
3.3169999 0.103 0.078000002 55 16 0
3.323 0.093999997 0.071999997 40 16 0
3.3180001 0.085000001 0.066 6 16 0
3.3299999 0.077 0.059 1 16 0
3.3199999 0.068000004 0.052999999 5 16 0
3.335 0.059999999 0.046 18 16 0
3.3310001 0.050999999 0.039999999 41 16 0
3.3280001 0.043000001 0.033 58 16 0
3.336 0.034000002 0.027000001 67 16 0
3.336 0.026000001 0.02 38 16 0
3.3180001 0.017000001 0.013 21 16 0
3.299 0.0089999996 0.0070000002 18 16 0
3.277 0 0 17 16 0
3.2579999 -0.0070000002 -0.0049999999 17 16 0
3.24 -0.015 -0.012 29 16 0
3.237 -0.024 -0.017999999 108 16 0
3.24 -0.032000002 -0.025 131 16 0
3.243 -0.039999999 -0.030999999 128 16 0
3.2420001 -0.048 -0.037999999 114 16 0
3.2460001 -0.056000002 -0.045000002 142 16 0
3.2449999 -0.064999998 -0.050999999 150 16 0
3.24 -0.072999999 -0.057999998 43 16 0
3.2179999 -0.079999998 -0.064000003 25 16 0
3.201 -0.088 -0.07 26 16 0
3.1819999 -0.096000001 -0.075999998 26 16 0
3.155 -0.103 -0.082000002 25 16 0
3.1429999 -0.11 -0.088 26 16 0
3.1229999 -0.117 -0.093999997 25 16 0
3.095 -0.124 -0.098999999 24 16 0
3.0880001 -0.131 -0.106 24 16 0
3.0680001 -0.138 -0.111 24 16 0
3.046 -0.145 -0.117 25 16 0
3.0309999 -0.15099999 -0.123 25 16 0
3.006 -0.15800001 -0.12800001 24 16 0
2.9979999 -0.16500001 -0.134 24 16 0
2.9760001 -0.171 -0.139 25 16 0
2.961 -0.177 -0.145 24 16 0
2.944 -0.184 -0.15000001 24 16 0
2.9289999 -0.19 -0.155 26 16 0
2.9070001 -0.19599999 -0.16 25 16 0
2.8940001 -0.20200001 -0.16599999 26 16 0
2.8800001 -0.208 -0.171 25 16 0
2.859 -0.214 -0.176 25 16 0
2.845 -0.219 -0.18099999 26 16 0
2.8380001 -0.226 -0.18700001 25 16 0
2.8099999 -0.23 -0.191 25 19 0
2.803 -0.237 -0.197 25 16 0
2.789 -0.242 -0.20200001 26 16 0
2.776 -0.248 -0.207 26 16 0
2.7620001 -0.25400001 -0.212 27 16 0
2.7509999 -0.259 -0.21699999 27 16 0
2.7309999 -0.264 -0.221 25 16 0
2.7219999 -0.27000001 -0.226 26 16 0
2.711 -0.27500001 -0.23199999 26 16 0
2.6960001 -0.28 -0.236 28 16 0
2.684 -0.285 -0.241 27 16 0
2.6689999 -0.28999999 -0.24600001 26 16 0
2.654 -0.29499999 -0.25 28 16 0
2.642 -0.30000001 -0.255 27 16 0
2.631 -0.30500001 -0.25999999 28 16 0
2.6199999 -0.31 -0.264 28 16 0
2.6029999 -0.31400001 -0.26899999 28 16 0
2.5940001 -0.31999999 -0.273 27 16 0
2.579 -0.324 -0.278 27 16 0
2.5680001 -0.329 -0.28200001 27 16 0
2.563 -0.33399999 -0.28799999 28 16 0
2.5380001 -0.33700001 -0.28999999 26 16 0
2.5350001 -0.34299999 -0.296 28 16 0
2.526 -0.347 -0.301 29 16 0
2.5090001 -0.35100001 -0.30399999 27 16 0
2.4979999 -0.35499999 -0.30899999 29 16 0
2.494 -0.361 -0.31400001 29 16 0
2.474 -0.36399999 -0.317 28 16 0
2.464 -0.368 -0.322 28 16 0
2.454 -0.37200001 -0.32600001 28 16 0
2.447 -0.377 -0.331 29 16 0
2.438 -0.38100001 -0.33500001 27 16 0
2.425 -0.38499999 -0.33899999 36 16 0
2.411 -0.38800001 -0.34299999 41 16 0
2.4000001 -0.39199999 -0.347 37 16 0
2.391 -0.396 -0.35100001 37 16 0
2.3840001 -0.40099999 -0.35600001 35 16 0
2.375 -0.405 -0.36000001 33 16 0
2.362 -0.40799999 -0.36399999 41 16 0
2.348 -0.41100001 -0.36700001 31 16 0
2.3399999 -0.41499999 -0.37200001 32 16 0
2.3299999 -0.419 -0.37599999 38 16 0
2.3150001 -0.421 -0.37900001 35 16 0
2.3110001 -0.426 -0.384 35 16 0
2.306 -0.43000001 -0.38800001 40 16 0
2.289 -0.433 -0.391 35 16 0
2.2820001 -0.43599999 -0.396 39 16 0
2.273 -0.44 -0.40000001 41 16 0
2.2620001 -0.44299999 -0.403 43 16 0
2.2550001 -0.447 -0.40700001 48 16 0
2.2460001 -0.44999999 -0.41100001 44 16 0
2.237 -0.45300001 -0.41499999 39 16 0
2.2279999 -0.456 -0.419 41 16 0
2.2160001 -0.45899999 -0.42199999 40 16 0
2.211 -0.463 -0.42699999 47 16 0
2.204 -0.46599999 -0.43099999 45 16 0
2.1900001 -0.46900001 -0.43399999 46 16 0
2.1830001 -0.472 -0.43799999 47 16 0
2.175 -0.47499999 -0.442 41 16 0
2.168 -0.47799999 -0.44600001 49 16 0
2.161 -0.48199999 -0.44999999 52 16 0
2.1489999 -0.484 -0.45300001 52 16 0
2.1470001 -0.48800001 -0.458 57 16 0
2.131 -0.48899999 -0.46000001 56 16 0
2.1240001 -0.49200001 -0.46399999 67 16 0
2.1110001 -0.49399999 -0.46700001 71 16 0
2.1059999 -0.49700001 -0.47099999 63 16 0
2.0999999 -0.5 -0.47499999 59 16 0
2.089 -0.50199997 -0.47799999 63 16 0
2.085 -0.50599998 -0.48300001 63 16 0
2.076 -0.50800002 -0.486 71 16 0
2.0680001 -0.51099998 -0.48899999 70 16 0
2.0580001 -0.51300001 -0.49200001 71 16 0
2.053 -0.51599997 -0.49700001 74 16 0
2.0480001 -0.51899999 -0.50099999 76 16 0
2.04 -0.52100003 -0.505 73 16 0
2.0350001 -0.52399999 -0.509 75 16 0
2.0239999 -0.52600002 -0.51099998 80 16 0
2.017 -0.528 -0.51499999 79 16 0
2.0079999 -0.52999997 -0.51800001 82 16 0
2.003 -0.53299999 -0.52200001 75 16 0
2.0009999 -0.53600001 -0.52700001 84 16 0
1.992 -0.53799999 -0.52999997 77 16 0
1.982 -0.54000002 -0.53299999 78 16 0
1.978 -0.54299998 -0.537 77 16 0
1.973 -0.54500002 -0.54100001 89 16 0
1.9630001 -0.54699999 -0.54400003 78 16 0
1.956 -0.54900002 -0.54699999 76 16 0
1.949 -0.55000001 -0.55000001 87 16 0
1.946 -0.55400002 -0.55500001 81 16 0
1.938 -0.55500001 -0.55800003 84 16 0
1.933 -0.55800003 -0.56199998 84 16 0
1.929 -0.56 -0.56599998 90 16 0
1.921 -0.56199998 -0.56900001 96 16 0
1.915 -0.56400001 -0.57300001 85 16 0
1.906 -0.565 -0.57499999 83 16 0
1.903 -0.56800002 -0.57999998 84 16 0
1.898 -0.56999999 -0.58399999 87 16 0
1.893 -0.57200003 -0.58700001 93 16 0
1.887 -0.574 -0.59100002 83 16 0
1.882 -0.57599998 -0.59500003 90 16 0
1.868 -0.57499999 -0.59500003 92 16 0
1.859 -0.57599998 -0.59799999 88 16 0
1.8609999 -0.57999998 -0.60299999 95 16 0
1.852 -0.58099997 -0.60600001 134 16 0
1.85 -0.583 -0.61000001 129 16 0
1.846 -0.58600003 -0.61500001 127 16 0
1.841 -0.58700001 -0.61799997 141 16 0
1.837 -0.58899999 -0.62199998 130 16 0
1.831 -0.59100002 -0.625 150 16 0
1.827 -0.59200001 -0.62900001 150 16 0
1.819 -0.59299999 -0.63200003 150 16 0
1.8200001 -0.59600002 -0.63700002 150 16 0
1.814 -0.59799999 -0.63999999 150 16 0
1.8099999 -0.59899998 -0.64399999 150 16 0
1.8049999 -0.60100001 -0.64700001 150 16 0
1.7970001 -0.60100001 -0.64999998 150 16 0
1.7920001 -0.60299999 -0.653 150 16 0
1.79 -0.60500002 -0.65700001 150 16 0
1.785 -0.60600001 -0.66100001 150 16 0
1.778 -0.60699999 -0.66299999 150 16 0
1.775 -0.60799998 -0.667 150 16 0
1.77 -0.60900003 -0.671 150 16 0
1.763 -0.61000001 -0.67299998 150 16 0
1.761 -0.61199999 -0.67699999 150 16 0
1.757 -0.61299998 -0.68099999 150 16 0
1.752 -0.61400002 -0.68400002 150 16 0
1.752 -0.61699998 -0.68900001 150 16 0
1.745 -0.61699998 -0.69199997 150 16 0
1.743 -0.61900002 -0.69599998 150 16 0
1.74 -0.62 -0.69999999 150 16 0
1.738 -0.62199998 -0.704 150 16 0
1.724 -0.61900002 -0.70300001 150 16 0
1.722 -0.62099999 -0.70700002 150 16 0
1.72 -0.62199998 -0.71100003 150 16 0
1.716 -0.62400001 -0.71499997 150 16 0
1.714 -0.625 -0.71899998 150 16 0
1.7130001 -0.62699997 -0.72399998 150 16 0
1.7029999 -0.625 -0.72399998 150 16 0
1.702 -0.62699997 -0.72899997 150 16 0
1.698 -0.62800002 -0.73199999 150 16 0
1.696 -0.62900001 -0.736 150 16 0
1.6950001 -0.63099998 -0.74000001 150 16 0
1.6900001 -0.63099998 -0.74299997 150 16 0
1.686 -0.63099998 -0.74599999 150 16 0
1.686 -0.63300002 -0.75099999 150 16 0
1.682 -0.63300002 -0.75400001 150 16 0
1.678 -0.634 -0.75700003 150 16 0
1.676 -0.63499999 -0.76099998 150 16 0
1.671 -0.634 -0.76300001 150 16 0
1.669 -0.63499999 -0.76700002 150 16 0
1.665 -0.63499999 -0.76999998 150 16 0
1.663 -0.63599998 -0.773 150 16 0
1.663 -0.63800001 -0.778 150 16 0
1.661 -0.63800001 -0.78100002 150 16 0
1.658 -0.639 -0.78500003 150 16 0
1.653 -0.63800001 -0.787 150 16 0
1.652 -0.639 -0.79100001 150 16 0
1.652 -0.63999999 -0.79500002 150 16 0
1.65 -0.64099997 -0.79900002 150 16 0
1.648 -0.64099997 -0.80199999 150 16 0
1.645 -0.64099997 -0.80500001 2 0 0
1.643 -0.64099997 -0.80800003 2 0 0
1.64 -0.64099997 -0.81099999 150 16 0
1.6390001 -0.64200002 -0.815 2 0 0
1.635 -0.64099997 -0.81699997 2 0 0
1.635 -0.64200002 -0.82200003 2 0 0
1.633 -0.64200002 -0.82499999 2 0 0
1.632 -0.64200002 -0.82800001 2 0 0
1.63 -0.64200002 -0.83099997 2 0 0
1.628 -0.64200002 -0.83499998 2 0 0
1.625 -0.64200002 -0.83700001 3 0 0
1.623 -0.64099997 -0.83999997 2 0 0
1.624 -0.64200002 -0.84399998 59 0 0
1.622 -0.64200002 -0.847 57 0 0
1.62 -0.64200002 -0.85000002 3 0 0
1.617 -0.64099997 -0.852 62 0 0
1.617 -0.64099997 -0.85600001 2 0 0
1.617 -0.64099997 -0.86000001 2 0 0
1.615 -0.64099997 -0.86299998 60 0 0
1.614 -0.63999999 -0.866 56 0 0
1.615 -0.64099997 -0.87 150 16 0
1.6109999 -0.639 -0.87099999 54 0 0
1.613 -0.63999999 -0.875 150 16 0
1.617 -0.64200002 -0.88099998 53 0 0
1.61 -0.639 -0.88099998 150 16 0
1.612 -0.639 -0.88499999 150 16 0
1.6109999 -0.639 -0.88800001 150 16 0
1.61 -0.63800001 -0.88999999 150 16 0
1.613 -0.639 -0.89499998 108 0 0
1.608 -0.63599998 -0.89600003 150 16 0
1.608 -0.63599998 -0.89899999 150 16 0
1.61 -0.63599998 -0.903 150 16 0
1.6109999 -0.63599998 -0.90700001 150 16 0
1.609 -0.634 -0.90799999 150 16 0
1.608 -0.63300002 -0.91000003 150 16 0
1.608 -0.63300002 -0.91299999 150 16 0
1.613 -0.634 -0.91900003 150 16 0
1.612 -0.63300002 -0.921 150 16 0
1.614 -0.63300002 -0.92500001 150 16 0
1.613 -0.63099998 -0.92699999 150 16 0
1.6109999 -0.62900001 -0.92799997 150 16 0
1.612 -0.62800002 -0.93099999 150 16 0
1.6210001 -0.63099998 -0.93800002 150 18 0
1.62 -0.62900001 -0.94 150 16 0
1.62 -0.62800002 -0.94199997 150 16 0
1.619 -0.62699997 -0.94400001 150 16 0
1.623 -0.62699997 -0.94800001 150 16 0
1.622 -0.625 -0.94999999 150 16 0
1.624 -0.62400001 -0.95300001 150 16 0
1.623 -0.62199998 -0.954 150 16 0
1.623 -0.62099999 -0.95599997 150 16 0
1.628 -0.62099999 -0.95999998 150 16 0
1.627 -0.61900002 -0.96100003 150 16 0
1.63 -0.61799997 -0.96499997 150 16 0
1.63 -0.616 -0.96600002 150 16 0
1.6289999 -0.61400002 -0.96700001 150 16 0
1.637 -0.61500001 -0.97299999 150 18 0
1.636 -0.61299998 -0.97399998 150 16 0
1.6390001 -0.61199999 -0.977 150 16 0
1.6390001 -0.61000001 -0.97799999 150 16 0
1.645 -0.61000001 -0.98299998 150 16 0
1.646 -0.60900003 -0.98400003 150 16 0
1.646 -0.60699999 -0.98500001 150 16 0
1.651 -0.60600001 -0.98900002 150 16 0
1.652 -0.60399997 -0.991 150 16 0
1.654 -0.60299999 -0.99199998 150 16 0
1.656 -0.60100001 -0.99400002 150 16 0
1.66 -0.60000002 -0.99699998 150 16 0
1.664 -0.59899998 -1 150 16 0
1.664 -0.59600002 -1 150 16 0
1.666 -0.59399998 -1.001 150 16 0
1.6670001 -0.59200001 -1.002 150 16 0
1.6670001 -0.58899999 -1.002 150 16 0
1.671 -0.588 -1.005 150 16 0
1.671 -0.58600003 -1.005 150 16 0
1.676 -0.58499998 -1.008 150 16 0
1.689 -0.58600003 -1.015 150 16 0
1.692 -0.58499998 -1.017 150 16 0
1.696 -0.583 -1.0190001 150 16 0
1.7 -0.58099997 -1.021 150 16 0
1.702 -0.579 -1.022 150 16 0
1.7029999 -0.57700002 -1.022 150 16 0
1.707 -0.57499999 -1.023 150 16 0
1.7130001 -0.574 -1.026 150 16 0
1.714 -0.57099998 -1.026 150 16 0
1.717 -0.56900001 -1.027 150 16 0
1.724 -0.56800002 -1.029 150 16 0
1.726 -0.565 -1.029 150 16 0
1.73 -0.56300002 -1.031 150 16 0
1.733 -0.56099999 -1.031 150 16 0
1.739 -0.56 -1.034 150 16 0
1.738 -0.55599999 -1.0319999 150 16 0
1.748 -0.55599999 -1.036 150 19 0
1.749 -0.55299997 -1.035 150 16 0
1.756 -0.551 -1.038 150 16 0
1.761 -0.54900002 -1.039 150 16 0
1.765 -0.54699999 -1.039 150 16 0
1.768 -0.54500002 -1.039 148 16 0
1.772 -0.542 -1.039 150 16 0
1.78 -0.54100001 -1.0420001 144 16 0
1.7819999 -0.53799999 -1.041 146 16 0
1.789 -0.53600001 -1.043 150 16 0
1.7920001 -0.53399998 -1.0420001 150 16 0
1.793 -0.52999997 -1.041 147 16 0
1.804 -0.52999997 -1.044 150 16 0
1.806 -0.52700001 -1.043 148 16 0
1.818 -0.52700001 -1.0470001 150 19 0
1.822 -0.52399999 -1.0470001 144 16 0
1.8279999 -0.52200001 -1.0470001 150 16 0
1.831 -0.51899999 -1.046 150 16 0
1.835 -0.51599997 -1.046 150 16 0
1.839 -0.51300001 -1.045 150 16 0
1.844 -0.51099998 -1.045 150 16 0
1.849 -0.50800002 -1.044 150 16 0
1.857 -0.50700003 -1.046 148 16 0
1.863 -0.50400001 -1.046 138 16 0
1.868 -0.50199997 -1.046 145 16 0
1.876 -0.5 -1.046 143 16 0
1.88 -0.49700001 -1.045 140 16 0
1.886 -0.495 -1.045 150 16 0
1.891 -0.49200001 -1.044 141 16 0
1.896 -0.48899999 -1.043 146 16 0
1.903 -0.48699999 -1.043 141 16 0
1.905 -0.484 -1.041 144 16 0
1.9119999 -0.48100001 -1.04 146 16 0
1.9170001 -0.479 -1.039 145 16 0
1.932 -0.47799999 -1.043 150 19 0
1.937 -0.47499999 -1.0420001 149 16 0
1.943 -0.47299999 -1.041 150 16 0
1.952 -0.47099999 -1.0420001 142 16 0
1.955 -0.46700001 -1.039 146 16 0
1.961 -0.465 -1.038 136 16 0
1.971 -0.463 -1.038 125 16 0
1.972 -0.45899999 -1.034 124 16 0
1.983 -0.458 -1.036 129 16 0
1.988 -0.45500001 -1.034 133 16 0
1.99 -0.45100001 -1.03 124 16 0
2.0009999 -0.44999999 -1.031 125 16 0
2.0079999 -0.447 -1.03 121 16 0
2.013 -0.44400001 -1.028 128 16 0
2.016 -0.44100001 -1.024 115 16 0
2.026 -0.43900001 -1.024 132 16 0
2.03 -0.435 -1.021 114 16 0
2.0439999 -0.43399999 -1.023 136 16 0
2.0480001 -0.43099999 -1.02 120 16 0
2.053 -0.428 -1.018 121 16 0
2.056 -0.42399999 -1.0140001 126 16 0
2.0650001 -0.42199999 -1.013 119 16 0
2.073 -0.41999999 -1.011 115 16 0
2.0829999 -0.41800001 -1.011 117 16 0
2.0880001 -0.41499999 -1.008 118 16 0
2.098 -0.41299999 -1.007 121 16 0
2.1029999 -0.40900001 -1.0039999 129 16 0
2.1099999 -0.40700001 -1.002 119 16 0
2.119 -0.40400001 -1 125 16 0
2.122 -0.40099999 -0.99599999 115 16 0
2.128 -0.398 -0.99299997 118 16 0
2.1359999 -0.39500001 -0.991 87 16 0
2.142 -0.39199999 -0.98799998 92 16 0
2.151 -0.38999999 -0.986 96 16 0
2.1600001 -0.38699999 -0.98400003 88 16 0
2.165 -0.384 -0.98000002 82 16 0
2.178 -0.38299999 -0.98000002 85 16 0
2.184 -0.38 -0.977 101 16 0
2.1919999 -0.377 -0.97399998 95 16 0
2.1989999 -0.37400001 -0.97100002 104 16 0
2.207 -0.37099999 -0.96799999 101 16 0
2.2119999 -0.368 -0.96399999 84 16 0
2.221 -0.366 -0.96200001 99 16 0
2.2260001 -0.36300001 -0.95700002 90 16 0
2.237 -0.36000001 -0.95599997 87 16 0
2.24 -0.35699999 -0.95099998 90 16 0
2.2509999 -0.35499999 -0.949 95 16 0
2.2609999 -0.352 -0.94599998 94 16 0
2.2690001 -0.34999999 -0.94300002 93 16 0
2.277 -0.347 -0.94 85 16 0
2.2850001 -0.34400001 -0.93599999 91 16 0
2.29 -0.34099999 -0.93199998 80 16 0
2.2950001 -0.338 -0.92699999 75 16 0
2.3039999 -0.33500001 -0.92400002 84 16 0
2.313 -0.333 -0.92000002 80 16 0
2.3169999 -0.33000001 -0.91500002 77 16 0
2.3269999 -0.32699999 -0.912 79 16 0
2.335 -0.324 -0.90799999 85 16 0
2.346 -0.322 -0.90600002 79 16 0
2.349 -0.31900001 -0.89999998 73 16 0
2.358 -0.31600001 -0.89600003 73 16 0
2.3640001 -0.31299999 -0.89099997 70 16 0
2.372 -0.31 -0.88700002 76 16 0
2.3829999 -0.308 -0.884 69 16 0
2.391 -0.30500001 -0.88 70 16 0
2.395 -0.30199999 -0.87400001 77 16 0
2.405 -0.29899999 -0.87099999 72 16 0
2.411 -0.296 -0.86500001 75 16 0
2.418 -0.294 -0.861 62 16 0
2.427 -0.29100001 -0.85600001 73 16 0
2.441 -0.289 -0.85399997 65 16 0
2.4489999 -0.28600001 -0.84899998 64 16 0
2.454 -0.28299999 -0.84299999 68 16 0
2.46 -0.28 -0.838 70 16 0
2.4719999 -0.278 -0.83399999 69 16 0
2.4749999 -0.27399999 -0.82800001 74 16 0
2.483 -0.27200001 -0.82300001 65 16 0
2.4949999 -0.26899999 -0.81900001 61 16 0
2.503 -0.26699999 -0.81400001 70 16 0
2.5109999 -0.264 -0.80900002 63 16 0
2.517 -0.26100001 -0.80299997 59 16 0
2.527 -0.25799999 -0.79799998 62 16 0
2.529 -0.255 -0.79100001 59 16 0
2.5420001 -0.25299999 -0.787 62 16 0
2.552 -0.25 -0.78299999 66 16 0
2.5569999 -0.24699999 -0.77600002 59 16 0
2.5710001 -0.245 -0.77200001 54 16 0
2.576 -0.242 -0.76599997 53 16 0
2.5829999 -0.23899999 -0.75999999 46 16 0
2.5910001 -0.237 -0.755 57 16 0
2.602 -0.234 -0.75 61 16 0
2.608 -0.23100001 -0.74299997 57 16 0
2.622 -0.229 -0.73900002 50 16 0
2.6300001 -0.226 -0.73299998 49 16 0
2.6329999 -0.223 -0.72600001 52 16 0
2.642 -0.22 -0.72000003 47 16 0
2.6489999 -0.21799999 -0.71399999 37 16 0
2.6530001 -0.215 -0.70599997 37 16 0
2.6600001 -0.212 -0.69999999 38 16 0
2.6689999 -0.20900001 -0.69400001 37 16 0
2.6819999 -0.207 -0.68900001 36 16 0
2.688 -0.204 -0.68199998 36 16 0
2.698 -0.20200001 -0.676 30 16 0
2.7030001 -0.199 -0.66900003 30 16 0
2.7149999 -0.19599999 -0.66399997 31 16 0
2.7219999 -0.193 -0.65700001 31 16 0
2.73 -0.191 -0.64999998 30 16 0
2.737 -0.18799999 -0.64399999 30 16 0
2.7460001 -0.185 -0.63700002 30 16 0
2.7520001 -0.183 -0.63 29 16 0
2.7650001 -0.18000001 -0.62400001 31 16 0
2.7720001 -0.178 -0.61699998 29 16 0
2.783 -0.175 -0.611 29 16 0
2.79 -0.17200001 -0.60299999 29 16 0
2.802 -0.17 -0.597 30 16 0
2.806 -0.167 -0.58899999 29 16 0
2.816 -0.164 -0.583 29 16 0
2.823 -0.162 -0.57499999 29 16 0
2.8340001 -0.15899999 -0.56800002 28 16 0
2.8410001 -0.15700001 -0.56099999 29 16 0
2.8499999 -0.154 -0.55400002 30 16 0
2.858 -0.15099999 -0.546 30 16 0
2.869 -0.149 -0.54000002 30 16 0
2.8770001 -0.146 -0.53200001 30 16 0
