# .PCD v0.7 - Point Cloud Data file format
VERSION 0.7
FIELDS x y z intensity tag line
SIZE 4 4 4 4 1 1
TYPE F F F F U U
COUNT 1 1 1 1 1 1
WIDTH 1351
HEIGHT 1
VIEWPOINT 0 0 0 1 0 0 0
POINTS 1351
DATA ascii
2.687 0.97000003 -0.34 74 16 0
2.6800001 0.95899999 -0.33500001 150 16 0
2.681 0.95099998 -0.331 150 16 0
2.6900001 0.94599998 -0.32800001 150 16 0
2.694 0.93900001 -0.324 150 16 0
2.697 0.93199998 -0.31999999 150 16 0
2.7 0.92500001 -0.317 150 16 0
2.7090001 0.92000002 -0.31400001 150 16 0
2.7149999 0.91399997 -0.31 150 16 0
2.7179999 0.90600002 -0.30700001 150 16 0
2.723 0.89999998 -0.303 150 16 0
2.73 0.89399999 -0.30000001 150 16 0
2.7379999 0.88800001 -0.29699999 150 16 0
2.7409999 0.88 -0.29300001 150 16 0
2.7490001 0.87400001 -0.28999999 150 16 0
2.75 0.866 -0.28600001 150 16 0
2.7550001 0.85900003 -0.28299999 150 16 0
2.7579999 0.852 -0.27900001 150 16 0
2.7609999 0.84399998 -0.27599999 150 16 0
2.767 0.83700001 -0.27200001 150 16 0
2.777 0.83200002 -0.26899999 150 16 0
2.7809999 0.824 -0.266 150 16 0
2.783 0.81699997 -0.26199999 150 16 0
2.7909999 0.81 -0.259 150 16 0
2.79 0.801 -0.25600001 150 16 0
2.803 0.796 -0.25299999 150 16 0
2.806 0.78799999 -0.25 150 16 0
2.8139999 0.78200001 -0.24699999 150 16 0
2.8110001 0.77200001 -0.243 150 16 0
2.8239999 0.76700002 -0.23999999 150 16 0
2.8269999 0.759 -0.237 150 16 0
2.829 0.75099999 -0.233 150 16 0
2.8410001 0.745 -0.23 150 16 0
2.8440001 0.73699999 -0.227 150 16 0
2.8529999 0.73100001 -0.22400001 150 16 0
2.8510001 0.72100002 -0.221 150 16 0
2.859 0.71399999 -0.21799999 150 16 0
2.862 0.70599997 -0.214 150 16 0
2.8640001 0.69800001 -0.211 150 16 0
2.8710001 0.69099998 -0.208 150 16 0
2.8759999 0.68300003 -0.205 150 16 0
2.882 0.67500001 -0.20200001 150 16 0
2.892 0.66900003 -0.199 150 16 0
2.8989999 0.66100001 -0.19599999 150 16 0
2.9030001 0.653 -0.193 150 16 0
2.9130001 0.64600003 -0.19 150 16 0
2.9159999 0.63800001 -0.18700001 150 16 0
2.9230001 0.63 -0.184 150 16 0
2.925 0.62099999 -0.18099999 150 16 0
2.9319999 0.61400002 -0.178 150 16 0
2.938 0.60600001 -0.175 150 16 0
2.9419999 0.597 -0.17200001 150 16 0
2.9449999 0.58899999 -0.169 150 16 0
2.954 0.58099997 -0.16599999 150 16 0
2.9579999 0.57300001 -0.163 150 16 0
2.967 0.565 -0.16 132 16 0
2.97 0.55699998 -0.15700001 150 16 0
2.973 0.54799998 -0.154 139 16 0
2.9790001 0.54000002 -0.15099999 138 16 0
2.9879999 0.53200001 -0.149 146 16 0
2.993 0.52399999 -0.146 150 16 0
3 0.51499999 -0.14300001 135 16 0
3.006 0.50700003 -0.14 133 16 0
3.006 0.498 -0.13699999 121 16 0
3.0120001 0.48899999 -0.134 133 16 0
3.02 0.48100001 -0.131 123 16 0
3.03 0.47299999 -0.12899999 133 16 0
3.033 0.46399999 -0.126 138 16 0
3.043 0.456 -0.123 136 16 0
3.0439999 0.447 -0.12 134 16 0
3.0450001 0.43700001 -0.117 120 16 0
3.056 0.42899999 -0.115 143 16 0
3.059 0.41999999 -0.112 138 16 0
3.062 0.41100001 -0.109 125 16 0
3.0739999 0.403 -0.106 140 16 0
3.0799999 0.39399999 -0.104 131 16 0
3.0840001 0.38499999 -0.101 132 16 0
3.0940001 0.377 -0.097999997 128 16 0
3.099 0.368 -0.096000001 130 16 0
3.108 0.359 -0.093000002 128 16 0
3.115 0.34999999 -0.090000004 113 16 0
3.119 0.34099999 -0.088 110 16 0
3.1229999 0.331 -0.085000001 100 16 0
3.128 0.322 -0.082000002 99 16 0
3.1340001 0.31299999 -0.079000004 107 16 0
3.145 0.30399999 -0.077 106 16 0
3.151 0.29499999 -0.074000001 125 16 0
3.158 0.285 -0.071999997 123 16 0
3.1670001 0.27599999 -0.068999998 121 16 0
3.1700001 0.266 -0.066 109 16 0
3.1730001 0.257 -0.064000003 109 16 0
3.1819999 0.24699999 -0.061000001 99 16 0
3.194 0.23800001 -0.059 97 16 0
3.1949999 0.228 -0.056000002 103 16 0
3.2019999 0.219 -0.052999999 101 16 0
3.2130001 0.20999999 -0.050999999 104 16 0
3.22 0.2 -0.048 104 16 0
3.2279999 0.19 -0.046 108 16 0
3.2309999 0.18000001 -0.043000001 108 16 0
3.2360001 0.17 -0.041000001 85 16 0
3.2390001 0.16 -0.037999999 97 16 0
3.25 0.15099999 -0.035999998 104 16 0
3.2520001 0.141 -0.033 89 16 0
3.2639999 0.131 -0.030999999 90 16 0
3.267 0.121 -0.028000001 86 16 0
3.2739999 0.111 -0.026000001 91 16 0
3.283 0.101 -0.023 89 16 0
3.289 0.090999998 -0.021 81 16 0
3.2920001 0.079999998 -0.017999999 81 16 0
3.299 0.07 -0.016000001 77 16 0
3.306 0.059999999 -0.013 45 16 0
3.309 0.048999999 -0.011 60 16 0
3.313 0.039000001 -0.0089999996 79 16 0
3.3299999 0.028999999 -0.0060000001 47 16 0
3.3110001 0.017999999 -0.0040000002 21 16 0
3.2909999 0.0070000002 -0.001 19 16 0
3.2750001 -0.0020000001 0 18 16 0
3.2460001 -0.012 0.0020000001 28 16 0
3.2479999 -0.022 0.0049999999 144 16 0
3.2550001 -0.033 0.0070000002 150 16 0
3.2650001 -0.043000001 0.0089999996 150 16 0
3.266 -0.054000001 0.011 150 16 0
3.27 -0.064000003 0.014 150 16 0
3.2620001 -0.074000001 0.016000001 34 16 0
3.24 -0.083999999 0.017999999 31 16 0
3.22 -0.093999997 0.02 29 16 0
3.2019999 -0.103 0.022 30 16 0
3.1830001 -0.113 0.024 30 16 0
3.1619999 -0.122 0.026000001 28 16 0
3.1370001 -0.131 0.028000001 30 16 0
3.118 -0.14 0.028999999 28 16 0
3.1029999 -0.149 0.030999999 27 16 0
3.079 -0.15800001 0.033 28 16 0
3.0580001 -0.167 0.035 28 16 0
3.039 -0.175 0.035999998 29 16 0
3.023 -0.184 0.037999999 29 16 0
3.0009999 -0.192 0.039000001 28 16 0
2.983 -0.20100001 0.041000001 29 16 0
2.967 -0.20900001 0.043000001 28 16 0
2.948 -0.21699999 0.044 29 16 0
2.931 -0.22499999 0.046 29 16 0
2.9089999 -0.233 0.046999998 29 16 0
2.8940001 -0.241 0.048 32 16 0
2.881 -0.249 0.050000001 32 16 0
2.8610001 -0.25600001 0.050999999 32 16 0
2.8440001 -0.264 0.052000001 32 16 0
2.8299999 -0.27200001 0.054000001 34 16 0
2.8099999 -0.27900001 0.055 34 16 0
2.7980001 -0.287 0.056000002 34 16 0
2.7809999 -0.294 0.057 35 16 0
2.7639999 -0.301 0.057999998 34 16 0
2.7460001 -0.308 0.059 34 16 0
2.734 -0.315 0.059999999 34 16 0
2.7249999 -0.32300001 0.061999999 34 16 0
2.7079999 -0.33000001 0.063000001 36 16 0
2.694 -0.33700001 0.064000003 39 16 0
2.674 -0.34299999 0.064000003 32 16 0
2.661 -0.34999999 0.064999998 41 16 0
2.6470001 -0.35699999 0.066 39 16 0
2.6359999 -0.36399999 0.067000002 38 16 0
2.6229999 -0.37 0.068000004 37 16 0
2.6029999 -0.37599999 0.068999998 41 16 0
2.5910001 -0.38299999 0.07 39 16 0
2.5780001 -0.389 0.071000002 48 16 0
2.5669999 -0.396 0.071000002 51 16 0
2.5439999 -0.40099999 0.071999997 45 16 0
2.533 -0.40700001 0.072999999 48 16 0
2.5209999 -0.41299999 0.072999999 65 16 0
2.5079999 -0.419 0.074000001 59 16 0
2.493 -0.42500001 0.075000003 62 16 0
2.4820001 -0.43099999 0.075000003 65 16 0
2.4660001 -0.43599999 0.075999998 59 16 0
2.461 -0.44400001 0.077 70 16 0
2.444 -0.449 0.077 63 16 0
2.437 -0.45500001 0.078000002 65 16 0
2.418 -0.46000001 0.078000002 64 16 0
2.4089999 -0.46599999 0.079000004 71 16 0
2.3970001 -0.472 0.079000004 66 16 0
2.381 -0.47600001 0.079999998 54 16 0
2.372 -0.48199999 0.079999998 73 16 0
2.362 -0.48800001 0.081 56 16 0
2.3429999 -0.49200001 0.081 63 16 0
2.3329999 -0.49700001 0.081 81 16 0
2.323 -0.50300002 0.081 80 16 0
2.313 -0.509 0.082000002 71 16 0
2.299 -0.51300001 0.082000002 78 16 0
2.289 -0.51800001 0.082000002 80 16 0
2.2750001 -0.523 0.082999997 79 16 0
2.2650001 -0.528 0.082999997 80 16 0
2.2539999 -0.53299999 0.082999997 76 16 0
2.2390001 -0.537 0.082999997 76 16 0
2.233 -0.54299998 0.082999997 84 16 0
2.2219999 -0.54799998 0.083999999 89 16 0
2.211 -0.55199999 0.083999999 97 16 0
2.2 -0.55699998 0.083999999 98 16 0
2.1889999 -0.56099999 0.083999999 107 16 0
2.178 -0.56599998 0.083999999 103 16 0
2.1719999 -0.57099998 0.083999999 104 16 0
2.1589999 -0.57499999 0.083999999 114 16 0
2.1429999 -0.57800001 0.083999999 114 16 0
2.1340001 -0.583 0.083999999 104 16 0
2.128 -0.588 0.083999999 106 16 0
2.1140001 -0.59200001 0.083999999 112 16 0
2.1059999 -0.597 0.083999999 119 16 0
2.0969999 -0.60100001 0.083999999 116 16 0
2.0829999 -0.60399997 0.083999999 124 16 0
2.0780001 -0.61000001 0.083999999 130 16 0
2.0680001 -0.61400002 0.083999999 119 16 0
2.0610001 -0.61799997 0.083999999 131 16 0
2.046 -0.62099999 0.082999997 121 16 0
2.0339999 -0.62400001 0.082999997 136 16 0
2.03 -0.63 0.082999997 125 16 0
2.0209999 -0.634 0.082999997 145 16 0
2.013 -0.63800001 0.082999997 136 16 0
2 -0.64099997 0.082000002 150 16 0
1.992 -0.64499998 0.082000002 150 16 0
1.9809999 -0.648 0.082000002 150 16 0
1.978 -0.65399998 0.082000002 150 16 0
1.966 -0.65700001 0.081 150 16 0
1.957 -0.66000003 0.081 150 16 0
1.938 -0.66000003 0.079999998 150 19 0
1.933 -0.66500002 0.079999998 145 16 0
1.928 -0.67000002 0.079999998 150 16 0
1.921 -0.67400002 0.079000004 150 16 0
1.911 -0.67699999 0.079000004 150 16 0
1.9069999 -0.68199998 0.079000004 150 16 0
1.899 -0.68599999 0.078000002 150 16 0
1.89 -0.68900001 0.078000002 150 16 0
1.881 -0.69199997 0.077 150 16 0
1.872 -0.69499999 0.077 150 16 0
1.862 -0.69800001 0.075999998 150 16 0
1.858 -0.70300001 0.075999998 150 16 0
1.852 -0.70700002 0.075000003 3 0 0
1.84 -0.70899999 0.075000003 3 0 0
1.836 -0.713 0.074000001 4 0 0
1.834 -0.71899998 0.074000001 5 0 0
1.817 -0.71799999 0.072999999 3 0 0
1.811 -0.722 0.071999997 3 0 0
1.806 -0.72600001 0.071999997 6 0 0
1.796 -0.72799999 0.071000002 3 0 0
1.796 -0.73400003 0.071000002 3 0 0
1.788 -0.73699999 0.07 3 0 0
1.777 -0.73900002 0.068999998 75 0 0
1.77 -0.74199998 0.068000004 5 0 0
1.762 -0.745 0.068000004 2 0 0
1.7539999 -0.74699998 0.067000002 5 0 0
1.748 -0.75 0.066 4 0 0
1.74 -0.75300002 0.064999998 4 0 0
1.734 -0.75599998 0.064000003 5 0 0
1.7309999 -0.75999999 0.064000003 5 0 0
1.728 -0.76499999 0.063000001 5 0 0
1.72 -0.76700002 0.061999999 2 0 0
1.707 -0.76700002 0.061000001 2 0 0
1.702 -0.77100003 0.059999999 2 0 0
1.693 -0.773 0.059 150 16 0
1.688 -0.77600002 0.059 150 16 0
1.683 -0.77899998 0.057999998 150 16 0
1.677 -0.78200001 0.057 4 0 0
1.669 -0.78399998 0.056000002 150 16 0
1.666 -0.78799999 0.055 150 16 0
1.655 -0.78899997 0.054000001 146 0 0
1.653 -0.79299998 0.052999999 87 0 0
1.641 -0.79299998 0.052000001 150 16 0
1.638 -0.79699999 0.050999999 82 0 0
1.633 -0.80000001 0.050000001 96 0 0
1.625 -0.801 0.048999999 129 0 0
1.617 -0.80299997 0.048 80 0 0
1.612 -0.80500001 0.046999998 94 0 0
1.6109999 -0.81 0.046 78 0 0
1.598 -0.80900002 0.044 101 0 0
1.591 -0.81 0.043000001 86 0 0
1.587 -0.81400001 0.041999999 85 0 0
1.585 -0.81699997 0.041000001 79 0 0
1.58 -0.81999999 0.039999999 106 0 0
1.576 -0.82300001 0.039000001 105 0 0
1.569 -0.824 0.037999999 97 0 0
1.564 -0.82700002 0.035999998 119 0 0
1.556 -0.82700002 0.035 114 0 0
1.5549999 -0.83200002 0.034000002 91 0 0
1.552 -0.83499998 0.033 91 0 0
1.549 -0.838 0.032000002 72 0 0
1.5369999 -0.83700001 0.029999999 103 0 0
1.5319999 -0.83899999 0.028999999 121 0 0
1.527 -0.84100002 0.028000001 150 0 0
1.524 -0.84399998 0.026000001 119 0 0
1.52 -0.84600002 0.025 143 0 0
1.5089999 -0.84500003 0.024 136 0 0
1.505 -0.847 0.022 101 0 0
1.5 -0.84899998 0.021 119 0 0
1.498 -0.852 0.02 140 0 0
1.493 -0.85399997 0.017999999 125 0 0
1.489 -0.85600001 0.017000001 144 0 0
1.482 -0.85600001 0.015 150 0 0
1.477 -0.85799998 0.014 121 0 0
1.475 -0.861 0.013 109 0 0
1.471 -0.86299998 0.011 150 0 0
1.466 -0.86400002 0.0099999998 134 0 0
1.464 -0.86699998 0.0080000004 147 0 0
1.4579999 -0.86699998 0.0070000002 149 0 0
1.456 -0.87 0.0049999999 122 0 0
1.448 -0.87 0.0040000002 139 0 0
1.444 -0.87099999 0.0020000001 99 0 0
1.442 -0.87400001 0.001 125 0 0
1.438 -0.875 0 140 0 0
1.433 -0.87599999 -0.001 137 0 0
1.429 -0.87699997 -0.003 89 0 0
1.427 -0.88 -0.0049999999 111 0 0
1.424 -0.88099998 -0.0060000001 146 0 0
1.419 -0.88200003 -0.0080000004 136 0 0
1.414 -0.88300002 -0.0089999996 150 0 0
1.4119999 -0.88499999 -0.011 114 0 0
1.409 -0.88599998 -0.013 86 0 0
1.406 -0.88800001 -0.014 85 0 0
1.402 -0.889 -0.016000001 142 0 0
1.397 -0.88800001 -0.017999999 123 0 0
1.395 -0.89099997 -0.018999999 136 0 0
1.3940001 -0.89300001 -0.021 119 0 0
1.3890001 -0.89300001 -0.023 135 0 0
1.385 -0.89399999 -0.024 120 0 0
1.3839999 -0.89600003 -0.026000001 150 0 0
1.381 -0.89700001 -0.028000001 122 0 0
1.376 -0.89600003 -0.028999999 136 0 0
1.374 -0.898 -0.030999999 127 0 0
1.372 -0.89999998 -0.033 121 0 0
1.374 -0.903 -0.035 74 0 0
1.37 -0.90399998 -0.035999998 136 0 0
1.368 -0.90499997 -0.037999999 150 0 0
1.362 -0.90399998 -0.039999999 119 0 0
1.3609999 -0.90499997 -0.041999999 123 0 0
1.354 -0.903 -0.043000001 95 0 0
1.357 -0.90799999 -0.045000002 138 0 0
1.355 -0.90899998 -0.046999998 142 0 0
1.349 -0.90700001 -0.048999999 126 0 0
1.351 -0.91000003 -0.050999999 147 0 0
1.347 -0.91000003 -0.052000001 89 0 0
1.346 -0.91100001 -0.054000001 131 0 0
1.345 -0.912 -0.056000002 141 0 0
1.342 -0.912 -0.057999998 146 0 0
1.341 -0.91299999 -0.059999999 106 0 0
1.339 -0.91399997 -0.061999999 113 0 0
1.337 -0.91399997 -0.063000001 143 0 0
1.335 -0.91399997 -0.064999998 150 0 0
1.332 -0.91399997 -0.067000002 150 0 0
1.331 -0.91500002 -0.068999998 150 0 0
1.3329999 -0.917 -0.071000002 101 0 0
1.316 -0.90700001 -0.071999997 79 1 0
1.316 -0.90799999 -0.074000001 136 0 0
1.3150001 -0.90899998 -0.075999998 100 0 0
1.3279999 -0.91900003 -0.078000002 132 1 0
1.314 -0.91000003 -0.079000004 106 3 0
1.313 -0.91100001 -0.081 84 0 0
1.309 -0.90899998 -0.082999997 125 0 0
1.312 -0.912 -0.085000001 109 0 0
1.312 -0.912 -0.086999997 103 0 0
1.3099999 -0.912 -0.089000002 109 0 0
1.307 -0.91000003 -0.090000004 126 0 0
1.307 -0.91100001 -0.092 128 0 0
1.308 -0.912 -0.093999997 116 0 0
1.306 -0.91100001 -0.096000001 148 0 0
1.308 -0.91299999 -0.097999997 118 0 0
1.307 -0.91299999 -0.1 139 0 0
1.3049999 -0.912 -0.102 111 0 0
1.307 -0.91299999 -0.104 125 0 0
1.3049999 -0.912 -0.105 91 0 0
1.304 -0.91100001 -0.107 131 0 0
1.302 -0.91000003 -0.109 135 0 0
1.304 -0.91100001 -0.111 136 0 0
1.302 -0.90899998 -0.113 140 0 0
1.302 -0.90899998 -0.114 123 0 0
1.302 -0.90899998 -0.116 144 0 0
1.302 -0.90799999 -0.118 131 0 0
1.298 -0.90499997 -0.119 2 3 0
1.303 -0.90700001 -0.122 141 0 0
1.299 -0.90399998 -0.123 122 0 0
1.3 -0.90399998 -0.125 128 0 0
1.3049999 -0.90700001 -0.127 128 3 0
1.306 -0.90700001 -0.12899999 104 0 0
1.306 -0.90600002 -0.131 138 0 0
1.306 -0.90499997 -0.132 137 0 0
1.306 -0.90399998 -0.134 126 0 0
1.301 -0.89899999 -0.13500001 140 3 0
1.307 -0.90200001 -0.138 145 0 0
1.308 -0.90100002 -0.139 137 0 0
1.308 -0.89999998 -0.141 144 0 0
1.311 -0.90100002 -0.14300001 125 0 0
1.325 -0.90899998 -0.146 143 1 0
1.323 -0.90600002 -0.147 150 0 0
1.324 -0.90499997 -0.149 150 0 0
1.324 -0.90399998 -0.15099999 150 0 0
1.326 -0.903 -0.152 150 0 0
1.3279999 -0.903 -0.154 148 0 0
1.33 -0.90200001 -0.156 143 0 0
1.33 -0.89999998 -0.15700001 150 0 0
1.331 -0.89899999 -0.15899999 139 0 0
1.332 -0.89700001 -0.161 150 0 0
1.335 -0.89700001 -0.162 150 0 0
1.336 -0.89499998 -0.164 150 0 0
1.335 -0.89300001 -0.16500001 150 0 0
1.337 -0.89200002 -0.167 150 0 0
1.3380001 -0.88999999 -0.168 150 0 0
1.34 -0.889 -0.17 150 0 0
1.341 -0.88700002 -0.171 150 0 0
1.346 -0.88700002 -0.17299999 150 0 0
1.348 -0.88700002 -0.175 150 0 0
1.35 -0.88499999 -0.176 150 0 0
1.351 -0.88300002 -0.177 150 0 0
1.354 -0.88200003 -0.17900001 150 0 0
1.3559999 -0.88 -0.18099999 150 0 0
1.357 -0.87800002 -0.182 150 0 0
1.364 -0.88 -0.184 4 0 0
1.365 -0.87699997 -0.185 150 0 0
1.369 -0.87699997 -0.18700001 150 0 0
1.368 -0.87300003 -0.18799999 150 0 0
1.374 -0.87400001 -0.189 150 0 0
1.377 -0.87199998 -0.191 149 0 0
1.3789999 -0.87 -0.192 150 0 0
1.378 -0.866 -0.193 150 0 0
1.381 -0.86500001 -0.19400001 150 0 0
1.3839999 -0.86299998 -0.19599999 150 0 0
1.388 -0.86199999 -0.197 150 0 0
1.39 -0.86000001 -0.198 150 0 0
1.393 -0.85799998 -0.199 150 0 0
1.395 -0.85500002 -0.2 150 0 0
1.4 -0.85500002 -0.20200001 150 0 0
1.401 -0.852 -0.20299999 150 0 0
1.403 -0.84899998 -0.204 150 0 0
1.404 -0.84600002 -0.205 150 0 0
1.41 -0.84600002 -0.206 150 0 0
1.416 -0.84500003 -0.208 150 0 0
1.42 -0.84399998 -0.20900001 150 0 0
1.425 -0.84200001 -0.20999999 150 0 0
1.431 -0.84200001 -0.212 150 0 0
1.436 -0.84100002 -0.213 150 0 0
1.439 -0.838 -0.214 150 0 0
1.437 -0.833 -0.214 132 0 0
1.444 -0.83200002 -0.21600001 133 0 0
1.448 -0.83099997 -0.21699999 150 0 0
1.447 -0.82599998 -0.21699999 147 0 0
1.449 -0.82300001 -0.21799999 141 0 0
1.461 -0.82499999 -0.22 141 3 0
1.4630001 -0.82200003 -0.22 150 0 0
1.47 -0.82099998 -0.222 136 0 0
1.475 -0.81999999 -0.223 150 0 0
1.477 -0.81599998 -0.223 150 0 0
1.483 -0.815 -0.22400001 112 0 0
1.4910001 -0.815 -0.226 113 0 0
1.4910001 -0.81 -0.226 150 0 0
1.495 -0.80699998 -0.227 150 0 0
1.502 -0.80699998 -0.228 150 0 0
1.507 -0.80400002 -0.229 150 0 0
1.51 -0.801 -0.229 150 0 0
1.5190001 -0.801 -0.23100001 150 0 0
1.524 -0.79900002 -0.23100001 150 0 0
1.526 -0.79500002 -0.23199999 147 0 0
1.533 -0.79400003 -0.233 126 0 0
1.535 -0.79000002 -0.233 150 0 0
1.543 -0.78899997 -0.234 150 0 0
1.548 -0.787 -0.235 150 0 0
1.553 -0.78399998 -0.235 150 0 0
1.556 -0.77999997 -0.235 138 0 0
1.566 -0.77999997 -0.237 141 0 0
1.5700001 -0.77700001 -0.237 141 0 0
1.5779999 -0.77600002 -0.23800001 141 0 0
1.5829999 -0.773 -0.23800001 122 0 0
1.586 -0.76899999 -0.23899999 150 0 0
1.5930001 -0.76700002 -0.23899999 126 0 0
1.595 -0.76300001 -0.23899999 140 0 0
1.601 -0.75999999 -0.23999999 150 0 0
1.607 -0.75800002 -0.23999999 112 0 0
1.609 -0.75400001 -0.23999999 111 0 0
1.614 -0.75099999 -0.23999999 121 0 0
1.627 -0.75099999 -0.242 106 0 0
1.63 -0.74699998 -0.242 132 0 0
1.638 -0.74599999 -0.242 97 0 0
1.643 -0.74199998 -0.242 73 0 0
1.651 -0.74000001 -0.243 107 0 0
1.655 -0.736 -0.243 133 0 0
1.659 -0.73299998 -0.243 123 0 0
1.669 -0.73199999 -0.243 83 0 0
1.673 -0.72799999 -0.243 98 0 0
1.6799999 -0.72500002 -0.244 93 0 0
1.687 -0.722 -0.244 70 0 0
1.694 -0.72000003 -0.244 69 0 0
1.698 -0.71600002 -0.244 67 0 0
1.707 -0.71399999 -0.244 78 0 0
1.712 -0.70999998 -0.244 96 0 0
1.722 -0.70899999 -0.245 71 0 0
1.733 -0.70700002 -0.245 91 0 0
1.7359999 -0.70200002 -0.245 150 16 0
1.7460001 -0.70099998 -0.245 77 0 0
1.7539999 -0.69800001 -0.245 59 0 0
1.758 -0.69400001 -0.245 150 16 0
1.763 -0.69 -0.244 150 16 0
1.772 -0.68699998 -0.245 150 16 0
1.774 -0.68199998 -0.244 150 16 0
1.786 -0.68099999 -0.244 150 16 0
1.7970001 -0.67900002 -0.245 150 16 0
1.799 -0.67400002 -0.244 150 16 0
1.8099999 -0.67199999 -0.244 150 16 0
1.813 -0.667 -0.243 150 16 0
1.821 -0.66399997 -0.243 150 16 0
1.826 -0.65899998 -0.242 150 16 0
1.841 -0.65899998 -0.243 1 0 0
1.85 -0.65600002 -0.243 2 0 0
1.858 -0.653 -0.243 2 0 0
1.863 -0.648 -0.242 1 0 0
1.869 -0.64399999 -0.241 1 0 0
1.877 -0.63999999 -0.241 150 16 0
1.89 -0.639 -0.241 150 16 0
1.898 -0.63499999 -0.241 150 16 0
1.905 -0.63099998 -0.23999999 141 16 0
1.9119999 -0.62699997 -0.23899999 127 16 0
1.921 -0.62400001 -0.23899999 135 16 0
1.924 -0.61799997 -0.237 137 16 0
1.932 -0.61400002 -0.237 133 16 0
1.939 -0.61000001 -0.236 141 16 0
1.9579999 -0.61000001 -0.237 126 19 0
1.9630001 -0.60500002 -0.236 123 16 0
1.97 -0.60100001 -0.235 121 16 0
1.984 -0.59799999 -0.235 121 16 0
1.9910001 -0.59399998 -0.234 126 16 0
2 -0.58999997 -0.233 127 16 0
2.01 -0.58600003 -0.23199999 114 16 0
2.017 -0.58200002 -0.23100001 109 16 0
2.027 -0.57800001 -0.23100001 118 16 0
2.0339999 -0.574 -0.229 118 16 0
2.0450001 -0.56999999 -0.229 104 16 0
2.0510001 -0.565 -0.228 112 16 0
2.0580001 -0.56099999 -0.226 98 16 0
2.0780001 -0.55900002 -0.227 104 16 0
2.0840001 -0.55400002 -0.22499999 105 16 0
2.095 -0.55000001 -0.22400001 100 16 0
2.105 -0.546 -0.223 97 16 0
2.1140001 -0.542 -0.222 96 16 0
2.131 -0.53899997 -0.222 94 16 0
2.1400001 -0.53399998 -0.221 94 16 0
2.1440001 -0.52899998 -0.219 91 16 0
2.1530001 -0.52399999 -0.21799999 92 16 0
2.1600001 -0.51899999 -0.21600001 97 16 0
2.1830001 -0.51800001 -0.21600001 86 19 0
2.1930001 -0.51300001 -0.215 83 16 0
2.2049999 -0.509 -0.214 82 16 0
2.217 -0.50400001 -0.213 80 16 0
2.224 -0.49900001 -0.211 83 16 0
2.237 -0.495 -0.20999999 72 16 0
2.244 -0.48899999 -0.208 73 16 0
2.2609999 -0.486 -0.207 77 16 0
2.266 -0.47999999 -0.205 80 16 0
2.276 -0.47499999 -0.204 77 16 0
2.29 -0.47 -0.20200001 68 16 0
2.3010001 -0.465 -0.20100001 70 16 0
2.313 -0.461 -0.199 71 16 0
2.329 -0.456 -0.198 68 16 0
2.336 -0.45100001 -0.19599999 67 16 0
2.3529999 -0.44600001 -0.19499999 61 16 0
2.3699999 -0.442 -0.193 62 16 0
2.375 -0.43599999 -0.191 72 16 0
2.391 -0.43200001 -0.19 53 16 0
2.402 -0.426 -0.18799999 52 16 0
2.4159999 -0.421 -0.186 49 16 0
2.4260001 -0.41499999 -0.184 53 16 0
2.4460001 -0.41100001 -0.182 47 16 0
2.4549999 -0.405 -0.18000001 48 16 0
2.4660001 -0.39899999 -0.178 46 16 0
2.4790001 -0.39399999 -0.176 46 16 0
2.4920001 -0.38800001 -0.17399999 35 16 0
2.5050001 -0.38299999 -0.17200001 44 16 0
2.5179999 -0.377 -0.17 36 16 0
2.5309999 -0.37099999 -0.168 37 16 0
2.5450001 -0.36500001 -0.16500001 35 16 0
2.5580001 -0.359 -0.163 33 16 0
2.575 -0.354 -0.161 30 16 0
2.586 -0.34799999 -0.15899999 30 16 0
2.599 -0.34099999 -0.156 31 16 0
2.6110001 -0.33500001 -0.154 29 16 0
2.6300001 -0.33000001 -0.15099999 30 16 0
2.6440001 -0.32300001 -0.149 30 16 0
2.6600001 -0.317 -0.146 29 16 0
2.677 -0.31099999 -0.14399999 29 16 0
2.6889999 -0.30399999 -0.141 30 16 0
2.707 -0.29800001 -0.139 30 16 0
2.72 -0.292 -0.13600001 28 16 0
2.7320001 -0.285 -0.133 28 16 0
2.7409999 -0.27700001 -0.13 29 16 0
2.7650001 -0.27200001 -0.127 28 16 0
2.7809999 -0.26499999 -0.125 27 16 0
2.8010001 -0.25799999 -0.122 28 16 0
2.806 -0.25 -0.118 28 16 0
2.8329999 -0.244 -0.116 27 19 0
2.845 -0.237 -0.112 27 16 0
2.8629999 -0.23 -0.109 27 16 0
2.882 -0.223 -0.106 27 16 0
2.8989999 -0.21600001 -0.103 27 16 0
2.914 -0.208 -0.1 27 16 0
2.9319999 -0.20100001 -0.096000001 26 16 0
2.9549999 -0.19400001 -0.093000002 26 16 0
2.9719999 -0.186 -0.090000004 27 16 0
2.994 -0.17900001 -0.086000003 26 16 0
3.006 -0.17 -0.082000002 26 16 0
3.033 -0.163 -0.079000004 26 16 0
3.0469999 -0.155 -0.075000003 26 16 0
3.072 -0.147 -0.071999997 26 16 0
3.092 -0.139 -0.068000004 25 16 0
3.1110001 -0.131 -0.064000003 26 16 0
3.1329999 -0.122 -0.059999999 27 16 0
3.151 -0.114 -0.056000002 27 16 0
3.1689999 -0.105 -0.052000001 27 16 0
3.194 -0.097000003 -0.048 27 16 0
3.2149999 -0.088 -0.044 27 16 0
3.2360001 -0.079000004 -0.039000001 29 16 0
3.253 -0.07 -0.035 64 16 0
3.2590001 -0.061000001 -0.029999999 150 16 0
3.2539999 -0.050999999 -0.026000001 145 16 0
3.2539999 -0.041999999 -0.021 121 16 0
3.2509999 -0.033 -0.016000001 142 16 0
3.244 -0.023 -0.011 102 16 0
3.2449999 -0.014 -0.0070000002 28 16 0
3.2690001 -0.0040000002 -0.0020000001 17 16 0
3.2850001 0.0040000002 0.0020000001 18 16 0
3.313 0.014 0.0070000002 20 16 0
3.3329999 0.024 0.012 28 16 0
3.3329999 0.033 0.017000001 55 16 0
3.3310001 0.043000001 0.022 55 16 0
3.3269999 0.052000001 0.027000001 44 16 0
3.3310001 0.061999999 0.032000002 44 16 0
3.325 0.071000002 0.035999998 55 16 0
3.3210001 0.081 0.041000001 39 16 0
3.3210001 0.090000004 0.046 28 16 0
3.3199999 0.1 0.050999999 49 16 0
3.313 0.109 0.056000002 49 16 0
3.306 0.118 0.061000001 43 16 0
3.2850001 0.127 0.066 52 16 0
3.247 0.13500001 0.07 96 16 0
3.2349999 0.14300001 0.075000003 89 16 0
3.2390001 0.153 0.079999998 89 16 0
3.2420001 0.162 0.085000001 93 16 0
3.2479999 0.17200001 0.090000004 102 16 0
3.263 0.182 0.096000001 136 16 0
3.273 0.192 0.101 114 16 0
3.286 0.20200001 0.107 69 16 0
3.263 0.20999999 0.111 38 16 0
3.221 0.21600001 0.115 34 16 0
3.214 0.22499999 0.12 34 16 0
3.2260001 0.235 0.125 31 16 0
3.2379999 0.245 0.131 34 16 0
3.2090001 0.252 0.13500001 28 16 0
3.187 0.259 0.139 25 16 0
3.201 0.26899999 0.145 33 16 0
3.191 0.27700001 0.15000001 35 16 0
3.1789999 0.285 0.154 36 16 0
3.1689999 0.29300001 0.15899999 45 16 0
3.161 0.301 0.164 51 16 0
3.152 0.30899999 0.168 150 16 0
3.1500001 0.31799999 0.17299999 150 16 0
3.145 0.32699999 0.178 150 16 0
3.145 0.33500001 0.184 150 16 0
3.1440001 0.34400001 0.189 150 16 0
3.1429999 0.35299999 0.19400001 150 16 0
3.1370001 0.361 0.199 150 16 0
3.135 0.36899999 0.204 150 16 0
3.1300001 0.37799999 0.20900001 150 16 0
3.1300001 0.38600001 0.214 150 16 0
3.1270001 0.39500001 0.22 150 16 0
3.1300001 0.40400001 0.22499999 150 16 0
3.1259999 0.412 0.23 150 16 0
3.1240001 0.421 0.235 150 16 0
3.1170001 0.428 0.23999999 150 16 0
3.119 0.43700001 0.24600001 150 16 0
3.1199999 0.44600001 0.25099999 150 16 0
3.115 0.454 0.25600001 150 16 0
3.1099999 0.46200001 0.26100001 150 16 0
3.1099999 0.47099999 0.26699999 150 16 0
3.109 0.479 0.27200001 150 16 0
3.109 0.48800001 0.278 150 16 0
3.1070001 0.49599999 0.28299999 150 16 0
3.102 0.50400001 0.28799999 150 16 0
3.1029999 0.51300001 0.294 150 16 0
3.0940001 0.51999998 0.29899999 150 16 0
3.096 0.52899998 0.30500001 150 16 0
3.0940001 0.537 0.31 150 16 0
3.0929999 0.54500002 0.315 150 16 0
3.0929999 0.55400002 0.32100001 150 16 0
3.089 0.56199998 0.32600001 150 16 0
3.0829999 0.56900001 0.331 150 16 0
3.085 0.57800001 0.33700001 150 16 0
3.085 0.58600003 0.34299999 150 16 0
3.085 0.59500003 0.34900001 150 16 0
3.0810001 0.60299999 0.354 150 16 0
3.0810001 0.611 0.36000001 150 16 0
3.079 0.61900002 0.366 150 16 0
3.076 0.62699997 0.37099999 150 16 0
3.0739999 0.63499999 0.377 150 16 0
3.073 0.64300001 0.382 150 16 0
3.072 0.65100002 0.38800001 150 16 0
3.0699999 0.65899998 0.39399999 150 16 0
3.0669999 0.667 0.40000001 150 16 0
3.0650001 0.67500001 0.405 150 16 0
3.062 0.68300003 0.41100001 150 16 0
3.0650001 0.69099998 0.417 150 16 0
3.063 0.699 0.42300001 150 16 0
3.062 0.70700002 0.42899999 150 16 0
3.0599999 0.71499997 0.435 150 16 0
3.0569999 0.72299999 0.44 150 16 0
3.0569999 0.73100001 0.44600001 150 16 0
3.052 0.73799998 0.45199999 150 16 0
3.0510001 0.74599999 0.458 150 16 0
3.0550001 0.755 0.465 150 16 0
3.0510001 0.76200002 0.47 150 16 0
3.046 0.76999998 0.47600001 150 16 0
3.04 0.77600002 0.48100001 122 16 0
3.033 0.78200001 0.486 53 16 0
3.02 0.787 0.49000001 44 16 0
3.0039999 0.79100001 0.49399999 41 16 0
2.9979999 0.79799998 0.49900001 42 16 0
2.9879999 0.80299997 0.50400001 42 16 0
2.9760001 0.80800003 0.50800002 43 16 0
2.961 0.81099999 0.51200002 43 16 0
2.9549999 0.81699997 0.51700002 43 16 0
2.947 0.82300001 0.52200001 44 16 0
2.941 0.829 0.52700001 43 16 0
2.9260001 0.833 0.53100002 42 16 0
2.914 0.83700001 0.53500003 43 16 0
2.905 0.84200001 0.53899997 43 16 0
2.8870001 0.84399998 0.542 41 16 0
2.8840001 0.85100001 0.54799998 42 16 0
2.8699999 0.85399997 0.551 45 16 0
2.8629999 0.85900003 0.55599999 46 16 0
2.8510001 0.86299998 0.56 46 16 0
2.842 0.86799997 0.565 45 16 0
2.836 0.87300003 0.56999999 44 16 0
2.816 0.87400001 0.57200003 44 16 0
2.8099999 0.88 0.57700002 42 16 0
2.799 0.884 0.58099997 44 16 0
2.7909999 0.88800001 0.58600003 45 16 0
2.779 0.89099997 0.58999997 45 16 0
2.7720001 0.89600003 0.59500003 44 16 0
2.7609999 0.89999998 0.59899998 43 16 0
2.753 0.90399998 0.60299999 43 16 0
2.7449999 0.90799999 0.60799998 46 16 0
2.7320001 0.91100001 0.611 71 16 0
2.724 0.91500002 0.61500001 72 16 0
2.7130001 0.91799998 0.61900002 71 16 0
2.704 0.92199999 0.62400001 70 16 0
2.691 0.92400002 0.62699997 69 16 0
2.6849999 0.92900002 0.63200003 73 16 0
2.675 0.93199998 0.63599998 76 16 0
2.6689999 0.93599999 0.64099997 71 16 0
2.658 0.93900001 0.64399999 73 16 0
2.6489999 0.94199997 0.648 69 16 0
2.6389999 0.94499999 0.65200001 72 16 0
2.6259999 0.94700003 0.65499997 73 16 0
2.619 0.94999999 0.66000003 66 16 0
2.6129999 0.95499998 0.66500002 72 16 0
2.6010001 0.95599997 0.66799998 76 16 0
2.5880001 0.958 0.671 66 16 0
2.5810001 0.96100003 0.67500001 71 16 0
2.572 0.96399999 0.67900002 72 16 0
2.566 0.96799999 0.68400002 73 16 0
2.553 0.96899998 0.68699998 79 16 0
2.5439999 0.97100002 0.69099998 75 16 0
2.5380001 0.97500002 0.69499999 73 16 0
2.529 0.977 0.699 81 16 0
2.517 0.97799999 0.70200002 74 16 0
2.5090001 0.98100001 0.70599997 73 16 0
2.5050001 0.98500001 0.71100003 86 16 0
2.493 0.986 0.71399999 75 16 0
2.4820001 0.98699999 0.71700001 76 16 0
2.473 0.98900002 0.72100002 81 16 0
2.467 0.99199998 0.72500002 78 16 0
2.461 0.995 0.73000002 82 16 0
2.4519999 0.99599999 0.73299998 88 16 0
2.4460001 0.99900001 0.73699999 79 16 0
2.438 1.001 0.741 80 16 0
2.428 1.002 0.74400002 73 16 0
2.4219999 1.005 0.74900001 80 16 0
2.414 1.006 0.75199997 85 16 0
2.408 1.0089999 0.75700003 85 16 0
2.3929999 1.007 0.75800002 75 16 0
2.385 1.0089999 0.76200002 72 16 0
2.381 1.012 0.76599997 84 16 0
2.3740001 1.013 0.76999998 77 16 0
2.365 1.0140001 0.77399999 88 16 0
2.3529999 1.0140001 0.77600002 81 16 0
2.345 1.015 0.77899998 80 16 0
2.3369999 1.016 0.78200001 80 16 0
2.3310001 1.017 0.78600001 86 16 0
2.319 1.017 0.78799999 83 16 0
2.3150001 1.0190001 0.79299998 88 16 0
2.3110001 1.021 0.79699999 90 16 0
2.302 1.021 0.80000001 92 16 0
2.2880001 1.02 0.801 87 16 0
2.2850001 1.022 0.80599999 87 16 0
2.2750001 1.021 0.80800003 81 16 0
2.2720001 1.024 0.81300002 87 16 0
2.2620001 1.023 0.815 86 16 0
2.2539999 1.023 0.81800002 88 16 0
2.2509999 1.026 0.82300001 81 16 0
2.2409999 1.025 0.82499999 87 16 0
2.237 1.026 0.829 89 16 0
2.2260001 1.025 0.83099997 85 16 0
2.2160001 1.024 0.833 91 16 0
2.211 1.024 0.83700001 76 16 0
2.2049999 1.025 0.83999997 86 16 0
2.198 1.025 0.84299999 88 16 0
2.194 1.026 0.847 90 16 0
2.1860001 1.026 0.85000002 90 16 0
2.181 1.026 0.85299999 105 16 0
2.1700001 1.024 0.85399997 86 16 0
2.164 1.023 0.85699999 89 16 0
2.161 1.025 0.86199999 90 16 0
2.1530001 1.024 0.86400002 86 16 0
2.1500001 1.025 0.86799997 94 16 0
2.1429999 1.024 0.87 87 16 0
2.1329999 1.022 0.87099999 87 16 0
2.1300001 1.022 0.875 87 16 0
2.1229999 1.022 0.87800002 100 16 0
2.1170001 1.021 0.88 87 16 0
2.1099999 1.02 0.88300002 92 16 0
2.1070001 1.02 0.88599998 87 16 0
2.0999999 1.0190001 0.88800001 86 16 0
2.0940001 1.018 0.89099997 87 16 0
2.0899999 1.018 0.89399999 93 16 0
2.0829999 1.016 0.89600003 84 16 0
2.0810001 1.017 0.89999998 93 16 0
2.073 1.0140001 0.90200001 94 16 0
2.0669999 1.013 0.903 97 16 0
2.0610001 1.011 0.90600002 92 16 0
2.059 1.012 0.91000003 98 16 0
2.053 1.01 0.91100001 92 16 0
2.046 1.008 0.91299999 98 16 0
2.0439999 1.008 0.91600001 93 16 0
2.0339999 1.0039999 0.91600001 101 16 0
2.033 1.0039999 0.92000002 99 16 0
2.0309999 1.0039999 0.92299998 102 16 0
2.0239999 1.001 0.92500001 103 16 0
2.0190001 1 0.92699999 108 16 0
2.01 0.99599999 0.92699999 107 16 0
2.006 0.99400002 0.92900002 90 16 0
2.0020001 0.99299997 0.93099999 96 16 0
1.998 0.991 0.93300003 89 16 0
1.995 0.99000001 0.935 99 16 0
1.992 0.98900002 0.93800002 93 16 0
1.985 0.98500001 0.93800002 100 16 0
1.98 0.98299998 0.94 103 16 0
1.979 0.98199999 0.94300002 102 16 0
1.974 0.97899997 0.94400001 103 16 0
1.969 0.977 0.94499999 101 16 0
1.966 0.97500002 0.94800001 104 16 0
1.96 0.972 0.94800001 99 16 0
1.957 0.97000003 0.94999999 109 16 0
1.955 0.96799999 0.95200002 114 16 0
1.952 0.96600002 0.954 105 16 0
1.9529999 0.96600002 0.958 105 16 0
1.947 0.96200001 0.958 99 16 0
1.946 0.96100003 0.95999998 107 16 0
1.943 0.958 0.96200001 111 16 0
1.936 0.954 0.96100003 103 16 0
1.934 0.95200002 0.963 98 16 0
1.9299999 0.949 0.963 100 16 0
1.927 0.94599998 0.96399999 102 16 0
1.926 0.94499999 0.96700001 108 16 0
1.9220001 0.94099998 0.96700001 104 16 0
1.9220001 0.94 0.97000003 106 16 0
1.918 0.93599999 0.97000003 103 16 0
1.914 0.93300003 0.97000003 102 16 0
1.91 0.92900002 0.97000003 106 16 0
1.909 0.92699999 0.972 112 16 0
1.9069999 0.92400002 0.97299999 112 16 0
1.903 0.92000002 0.97299999 101 16 0
1.903 0.91799998 0.97500002 109 16 0
1.906 0.91799998 0.97799999 113 16 0
1.899 0.912 0.97600001 105 16 0
1.901 0.91100001 0.97899997 108 16 0
1.898 0.90700001 0.97799999 102 16 0
1.9 0.90600002 0.98100001 114 16 0
1.893 0.89999998 0.97899997 110 19 0
1.893 0.898 0.98000002 111 16 0
1.893 0.89499998 0.98100001 113 16 0
1.891 0.89200002 0.98100001 112 16 0
1.887 0.88700002 0.98000002 107 16 0
1.8890001 0.88599998 0.98199999 105 16 0
1.89 0.88300002 0.98400003 112 16 0
1.8890001 0.88 0.98400003 113 16 0
1.886 0.87599999 0.98299998 110 16 0
1.887 0.87300003 0.98400003 115 16 0
1.89 0.87099999 0.986 117 16 0
1.888 0.86799997 0.986 114 16 0
1.887 0.86400002 0.986 107 16 0
1.886 0.86000001 0.98500001 113 16 0
1.887 0.85699999 0.986 116 16 0
1.888 0.85399997 0.98699999 115 16 0
1.886 0.85000002 0.986 121 16 0
1.882 0.84500003 0.98400003 129 16 0
1.886 0.84299999 0.986 131 16 0
1.885 0.83899999 0.98500001 127 16 0
1.885 0.83600003 0.98500001 127 16 0
1.887 0.833 0.986 128 16 0
1.886 0.829 0.98500001 131 16 0
1.89 0.82700002 0.986 134 16 0
1.892 0.824 0.98699999 139 16 0
1.8890001 0.81900001 0.98500001 135 16 0
1.885 0.81400001 0.98199999 127 16 0
1.892 0.81300002 0.98400003 127 16 0
1.89 0.80800003 0.98299998 132 16 0
1.89 0.80400002 0.98199999 131 16 0
1.893 0.801 0.98199999 132 16 0
1.892 0.79699999 0.98100001 124 16 0
1.896 0.79500002 0.98199999 138 16 0
1.895 0.79000002 0.98000002 145 16 0
1.895 0.78600001 0.97899997 135 16 0
1.901 0.78399998 0.98000002 150 16 0
1.9 0.77999997 0.97799999 140 16 0
1.902 0.77600002 0.97799999 143 16 0
1.902 0.77200001 0.97600001 145 16 0
1.91 0.77100003 0.97799999 146 16 0
1.909 0.76599997 0.97600001 140 16 0
1.9119999 0.76300001 0.97600001 150 16 0
1.916 0.75999999 0.97600001 150 16 0
1.913 0.755 0.97299999 148 16 0
1.9170001 0.75099999 0.972 142 16 0
1.919 0.74800003 0.97100002 150 16 0
1.9220001 0.74400002 0.97100002 150 16 0
1.92 0.73900002 0.96700001 147 16 0
1.9299999 0.73799998 0.97000003 148 16 0
1.926 0.73199999 0.96499997 145 16 0
1.934 0.73100001 0.96700001 141 16 0
1.934 0.72600001 0.96499997 145 16 0
1.936 0.722 0.963 141 16 0
1.9400001 0.71899998 0.963 136 16 0
1.943 0.71499997 0.96100003 118 16 0
1.95 0.713 0.96200001 123 16 0
1.948 0.708 0.958 127 16 0
1.954 0.70499998 0.958 127 16 0
1.957 0.70099998 0.95599997 130 16 0
1.9579999 0.69700003 0.954 130 16 0
1.964 0.69400001 0.954 137 16 0
1.967 0.69 0.95200002 134 16 0
1.97 0.68599999 0.94999999 130 16 0
1.975 0.68300003 0.949 136 16 0
1.975 0.67799997 0.94599998 137 16 0
1.983 0.676 0.94700003 136 16 0
1.9809999 0.671 0.94199997 137 16 0
1.984 0.667 0.94 128 16 0
1.993 0.66500002 0.94099998 139 16 0
1.994 0.66000003 0.93800002 136 16 0
1.998 0.65700001 0.93599999 140 16 0
2.003 0.65399998 0.935 139 16 0
2.006 0.64899999 0.93199998 142 16 0
2.0120001 0.64600003 0.93099999 141 16 0
2.016 0.64300001 0.92900002 140 16 0
2.02 0.639 0.92699999 138 16 0
2.0239999 0.63499999 0.92500001 141 16 0
2.033 0.63300002 0.92400002 139 16 0
2.0369999 0.62900001 0.92199999 134 16 0
2.0380001 0.625 0.91900003 140 16 0
2.0439999 0.62099999 0.917 140 16 0
2.05 0.61799997 0.91500002 139 16 0
2.0510001 0.61299998 0.91100001 148 16 0
2.059 0.611 0.91100001 142 16 0
2.0650001 0.60699999 0.90899998 133 16 0
2.0669999 0.60299999 0.90499997 140 16 0
2.075 0.60000002 0.90399998 141 16 0
2.0769999 0.59600002 0.90100002 135 16 0
2.082 0.59200001 0.898 126 16 0
2.089 0.58899999 0.89600003 141 16 0
2.092 0.58499998 0.89300001 126 16 0
2.099 0.58200002 0.89099997 134 16 0
2.1059999 0.579 0.889 150 16 0
2.1129999 0.57599998 0.88800001 138 16 0
2.118 0.57200003 0.88499999 136 16 0
2.1240001 0.56800002 0.88200003 140 16 0
2.1300001 0.565 0.88 136 16 0
2.135 0.56099999 0.87699997 134 16 0
2.1489999 0.56 0.87699997 125 16 0
2.155 0.55599999 0.875 124 16 0
2.1570001 0.55199999 0.87 118 16 0
2.165 0.54900002 0.86799997 131 16 0
2.168 0.54400003 0.86400002 149 16 0
2.1730001 0.54100001 0.861 143 16 0
2.1789999 0.537 0.85799998 142 16 0
2.188 0.53399998 0.85600001 135 16 0
2.1960001 0.53100002 0.85399997 130 16 0
2.204 0.528 0.852 138 16 0
2.2090001 0.52399999 0.84799999 138 16 0
2.2179999 0.52100003 0.84600002 129 16 0
2.223 0.51700002 0.84200001 131 16 0
2.2320001 0.514 0.83999997 139 16 0
2.2360001 0.50999999 0.83600003 131 16 0
2.2449999 0.50700003 0.833 126 16 0
2.253 0.50400001 0.82999998 130 16 0
2.2609999 0.50099999 0.82800001 128 16 0
2.266 0.49599999 0.82300001 115 16 0
2.2780001 0.49399999 0.82200003 127 16 0
2.2820001 0.49000001 0.81800002 128 16 0
2.2920001 0.48699999 0.815 127 16 0
2.299 0.48300001 0.81199998 127 16 0
2.306 0.47999999 0.80800003 130 16 0
2.3169999 0.477 0.80599999 133 16 0
2.3239999 0.47400001 0.80199999 133 16 0
2.332 0.47 0.79900002 135 16 0
2.3380001 0.46599999 0.79500002 99 16 0
2.345 0.463 0.79100001 109 16 0
2.3510001 0.45899999 0.787 95 16 0
2.3599999 0.456 0.78299999 100 16 0
2.368 0.45199999 0.77999997 106 16 0
2.3800001 0.449 0.77700001 98 16 0
2.3889999 0.44600001 0.77399999 94 16 0
2.3940001 0.442 0.76899999 102 16 0
2.3989999 0.43799999 0.764 87 16 0
2.4100001 0.435 0.76099998 93 16 0
2.421 0.43200001 0.75800002 106 16 0
2.427 0.428 0.75300002 93 16 0
2.441 0.426 0.75099999 95 16 0
2.45 0.42199999 0.74699998 90 16 0
2.457 0.41800001 0.74199998 71 16 0
2.47 0.41600001 0.73900002 72 16 0
2.4760001 0.412 0.73500001 69 16 0
2.4820001 0.40799999 0.73000002 76 16 0
2.4960001 0.405 0.727 62 16 0
2.5050001 0.40200001 0.72299999 76 16 0
2.5150001 0.398 0.71799999 66 16 0
2.5239999 0.39500001 0.71399999 67 16 0
2.536 0.39199999 0.70999998 66 16 0
2.5409999 0.38800001 0.70499998 60 16 0
2.556 0.38499999 0.70200002 56 16 0
2.562 0.38100001 0.69599998 60 16 0
2.573 0.37799999 0.69199997 62 16 0
2.592 0.375 0.69 60 16 0
2.6010001 0.37200001 0.685 55 16 0
2.609 0.368 0.68000001 52 16 0
2.6129999 0.36399999 0.67400002 51 16 0
2.6270001 0.361 0.67000002 53 16 0
2.6400001 0.35800001 0.66600001 46 16 0
2.6459999 0.35299999 0.66000003 59 16 0
2.6570001 0.34999999 0.65499997 35 16 0
2.6689999 0.347 0.65100002 29 16 0
2.675 0.34200001 0.64399999 40 16 0
2.687 0.33899999 0.63999999 50 16 0
2.7 0.336 0.63499999 65 16 0
2.7119999 0.33199999 0.63 67 16 0
2.723 0.329 0.625 48 16 0
2.7349999 0.32499999 0.62 38 16 0
2.7479999 0.322 0.61500001 40 16 0
2.76 0.31799999 0.61000001 38 16 0
2.7709999 0.315 0.60500002 38 16 0
2.7839999 0.31099999 0.60000002 39 16 0
2.796 0.308 0.59399998 38 16 0
2.806 0.30399999 0.58899999 38 16 0
2.8199999 0.301 0.583 37 16 0
2.835 0.29699999 0.57800001 37 16 0
2.842 0.29300001 0.57200003 36 16 0
2.859 0.28999999 0.56699997 36 16 0
2.8710001 0.28600001 0.56099999 37 16 0
2.882 0.28299999 0.55500001 35 16 0
2.8989999 0.27900001 0.55000001 37 16 0
2.908 0.27500001 0.54400003 36 16 0
2.9219999 0.27200001 0.53799999 39 16 0
2.931 0.26800001 0.53100002 38 16 0
2.9449999 0.264 0.52499998 39 16 0
2.9579999 0.25999999 0.51899999 35 16 0
2.9749999 0.257 0.514 36 16 0
2.9879999 0.25299999 0.50700003 36 16 0
3.007 0.25 0.50199997 35 16 0
3.0179999 0.24600001 0.495 34 16 0
3.036 0.242 0.48899999 34 16 0
3.0469999 0.23800001 0.48199999 33 16 0
3.0639999 0.235 0.47600001 32 16 0
3.0780001 0.23100001 0.46900001 33 16 0
3.096 0.227 0.463 33 16 0
3.115 0.22400001 0.45699999 33 16 0
3.131 0.22 0.44999999 34 16 0
3.1500001 0.21600001 0.44400001 31 16 0
3.1619999 0.212 0.43700001 31 16 0
3.181 0.20900001 0.43000001 33 16 0
3.1960001 0.205 0.42300001 33 16 0
3.21 0.20100001 0.41600001 32 16 0
3.23 0.197 0.40900001 32 16 0
3.2460001 0.193 0.40099999 30 16 0
3.263 0.189 0.39399999 31 16 0
3.279 0.185 0.38600001 33 16 0
3.2980001 0.18099999 0.37900001 47 16 0
3.303 0.176 0.37 140 16 0
3.306 0.171 0.361 134 16 0
3.3050001 0.16599999 0.35100001 118 16 0
3.3010001 0.161 0.34099999 131 16 0
3.293 0.156 0.331 122 16 0
3.2920001 0.15099999 0.32100001 132 16 0
3.29 0.146 0.31099999 135 16 0
3.2909999 0.141 0.30199999 116 16 0
3.29 0.13600001 0.292 122 16 0
3.2909999 0.132 0.28200001 130 16 0
3.286 0.127 0.273 131 16 0
3.2820001 0.122 0.26300001 127 16 0
3.286 0.117 0.25299999 126 16 0
3.286 0.112 0.244 120 16 0
3.279 0.108 0.234 132 16 0
3.2780001 0.103 0.22400001 134 16 0
3.279 0.097999997 0.214 127 16 0
3.28 0.093999997 0.205 148 16 0
3.27 0.089000002 0.19499999 139 16 0
3.2709999 0.083999999 0.185 126 16 0
3.2650001 0.079000004 0.175 129 16 0
3.2639999 0.075000003 0.16599999 125 16 0
3.2650001 0.07 0.156 146 16 0
3.263 0.066 0.147 126 16 0
3.263 0.061000001 0.13699999 119 16 0
3.26 0.057 0.127 68 16 0
3.2739999 0.052999999 0.118 32 16 0
3.2909999 0.048999999 0.109 26 16 0
3.3210001 0.045000002 0.1 27 16 0
3.335 0.039999999 0.090999998 22 16 0
3.3529999 0.035999998 0.081 28 16 0
3.3640001 0.032000002 0.071999997 55 16 0
3.3570001 0.027000001 0.061999999 46 16 0
3.355 0.023 0.052000001 30 16 0
3.3399999 0.017999999 0.041999999 20 16 0
3.3239999 0.014 0.032000002 18 16 0
3.306 0.0089999996 0.022 17 16 0
3.296 0.0049999999 0.012 17 16 0
3.2780001 0.001 0.0020000001 16 16 0
3.2720001 -0.003 -0.0070000002 16 16 0
3.257 -0.0070000002 -0.016000001 16 16 0
3.2360001 -0.011 -0.026000001 17 16 0
3.2260001 -0.015 -0.035 22 16 0
3.2219999 -0.018999999 -0.045000002 36 16 0
3.2179999 -0.023 -0.055 55 16 0
3.221 -0.027000001 -0.064000003 107 16 0
3.2149999 -0.030999999 -0.074000001 112 16 0
3.2160001 -0.035 -0.082999997 135 16 0
3.2130001 -0.039000001 -0.093000002 138 16 0
3.2149999 -0.043000001 -0.103 129 16 0
3.201 -0.046999998 -0.112 104 16 0
3.201 -0.050999999 -0.121 117 16 0
3.2049999 -0.055 -0.131 145 16 0
3.2 -0.059 -0.14 128 16 0
3.197 -0.063000001 -0.15000001 150 16 0
3.2030001 -0.067000002 -0.16 150 16 0
3.1849999 -0.07 -0.168 112 16 0
3.187 -0.074000001 -0.178 49 16 0
3.1789999 -0.078000002 -0.18700001 34 16 0
3.1630001 -0.081 -0.19599999 26 16 0
3.1570001 -0.085000001 -0.205 25 16 0
3.145 -0.088 -0.214 25 16 0
3.1289999 -0.090999998 -0.222 24 16 0
3.1170001 -0.094999999 -0.23100001 24 16 0
3.1099999 -0.097999997 -0.23999999 25 16 0
3.095 -0.101 -0.248 24 16 0
3.085 -0.104 -0.257 24 16 0
3.075 -0.107 -0.26499999 24 16 0
3.0669999 -0.111 -0.27399999 24 16 0
3.0569999 -0.114 -0.28200001 24 16 0
3.04 -0.117 -0.28999999 26 16 0
3.0320001 -0.12 -0.29800001 26 16 0
3.026 -0.123 -0.30700001 27 16 0
3.0179999 -0.126 -0.315 27 16 0
2.993 -0.12800001 -0.322 27 16 0
2.9890001 -0.131 -0.331 26 16 0
2.98 -0.134 -0.33899999 26 16 0
2.974 -0.13699999 -0.347 27 16 0
2.9630001 -0.14 -0.35499999 25 16 0
2.9519999 -0.14300001 -0.36300001 26 16 0
2.941 -0.145 -0.37099999 26 16 0
2.937 -0.148 -0.37900001 26 16 0
2.927 -0.15099999 -0.38699999 26 16 0
2.918 -0.154 -0.39500001 26 16 0
2.911 -0.156 -0.403 26 16 0
2.891 -0.15800001 -0.40900001 26 16 0
2.8840001 -0.161 -0.417 27 16 0
2.8789999 -0.164 -0.42500001 26 16 0
2.8729999 -0.16599999 -0.433 26 16 0
2.8640001 -0.169 -0.44100001 26 16 0
2.8570001 -0.171 -0.449 26 16 0
2.845 -0.17399999 -0.456 26 16 0
2.8340001 -0.176 -0.463 24 16 0
2.8299999 -0.178 -0.47099999 26 16 0
2.8180001 -0.18000001 -0.47799999 25 16 0
2.813 -0.183 -0.486 25 16 0
2.8080001 -0.185 -0.49399999 25 16 0
2.8010001 -0.18799999 -0.50199997 26 16 0
2.789 -0.19 -0.50800002 26 16 0
2.779 -0.192 -0.51599997 25 16 0
2.7739999 -0.19400001 -0.523 26 16 0
2.7650001 -0.19599999 -0.52999997 25 16 0
2.7590001 -0.198 -0.53799999 26 16 0
2.7520001 -0.2 -0.54500002 25 16 0
2.747 -0.20299999 -0.55299997 25 16 0
2.737 -0.204 -0.56 26 16 0
2.7309999 -0.207 -0.56699997 26 16 0
2.72 -0.208 -0.574 26 16 0
2.7149999 -0.20999999 -0.58099997 25 16 0
2.71 -0.212 -0.58899999 26 16 0
2.704 -0.214 -0.59600002 26 16 0
2.6960001 -0.21600001 -0.60299999 25 16 0
2.688 -0.21799999 -0.61000001 25 16 0
2.677 -0.219 -0.616 25 16 0
2.6730001 -0.221 -0.62400001 25 16 0
2.664 -0.223 -0.63 28 16 0
2.6619999 -0.22499999 -0.63800001 28 16 0
2.655 -0.227 -0.64499998 29 16 0
2.651 -0.229 -0.653 29 16 0
2.6459999 -0.23100001 -0.66000003 28 16 0
2.641 -0.23199999 -0.66799998 28 16 0
2.632 -0.234 -0.67400002 30 16 0
2.628 -0.235 -0.68099999 30 16 0
2.618 -0.237 -0.68699998 29 16 0
2.6140001 -0.23800001 -0.69499999 28 16 0
2.602 -0.23899999 -0.69999999 29 16 0
2.5999999 -0.241 -0.708 29 16 0
2.595 -0.243 -0.71499997 29 16 0
2.5869999 -0.244 -0.72100002 29 16 0
2.5799999 -0.245 -0.72799999 28 16 0
2.5780001 -0.24699999 -0.736 28 16 0
2.576 -0.249 -0.74400002 28 16 0
2.5680001 -0.25 -0.75 27 16 0
2.553 -0.25099999 -0.75400001 31 16 0
2.55 -0.252 -0.76200002 33 16 0
2.5480001 -0.25400001 -0.76899999 35 16 0
2.5380001 -0.25400001 -0.77499998 35 16 0
2.533 -0.25600001 -0.78200001 35 16 0
2.5280001 -0.257 -0.78899997 35 16 0
2.523 -0.25799999 -0.796 35 16 0
2.5179999 -0.259 -0.80199999 33 16 0
2.513 -0.25999999 -0.80900002 34 16 0
2.51 -0.26199999 -0.81599998 35 16 0
2.506 -0.26300001 -0.824 34 16 0
2.5039999 -0.264 -0.83099997 34 16 0
2.4960001 -0.26499999 -0.83700001 35 16 0
2.487 -0.266 -0.84200001 34 16 0
2.4860001 -0.26699999 -0.85000002 35 16 0
2.4779999 -0.26800001 -0.85600001 34 16 0
2.473 -0.26899999 -0.86199999 33 16 0
2.47 -0.27000001 -0.87 32 16 0
2.47 -0.271 -0.87800002 33 16 0
2.4630001 -0.27200001 -0.884 34 16 0
2.457 -0.27200001 -0.88999999 34 16 0
2.4530001 -0.273 -0.89700001 37 16 0
2.4530001 -0.27399999 -0.90499997 34 16 0
2.4419999 -0.27399999 -0.90899998 34 16 0
2.438 -0.27500001 -0.91600001 33 16 0
2.4330001 -0.27599999 -0.92199999 33 16 0
2.4300001 -0.27700001 -0.92900002 34 16 0
2.4300001 -0.278 -0.93699998 35 16 0
2.4230001 -0.278 -0.94300002 51 16 0
2.4219999 -0.27900001 -0.94999999 53 16 0
2.4170001 -0.27900001 -0.95700002 51 16 0
2.4100001 -0.28 -0.96200001 49 16 0
2.4070001 -0.28 -0.96899998 52 16 0
2.4030001 -0.28099999 -0.97600001 52 16 0
2.3989999 -0.28099999 -0.98199999 46 16 0
2.3989999 -0.28200001 -0.99000001 50 16 0
2.3900001 -0.28200001 -0.995 47 16 0
2.3870001 -0.28200001 -1.002 48 16 0
2.3870001 -0.28299999 -1.01 46 16 0
2.378 -0.28299999 -1.0140001 49 16 0
2.382 -0.28400001 -1.024 46 16 0
2.375 -0.28400001 -1.028 45 16 0
2.3670001 -0.28400001 -1.033 47 16 0
2.3659999 -0.28400001 -1.041 46 16 0
2.3629999 -0.28400001 -1.0470001 50 16 0
2.3629999 -0.285 -1.0549999 48 16 0
2.3570001 -0.285 -1.061 43 16 0
2.3540001 -0.285 -1.067 46 16 0
2.3540001 -0.285 -1.075 48 16 0
2.346 -0.285 -1.079 46 16 0
2.348 -0.285 -1.0880001 48 16 0
2.345 -0.285 -1.095 49 16 0
2.339 -0.285 -1.1 42 16 0
2.336 -0.285 -1.1059999 46 16 0
2.3310001 -0.28400001 -1.112 44 16 0
2.3299999 -0.285 -1.119 46 16 0
2.3329999 -0.285 -1.128 47 16 0
2.3299999 -0.285 -1.135 43 16 0
2.3239999 -0.28400001 -1.1390001 42 16 0
2.3269999 -0.285 -1.148 39 16 0
2.3269999 -0.285 -1.156 48 16 0
2.319 -0.28400001 -1.16 41 16 0
2.3180001 -0.28400001 -1.1670001 42 16 0
2.3180001 -0.28400001 -1.175 49 16 0
2.313 -0.28299999 -1.179 41 16 0
2.3099999 -0.28200001 -1.1849999 41 16 0
2.309 -0.28200001 -1.193 40 16 0
2.306 -0.28099999 -1.199 37 16 0
2.3080001 -0.28099999 -1.207 34 16 0
2.3050001 -0.28099999 -1.2130001 35 16 0
2.302 -0.28 -1.219 33 16 0
2.303 -0.28 -1.227 34 16 0
2.3050001 -0.28 -1.235 58 16 0
2.299 -0.278 -1.239 54 16 0
2.3039999 -0.27900001 -1.249 58 16 0
2.3010001 -0.278 -1.255 59 16 0
2.3 -0.27700001 -1.262 57 16 0
2.296 -0.27599999 -1.266 56 16 0
2.293 -0.27500001 -1.272 59 16 0
2.293 -0.27399999 -1.279 54 16 0
2.29 -0.273 -1.285 57 16 0
2.2920001 -0.273 -1.2920001 55 16 0
2.289 -0.271 -1.298 54 16 0
2.2869999 -0.27000001 -1.304 54 16 0
2.2880001 -0.26899999 -1.311 51 16 0
2.2850001 -0.26800001 -1.316 52 16 0
2.289 -0.26800001 -1.325 44 16 0
2.286 -0.266 -1.33 49 16 0
2.2869999 -0.26499999 -1.337 41 16 0
2.2880001 -0.264 -1.345 41 16 0
2.286 -0.26300001 -1.35 47 16 0
2.29 -0.26199999 -1.359 42 16 0
2.2880001 -0.26100001 -1.364 42 16 0
2.2920001 -0.25999999 -1.373 47 16 0
2.2880001 -0.25799999 -1.378 41 16 0
2.2850001 -0.257 -1.382 36 16 0
2.29 -0.25600001 -1.391 44 16 0
2.2850001 -0.25400001 -1.395 37 16 0
2.293 -0.25299999 -1.405 41 16 0
2.2920001 -0.25099999 -1.411 37 16 0
2.2950001 -0.25 -1.419 39 16 0
2.2939999 -0.248 -1.424 39 16 0
2.2909999 -0.24699999 -1.428 37 16 0
2.2939999 -0.245 -1.436 36 16 0
2.2939999 -0.243 -1.442 35 16 0
2.296 -0.242 -1.449 36 16 0
2.296 -0.23999999 -1.454 34 16 0
2.2950001 -0.23800001 -1.46 34 16 0
2.2969999 -0.236 -1.466 35 16 0
2.296 -0.234 -1.471 34 16 0
2.299 -0.233 -1.478 34 16 0
2.2980001 -0.23100001 -1.483 34 16 0
2.306 -0.229 -1.494 35 16 0
2.3039999 -0.227 -1.497 33 16 0
2.306 -0.22499999 -1.5039999 35 16 0
2.3080001 -0.223 -1.51 33 16 0
2.313 -0.221 -1.518 33 16 0
2.3180001 -0.22 -1.526 32 16 0
2.316 -0.21699999 -1.529 33 16 0
2.316 -0.215 -1.534 33 16 0
2.3210001 -0.213 -1.5420001 33 16 0
2.3210001 -0.20999999 -1.546 31 16 0
2.322 -0.208 -1.551 31 16 0
2.325 -0.206 -1.557 32 16 0
2.3239999 -0.20299999 -1.561 31 16 0
2.3329999 -0.20100001 -1.571 32 19 0
2.3329999 -0.199 -1.575 33 16 0
2.3340001 -0.19599999 -1.579 29 16 0
2.339 -0.19400001 -1.586 31 16 0
2.3399999 -0.191 -1.591 31 16 0
2.346 -0.189 -1.598 31 16 0
2.3510001 -0.18700001 -1.605 31 16 0
2.3570001 -0.184 -1.612 32 16 0
2.358 -0.182 -1.6160001 30 16 0
2.3610001 -0.17900001 -1.622 31 16 0
2.368 -0.176 -1.6289999 31 16 0
2.3659999 -0.17299999 -1.631 30 16 0
