# .PCD v0.7 - Point Cloud Data file format
VERSION 0.7
FIELDS x y z intensity tag line
SIZE 4 4 4 4 1 1
TYPE F F F F U U
COUNT 1 1 1 1 1 1
WIDTH 1377
HEIGHT 1
VIEWPOINT 0 0 0 1 0 0 0
POINTS 1377
DATA ascii
3.072 0.097000003 0.477 37 16 0
3.0510001 0.097999997 0.484 34 16 0
3.033 0.098999999 0.491 37 16 0
3.0209999 0.1 0.49900001 36 16 0
3.0079999 0.101 0.50700003 37 16 0
2.9890001 0.101 0.51300001 35 16 0
2.9749999 0.102 0.51999998 38 16 0
2.96 0.103 0.52700001 40 16 0
2.941 0.104 0.53399998 43 16 0
2.931 0.105 0.54100001 74 16 0
2.9119999 0.106 0.54799998 75 16 0
2.8940001 0.106 0.55299997 72 16 0
2.878 0.107 0.56 80 16 0
2.869 0.108 0.56800002 67 16 0
2.849 0.108 0.57300001 75 16 0
2.8410001 0.109 0.58099997 89 16 0
2.8180001 0.109 0.58499998 91 16 0
2.812 0.11 0.59299999 130 16 0
2.7950001 0.111 0.59899998 93 16 0
2.7809999 0.111 0.60500002 86 16 0
2.767 0.112 0.611 88 16 0
2.7590001 0.112 0.61799997 100 16 0
2.7360001 0.112 0.62300003 105 16 0
2.727 0.113 0.62900001 95 16 0
2.7190001 0.114 0.63599998 105 16 0
2.6930001 0.114 0.639 96 16 0
2.6900001 0.114 0.648 107 16 0
2.6760001 0.115 0.653 126 16 0
2.6619999 0.115 0.65899998 116 16 0
2.651 0.115 0.66500002 111 16 0
2.6370001 0.115 0.67000002 112 16 0
2.628 0.116 0.67699999 116 16 0
2.622 0.116 0.68400002 112 16 0
2.6040001 0.116 0.68800002 118 16 0
2.5880001 0.116 0.69199997 116 16 0
2.5780001 0.116 0.69800001 114 16 0
2.5680001 0.117 0.704 125 16 0
2.5550001 0.117 0.70899999 120 16 0
2.5409999 0.117 0.71399999 117 16 0
2.53 0.117 0.71899998 124 16 0
2.5179999 0.117 0.72399998 124 16 0
2.5090001 0.117 0.73000002 119 16 0
2.494 0.117 0.73400003 127 16 0
2.4820001 0.117 0.73900002 124 16 0
2.47 0.117 0.74400002 129 16 0
2.4619999 0.117 0.75 137 16 0
2.4460001 0.116 0.75300002 137 16 0
2.438 0.116 0.759 140 16 0
2.428 0.116 0.764 136 16 0
2.4170001 0.116 0.76800001 130 16 0
2.405 0.116 0.773 144 16 0
2.392 0.115 0.77700001 140 16 0
2.388 0.115 0.78399998 150 16 0
2.3740001 0.115 0.787 150 16 0
2.368 0.115 0.79299998 150 16 0
2.3570001 0.115 0.79799998 150 16 0
2.349 0.114 0.80299997 150 16 0
2.336 0.114 0.80599999 150 16 0
2.3310001 0.114 0.81199998 150 16 0
2.3169999 0.113 0.815 150 16 0
2.306 0.113 0.81999999 150 16 0
2.293 0.112 0.82200003 150 16 0
2.2850001 0.112 0.82700002 150 16 0
2.2780001 0.112 0.833 150 16 0
2.27 0.111 0.838 150 16 0
2.2539999 0.11 0.83899999 150 16 0
2.2460001 0.11 0.84399998 150 16 0
2.237 0.109 0.84799999 150 16 0
2.227 0.109 0.852 150 16 0
2.2179999 0.108 0.85600001 150 16 0
2.2079999 0.108 0.86000001 150 16 0
2.201 0.107 0.86500001 150 16 0
2.1900001 0.106 0.86799997 150 16 0
2.1819999 0.106 0.87199998 150 16 0
2.171 0.105 0.875 150 16 0
2.164 0.104 0.88 150 16 0
2.1570001 0.104 0.884 150 16 0
2.148 0.103 0.88800001 150 16 0
2.138 0.102 0.89099997 150 16 0
2.132 0.101 0.89499998 150 16 0
2.1270001 0.101 0.90100002 150 16 0
2.1170001 0.1 0.90399998 150 16 0
2.1059999 0.098999999 0.90600002 150 16 0
2.095 0.097999997 0.90799999 150 16 0
2.0910001 0.097000003 0.91399997 150 16 0
2.085 0.096000001 0.91799998 150 16 0
2.076 0.096000001 0.921 150 16 0
2.073 0.094999999 0.92699999 150 16 0
2.062 0.093999997 0.92900002 150 16 0
2.049 0.092 0.93000001 150 16 0
2.0439999 0.092 0.935 150 16 0
2.033 0.090000004 0.93699998 150 16 0
2.026 0.089000002 0.94 150 16 0
2.0220001 0.089000002 0.94499999 150 16 0
2.0139999 0.086999997 0.94800001 150 16 0
1.999 0.086000003 0.94800001 150 16 0
1.994 0.085000001 0.95200002 150 16 0
1.987 0.083999999 0.95499998 150 16 0
1.983 0.082999997 0.95999998 150 16 0
1.974 0.082000002 0.96200001 150 16 0
1.966 0.079999998 0.96499997 150 16 0
1.962 0.079000004 0.96899998 150 16 0
1.95 0.078000002 0.97000003 150 16 0
1.944 0.077 0.97299999 150 16 0
1.9400001 0.075999998 0.977 150 16 0
1.932 0.074000001 0.98000002 150 16 0
1.924 0.072999999 0.98199999 150 16 0
1.92 0.071999997 0.986 150 16 0
1.913 0.07 0.98900002 150 16 0
1.905 0.068999998 0.991 150 16 0
1.901 0.068000004 0.995 150 16 0
1.896 0.066 0.99900001 150 16 0
1.881 0.064999998 0.99599999 150 19 0
1.876 0.063000001 1 150 16 0
1.872 0.061999999 1.0039999 150 16 0
1.864 0.059999999 1.005 150 16 0
1.858 0.059 1.008 150 16 0
1.853 0.057999998 1.011 150 16 0
1.846 0.056000002 1.013 150 16 0
1.839 0.054000001 1.015 150 16 0
1.834 0.052999999 1.018 150 16 0
1.83 0.052000001 1.021 150 16 0
1.826 0.050000001 1.024 150 16 0
1.819 0.048 1.026 150 16 0
1.812 0.046999998 1.027 150 16 0
1.803 0.045000002 1.028 150 16 0
1.8 0.043000001 1.0319999 150 16 0
1.795 0.041999999 1.034 150 16 0
1.791 0.039999999 1.0369999 150 16 0
1.774 0.037999999 1.033 150 19 0
1.77 0.037 1.035 150 16 0
1.767 0.035 1.039 150 16 0
1.761 0.033 1.04 150 16 0
1.758 0.030999999 1.043 150 16 0
1.757 0.029999999 1.0470001 150 16 0
1.7539999 0.028000001 1.05 150 16 0
1.745 0.026000001 1.05 150 16 0
1.745 0.024 1.0549999 150 16 0
1.74 0.023 1.056 150 16 0
1.735 0.021 1.058 150 16 0
1.729 0.018999999 1.059 150 16 0
1.727 0.017000001 1.062 150 16 0
1.725 0.015 1.066 150 16 0
1.7130001 0.013 1.063 150 16 0
1.711 0.011 1.066 150 16 0
1.7079999 0.0099999998 1.068 150 16 0
1.704 0.0080000004 1.0700001 150 16 0
1.696 0.0060000001 1.069 150 16 0
1.694 0.0040000002 1.072 150 16 0
1.693 0.0020000001 1.075 150 16 0
1.689 0 1.077 150 16 0
1.683 -0.001 1.077 150 16 0
1.678 -0.003 1.0779999 150 16 0
1.676 -0.0049999999 1.08 150 16 0
1.674 -0.0070000002 1.082 150 16 0
1.67 -0.0089999996 1.084 150 16 0
1.67 -0.011 1.087 150 16 0
1.6670001 -0.013 1.089 150 16 0
1.664 -0.015 1.09 150 16 0
1.6619999 -0.017000001 1.092 150 16 0
1.658 -0.02 1.0930001 150 16 0
1.648 -0.022 1.09 150 16 0
1.646 -0.024 1.092 150 16 0
1.643 -0.026000001 1.0930001 150 16 0
1.642 -0.028000001 1.095 150 16 0
1.636 -0.029999999 1.094 150 16 0
1.632 -0.032000002 1.094 150 16 0
1.6339999 -0.034000002 1.098 150 16 0
1.6289999 -0.035999998 1.097 150 16 0
1.627 -0.039000001 1.098 150 16 0
1.626 -0.041000001 1.101 150 16 0
1.625 -0.043000001 1.102 150 16 0
1.623 -0.045000002 1.103 150 16 0
1.618 -0.046999998 1.102 150 16 0
1.623 -0.050000001 1.108 150 16 0
1.627 -0.052000001 1.112 150 16 0
1.626 -0.054000001 1.114 150 16 0
1.62 -0.056000002 1.112 150 16 0
1.618 -0.059 1.112 150 16 0
1.61 -0.061000001 1.109 150 19 0
1.605 -0.063000001 1.107 150 16 0
1.608 -0.064999998 1.1109999 150 16 0
1.605 -0.067000002 1.1109999 150 16 0
1.605 -0.07 1.112 150 16 0
1.601 -0.071999997 1.11 150 16 0
1.603 -0.074000001 1.113 150 16 0
1.602 -0.075999998 1.114 150 16 0
1.598 -0.079000004 1.112 150 16 0
1.597 -0.081 1.113 150 16 0
1.601 -0.082999997 1.1160001 150 16 0
1.594 -0.085000001 1.112 150 16 0
1.5930001 -0.088 1.113 150 16 0
1.595 -0.090000004 1.114 150 16 0
1.594 -0.092 1.114 150 16 0
1.594 -0.093999997 1.115 150 16 0
1.592 -0.097000003 1.114 150 16 0
1.592 -0.098999999 1.114 150 16 0
1.5930001 -0.101 1.115 150 16 0
1.5930001 -0.104 1.115 150 16 0
1.591 -0.106 1.114 150 16 0
1.591 -0.108 1.114 150 16 0
1.596 -0.111 1.117 150 16 0
1.594 -0.113 1.1160001 150 16 0
1.5930001 -0.115 1.115 150 16 0
1.591 -0.117 1.113 150 16 0
1.596 -0.12 1.1160001 150 16 0
1.596 -0.122 1.1160001 150 16 0
1.597 -0.124 1.1160001 150 16 0
1.598 -0.126 1.1160001 150 16 0
1.598 -0.12899999 1.115 150 16 0
1.6 -0.131 1.1160001 150 16 0
1.6 -0.133 1.114 150 16 0
1.599 -0.13500001 1.113 150 16 0
1.6 -0.13699999 1.112 150 16 0
1.601 -0.14 1.112 150 16 0
1.602 -0.142 1.1109999 150 16 0
1.603 -0.14399999 1.11 150 16 0
1.604 -0.146 1.11 150 16 0
1.605 -0.148 1.109 150 16 0
1.6059999 -0.15000001 1.108 150 16 0
1.61 -0.153 1.109 150 16 0
1.6109999 -0.155 1.108 150 16 0
1.613 -0.15700001 1.108 150 16 0
1.614 -0.15899999 1.1059999 150 16 0
1.615 -0.161 1.105 150 16 0
1.618 -0.163 1.104 150 16 0
1.617 -0.16500001 1.101 150 16 0
1.6210001 -0.167 1.102 150 16 0
1.622 -0.169 1.1 150 16 0
1.623 -0.171 1.098 150 16 0
1.624 -0.17299999 1.097 150 16 0
1.631 -0.176 1.099 150 16 0
1.6339999 -0.178 1.098 150 16 0
1.636 -0.18000001 1.096 150 16 0
1.637 -0.182 1.094 150 16 0
1.638 -0.183 1.092 150 16 0
1.652 -0.18700001 1.098 150 18 0
1.653 -0.18799999 1.096 150 16 0
1.654 -0.19 1.094 150 16 0
1.6569999 -0.192 1.092 150 16 0
1.66 -0.19400001 1.091 150 16 0
1.66 -0.19499999 1.0880001 150 16 0
1.664 -0.198 1.087 150 16 0
1.671 -0.2 1.087 150 16 0
1.673 -0.20200001 1.085 150 16 0
1.681 -0.204 1.087 150 16 0
1.686 -0.206 1.086 144 16 0
1.692 -0.208 1.086 131 16 0
1.696 -0.20999999 1.085 117 16 0
1.701 -0.212 1.084 133 16 0
1.699 -0.213 1.0779999 150 16 0
1.702 -0.215 1.077 150 16 0
1.705 -0.21600001 1.075 150 16 0
1.711 -0.21799999 1.074 150 16 0
1.712 -0.22 1.0700001 150 16 0
1.716 -0.221 1.068 150 16 0
1.723 -0.223 1.068 150 16 0
1.726 -0.22499999 1.0650001 150 16 0
1.727 -0.226 1.062 150 16 0
1.7309999 -0.227 1.0599999 150 16 0
1.735 -0.229 1.057 150 16 0
1.738 -0.23 1.0549999 150 16 0
1.7410001 -0.23199999 1.052 150 16 0
1.747 -0.233 1.051 150 16 0
1.749 -0.235 1.0470001 150 16 0
1.765 -0.23800001 1.051 150 19 0
1.771 -0.23899999 1.05 150 16 0
1.773 -0.23999999 1.046 150 16 0
1.777 -0.241 1.043 150 16 0
1.783 -0.243 1.0420001 150 16 0
1.789 -0.244 1.04 150 16 0
1.795 -0.24600001 1.038 150 16 0
1.803 -0.248 1.0369999 150 16 0
1.807 -0.249 1.034 150 16 0
1.813 -0.25 1.0319999 150 16 0
1.819 -0.252 1.03 150 16 0
1.825 -0.25299999 1.028 150 16 0
1.8279999 -0.25400001 1.024 150 16 0
1.836 -0.255 1.023 150 16 0
1.84 -0.25600001 1.02 150 16 0
1.845 -0.257 1.017 150 16 0
1.852 -0.259 1.0140001 150 16 0
1.8559999 -0.25999999 1.011 150 16 0
1.868 -0.26100001 1.012 150 16 0
1.874 -0.26300001 1.0089999 150 16 0
1.881 -0.264 1.007 150 16 0
1.885 -0.26499999 1.003 150 16 0
1.8890001 -0.26499999 0.99900001 150 16 0
1.898 -0.26699999 0.99800003 150 16 0
1.905 -0.26800001 0.995 150 16 0
1.911 -0.26899999 0.99199998 150 16 0
1.919 -0.27000001 0.99000001 150 16 0
1.928 -0.271 0.98799998 150 16 0
1.9299999 -0.271 0.98299998 150 16 0
1.939 -0.27200001 0.98100001 150 16 0
1.943 -0.273 0.977 150 16 0
1.956 -0.27399999 0.977 150 16 0
1.96 -0.27500001 0.97299999 150 16 0
1.966 -0.27500001 0.96899998 150 16 0
1.972 -0.27599999 0.96600002 150 16 0
1.979 -0.27700001 0.963 142 16 0
1.984 -0.27700001 0.95899999 150 16 0
2.0009999 -0.27900001 0.95999998 149 16 0
2.0079999 -0.28 0.95700002 135 16 0
2.016 -0.28 0.954 140 16 0
2.0239999 -0.28099999 0.95099998 150 16 0
2.0320001 -0.28200001 0.94800001 150 16 0
2.039 -0.28200001 0.94400001 140 16 0
2.0450001 -0.28200001 0.94 150 16 0
2.0539999 -0.28299999 0.93699998 136 16 0
2.0610001 -0.28299999 0.93400002 140 16 0
2.0699999 -0.28400001 0.93099999 135 16 0
2.0769999 -0.28400001 0.92699999 149 16 0
2.086 -0.285 0.92400002 150 16 0
2.0910001 -0.285 0.91900003 132 16 0
2.102 -0.28600001 0.917 139 16 0
2.108 -0.285 0.912 141 16 0
2.1170001 -0.28600001 0.90899998 135 16 0
2.125 -0.28600001 0.90499997 129 16 0
2.131 -0.28600001 0.90100002 135 16 0
2.138 -0.28600001 0.89700001 129 16 0
2.148 -0.28600001 0.89399999 132 16 0
2.155 -0.28600001 0.889 135 16 0
2.168 -0.287 0.88700002 138 16 0
2.177 -0.287 0.884 126 16 0
2.1849999 -0.287 0.88 135 16 0
2.1949999 -0.287 0.87599999 108 16 0
2.2049999 -0.28799999 0.87300003 91 16 0
2.2090001 -0.287 0.86699998 81 16 0
2.2219999 -0.287 0.86400002 76 16 0
2.2290001 -0.287 0.86000001 74 16 0
2.2390001 -0.287 0.85600001 92 16 0
2.2490001 -0.287 0.852 96 16 0
2.2590001 -0.287 0.84799999 95 16 0
2.2650001 -0.28600001 0.84299999 86 16 0
2.277 -0.287 0.83999997 84 16 0
2.2869999 -0.28600001 0.83600003 83 16 0
2.299 -0.28600001 0.833 82 16 0
2.3039999 -0.285 0.82700002 79 16 0
2.3199999 -0.28600001 0.82499999 85 16 0
2.329 -0.285 0.81999999 87 16 0
2.335 -0.285 0.81400001 83 16 0
2.3469999 -0.28400001 0.81099999 80 16 0
2.355 -0.28400001 0.80599999 77 16 0
2.3629999 -0.28299999 0.801 80 16 0
2.3740001 -0.28299999 0.796 88 16 0
2.3859999 -0.28200001 0.79299998 73 16 0
2.395 -0.28200001 0.787 71 16 0
2.402 -0.28099999 0.78200001 77 16 0
2.414 -0.28 0.778 69 16 0
2.428 -0.28 0.77399999 68 16 0
2.434 -0.27900001 0.76800001 73 16 0
2.4449999 -0.278 0.76300001 66 16 0
2.454 -0.27700001 0.75800002 69 16 0
2.461 -0.27599999 0.75199997 74 16 0
2.4820001 -0.27599999 0.75 77 16 0
2.4890001 -0.27500001 0.74400002 69 16 0
2.5020001 -0.27399999 0.74000001 68 16 0
2.507 -0.273 0.73299998 65 16 0
2.526 -0.273 0.73000002 59 16 0
2.5309999 -0.271 0.72399998 64 16 0
2.543 -0.27000001 0.71899998 57 16 0
2.556 -0.26899999 0.71399999 52 16 0
2.5680001 -0.26800001 0.70899999 48 16 0
2.579 -0.26699999 0.704 48 16 0
2.596 -0.26699999 0.69999999 67 16 0
2.602 -0.26499999 0.69300002 42 16 0
2.6170001 -0.264 0.68900001 36 16 0
2.631 -0.26300001 0.68400002 44 16 0
2.642 -0.26199999 0.67799997 37 16 0
2.648 -0.25999999 0.671 36 16 0
2.6619999 -0.259 0.66600001 37 16 0
2.6700001 -0.257 0.66000003 29 16 0
2.684 -0.25600001 0.65399998 29 16 0
2.6960001 -0.25400001 0.64899999 29 16 0
2.711 -0.25299999 0.64300001 29 16 0
2.721 -0.25099999 0.63700002 29 16 0
2.733 -0.25 0.63099998 29 16 0
2.747 -0.248 0.62599999 28 16 0
2.7609999 -0.24699999 0.62 29 16 0
2.773 -0.245 0.61400002 29 16 0
2.786 -0.244 0.60799998 30 16 0
2.8010001 -0.242 0.602 28 16 0
2.8139999 -0.23999999 0.59600002 28 16 0
2.8269999 -0.23800001 0.58999997 28 16 0
2.8410001 -0.237 0.58399999 28 16 0
2.852 -0.235 0.57700002 28 16 0
2.865 -0.233 0.57099998 28 16 0
2.882 -0.23100001 0.565 29 16 0
2.8959999 -0.229 0.55900002 27 16 0
2.9100001 -0.227 0.55199999 29 16 0
2.921 -0.22499999 0.54500002 28 16 0
2.9330001 -0.222 0.53799999 29 16 0
2.9460001 -0.22 0.53100002 29 16 0
2.9690001 -0.219 0.52600002 30 16 0
2.9820001 -0.21600001 0.51899999 29 16 0
3.0009999 -0.214 0.51300001 30 16 0
3.013 -0.212 0.50599998 29 16 0
3.029 -0.20999999 0.49900001 28 16 0
3.0450001 -0.207 0.49200001 28 16 0
3.0610001 -0.205 0.486 29 16 0
3.0769999 -0.20299999 0.479 28 16 0
3.098 -0.2 0.472 29 16 0
3.1110001 -0.198 0.465 29 16 0
3.131 -0.19499999 0.458 32 16 0
3.1470001 -0.193 0.45100001 34 16 0
3.1589999 -0.19 0.44299999 39 16 0
3.175 -0.18700001 0.435 38 16 0
3.187 -0.184 0.42699999 32 16 0
3.184 -0.18000001 0.417 25 16 0
3.1949999 -0.177 0.40900001 25 16 0
3.197 -0.17299999 0.39899999 23 16 0
3.197 -0.17 0.38999999 24 16 0
3.2090001 -0.16599999 0.38100001 25 16 0
3.2119999 -0.163 0.37200001 26 16 0
3.214 -0.15899999 0.36199999 25 16 0
3.2179999 -0.155 0.35299999 26 16 0
3.224 -0.15099999 0.34400001 26 16 0
3.2260001 -0.148 0.33399999 23 16 0
3.2379999 -0.14399999 0.32600001 24 16 0
3.2449999 -0.141 0.317 25 16 0
3.24 -0.13600001 0.30599999 24 16 0
3.2490001 -0.133 0.29699999 24 16 0
3.257 -0.12899999 0.28799999 23 16 0
3.2590001 -0.125 0.27900001 23 16 0
3.2639999 -0.121 0.26899999 24 16 0
3.273 -0.117 0.25999999 23 16 0
3.2739999 -0.113 0.25099999 23 16 0
3.283 -0.109 0.241 24 16 0
3.286 -0.105 0.23199999 24 16 0
3.2920001 -0.101 0.222 24 16 0
3.3010001 -0.097000003 0.213 24 16 0
3.3050001 -0.093000002 0.204 24 16 0
3.312 -0.089000002 0.19400001 23 16 0
3.3150001 -0.083999999 0.184 23 16 0
3.322 -0.079999998 0.175 24 16 0
3.322 -0.075999998 0.16500001 24 16 0
3.332 -0.071999997 0.156 32 16 0
3.3329999 -0.067000002 0.146 46 16 0
3.3269999 -0.063000001 0.13600001 107 16 0
3.3210001 -0.057999998 0.126 92 16 0
3.312 -0.054000001 0.116 77 16 0
3.3039999 -0.048999999 0.106 65 16 0
3.2969999 -0.045000002 0.096000001 57 16 0
3.2920001 -0.039999999 0.086000003 69 16 0
3.2820001 -0.035 0.075999998 78 16 0
3.277 -0.030999999 0.066 82 16 0
3.2690001 -0.026000001 0.056000002 82 16 0
3.266 -0.022 0.046999998 48 16 0
3.2579999 -0.017000001 0.037 30 16 0
3.2590001 -0.013 0.028000001 21 16 0
3.27 -0.0080000004 0.017999999 15 16 0
3.2720001 -0.0040000002 0.0089999996 14 16 0
3.279 0 0 15 16 0
3.2909999 0.0040000002 -0.0099999998 15 16 0
3.2909999 0.0089999996 -0.018999999 16 16 0
3.2980001 0.014 -0.028999999 16 16 0
3.3080001 0.017999999 -0.039000001 19 16 0
3.3110001 0.023 -0.048 31 16 0
3.306 0.028000001 -0.057999998 42 16 0
3.293 0.032000002 -0.067000002 48 16 0
3.2850001 0.037 -0.077 45 16 0
3.2780001 0.041999999 -0.086000003 48 16 0
3.273 0.046 -0.094999999 43 16 0
3.2690001 0.050999999 -0.105 38 16 0
3.263 0.056000002 -0.114 39 16 0
3.257 0.059999999 -0.123 46 16 0
3.2520001 0.064999998 -0.132 55 16 0
3.247 0.07 -0.141 54 16 0
3.2390001 0.074000001 -0.15000001 59 16 0
3.2290001 0.079000004 -0.15899999 54 16 0
3.2290001 0.083999999 -0.169 59 16 0
3.2179999 0.088 -0.177 50 16 0
3.211 0.093000002 -0.186 55 16 0
3.207 0.097999997 -0.19499999 59 16 0
3.2 0.102 -0.204 52 16 0
3.191 0.107 -0.213 57 16 0
3.181 0.111 -0.221 55 16 0
3.1800001 0.116 -0.23 53 16 0
3.1719999 0.121 -0.23899999 64 16 0
3.165 0.125 -0.24699999 55 16 0
3.158 0.13 -0.25600001 69 16 0
3.1570001 0.13500001 -0.26499999 66 16 0
3.1440001 0.139 -0.27200001 50 16 0
3.1429999 0.14399999 -0.28099999 50 16 0
3.1340001 0.149 -0.28999999 49 16 0
3.1259999 0.153 -0.29800001 62 16 0
3.118 0.15800001 -0.30599999 62 16 0
3.1129999 0.162 -0.31400001 58 16 0
3.112 0.167 -0.32300001 71 16 0
3.105 0.17200001 -0.331 67 16 0
3.0929999 0.176 -0.33899999 56 16 0
3.092 0.18099999 -0.347 61 16 0
3.0799999 0.185 -0.35499999 63 16 0
3.0780001 0.19 -0.36300001 68 16 0
3.0710001 0.19499999 -0.37099999 73 16 0
3.0599999 0.199 -0.37799999 55 16 0
3.056 0.204 -0.38600001 61 16 0
3.0539999 0.20900001 -0.39500001 61 16 0
3.0439999 0.213 -0.40200001 68 16 0
3.0420001 0.21799999 -0.41100001 78 16 0
3.0350001 0.223 -0.41800001 66 16 0
3.0250001 0.227 -0.42500001 59 16 0
3.0239999 0.23199999 -0.43399999 53 16 0
3.0150001 0.236 -0.44100001 72 16 0
3.0109999 0.241 -0.449 55 16 0
3.0020001 0.24600001 -0.456 73 16 0
3 0.25 -0.46399999 61 16 0
2.9909999 0.255 -0.47099999 70 16 0
2.987 0.25999999 -0.479 95 16 0
2.983 0.26499999 -0.48699999 124 16 0
2.9749999 0.26899999 -0.49399999 108 16 0
2.97 0.27399999 -0.50099999 122 16 0
2.9649999 0.278 -0.509 106 16 0
2.954 0.28299999 -0.51499999 114 16 0
2.9519999 0.287 -0.523 99 16 0
2.95 0.292 -0.53100002 114 16 0
2.9400001 0.29699999 -0.53799999 122 16 0
2.938 0.30199999 -0.54500002 108 16 0
2.9349999 0.30700001 -0.55299997 123 16 0
2.9260001 0.31099999 -0.56 114 16 0
2.921 0.31600001 -0.56699997 132 16 0
2.9070001 0.31999999 -0.57200003 126 16 0
2.9000001 0.324 -0.579 121 16 0
2.8959999 0.329 -0.58600003 120 16 0
2.8900001 0.33399999 -0.59299999 127 16 0
2.8859999 0.338 -0.60000002 126 16 0
2.882 0.34299999 -0.60699999 117 16 0
2.8770001 0.34799999 -0.61400002 130 16 0
2.8710001 0.35299999 -0.62099999 126 16 0
2.8640001 0.35699999 -0.62699997 134 16 0
2.8629999 0.36199999 -0.63499999 132 16 0
2.8540001 0.36700001 -0.64099997 117 16 0
2.846 0.37099999 -0.64700001 128 16 0
2.839 0.37599999 -0.653 129 16 0
2.836 0.38100001 -0.66000003 117 16 0
2.8329999 0.38600001 -0.667 125 16 0
2.822 0.38999999 -0.67299998 127 16 0
2.8199999 0.39500001 -0.68000001 124 16 0
2.816 0.40000001 -0.68699998 146 16 0
2.812 0.405 -0.69300002 139 16 0
2.803 0.40900001 -0.699 138 16 0
2.8 0.414 -0.70599997 140 16 0
2.796 0.419 -0.71200001 150 16 0
2.7909999 0.42399999 -0.71899998 150 16 0
2.7839999 0.428 -0.72399998 136 16 0
2.7809999 0.433 -0.73100001 150 16 0
2.773 0.43799999 -0.73699999 149 16 0
2.766 0.442 -0.74199998 150 16 0
2.7609999 0.447 -0.74900001 144 16 0
2.7579999 0.45199999 -0.755 150 16 0
2.753 0.45699999 -0.76099998 146 16 0
2.7490001 0.46200001 -0.76800001 150 16 0
2.7390001 0.46599999 -0.77200001 150 16 0
2.7379999 0.47099999 -0.77899998 150 16 0
2.7279999 0.47499999 -0.78399998 150 16 0
2.7249999 0.47999999 -0.79000002 150 16 0
2.711 0.484 -0.79299998 150 16 0
2.7190001 0.491 -0.80299997 150 16 0
2.7049999 0.49399999 -0.80599999 150 16 0
2.7079999 0.5 -0.81400001 150 16 0
2.694 0.50300002 -0.81699997 150 16 0
2.6949999 0.50999999 -0.824 150 16 0
2.691 0.51499999 -0.82999998 150 16 0
2.687 0.51999998 -0.83600003 150 16 0
2.6789999 0.52399999 -0.84100002 150 16 0
2.6760001 0.52899998 -0.847 150 16 0
2.671 0.53399998 -0.852 150 16 0
2.6619999 0.53799999 -0.85600001 150 16 0
2.6589999 0.54299998 -0.86199999 150 16 0
2.654 0.54799998 -0.86699998 150 16 0
2.652 0.55299997 -0.87400001 150 16 0
2.6470001 0.55800003 -0.87900001 150 16 0
2.6389999 0.56300002 -0.88300002 150 16 0
2.632 0.56699997 -0.88700002 150 16 0
2.635 0.574 -0.89499998 150 16 0
2.6300001 0.57800001 -0.89999998 150 16 0
2.6199999 0.58200002 -0.903 150 16 0
2.6199999 0.588 -0.91000003 150 16 0
2.618 0.59399998 -0.91600001 96 16 0
2.615 0.59899998 -0.921 17 16 0
2.612 0.60399997 -0.92699999 3 16 0
2.678 0.62599999 -0.95700002 0 17 0
2.6670001 0.62900001 -0.95999998 0 16 0
2.6600001 0.634 -0.96399999 0 16 0
2.6570001 0.639 -0.96899998 0 16 0
2.6670001 0.648 -0.98000002 0 16 0
2.645 0.64899999 -0.97799999 0 16 0
2.6470001 0.65600002 -0.98500001 0 16 0
0 0 0 0 16 0
0 0 0 0 16 0
2.6489999 0.67500001 -1.005 0 16 0
2.6140001 0.67199999 -0.99800003 0 18 0
2.6170001 0.67900002 -1.005 0 16 0
2.6159999 0.68599999 -1.011 0 16 0
2.529 0.66900003 -0.98299998 0 17 0
2.54 0.67799997 -0.99400002 9 16 0
2.5309999 0.68199998 -0.99599999 34 16 0
2.5280001 0.68699998 -1.001 150 16 0
2.517 0.69 -1.002 150 16 0
2.5209999 0.69800001 -1.01 150 16 0
2.507 0.69999999 -1.01 150 16 0
2.5039999 0.70499998 -1.0140001 150 16 0
2.4990001 0.70999998 -1.018 150 16 0
2.4960001 0.71499997 -1.022 150 16 0
2.493 0.72000003 -1.026 150 16 0
2.4879999 0.72500002 -1.03 150 16 0
2.4809999 0.72899997 -1.0319999 150 16 0
2.48 0.73500001 -1.038 150 16 0
2.477 0.74000001 -1.0420001 150 16 0
2.471 0.745 -1.044 150 16 0
2.4679999 0.75 -1.048 150 16 0
2.4649999 0.755 -1.052 150 16 0
2.46 0.75999999 -1.0549999 150 16 0
2.4560001 0.76499999 -1.058 150 16 0
2.4530001 0.76999998 -1.062 150 16 0
2.447 0.77399999 -1.064 150 16 0
2.447 0.78100002 -1.069 150 16 0
2.444 0.78600001 -1.073 150 16 0
2.437 0.79000002 -1.075 150 16 0
2.431 0.79400003 -1.077 150 16 0
2.428 0.79900002 -1.08 150 16 0
2.425 0.80400002 -1.084 150 16 0
2.421 0.80900002 -1.086 150 16 0
2.4189999 0.815 -1.09 150 16 0
2.4159999 0.81999999 -1.0930001 150 16 0
2.4100001 0.824 -1.095 150 16 0
2.408 0.829 -1.098 150 16 0
2.404 0.83399999 -1.1 150 16 0
2.4000001 0.83899999 -1.103 150 16 0
2.398 0.84399998 -1.1059999 150 16 0
2.395 0.84899998 -1.108 150 16 0
2.388 0.85299999 -1.109 150 16 0
2.385 0.85799998 -1.112 150 16 0
2.3829999 0.86299998 -1.114 150 16 0
2.382 0.86900002 -1.118 150 16 0
2.3759999 0.87300003 -1.119 150 16 0
2.3740001 0.87800002 -1.1210001 150 16 0
2.368 0.88200003 -1.122 150 16 0
2.3659999 0.88700002 -1.125 150 16 0
2.3629999 0.89099997 -1.127 150 16 0
2.3599999 0.89600003 -1.1289999 150 16 0
2.3570001 0.90100002 -1.131 150 16 0
2.3540001 0.90499997 -1.132 150 16 0
2.3469999 0.90899998 -1.132 150 16 0
2.345 0.91399997 -1.1339999 150 16 0
2.339 0.917 -1.1339999 150 16 0
2.3429999 0.92400002 -1.1390001 150 16 0
2.335 0.92699999 -1.138 150 16 0
2.332 0.93099999 -1.1390001 150 16 0
2.3269999 0.935 -1.1390001 150 16 0
2.3239999 0.94 -1.141 150 16 0
2.329 0.94700003 -1.146 150 16 0
2.3440001 0.95899999 -1.155 151 16 0
2.3399999 0.963 -1.156 151 16 0
2.3269999 0.963 -1.151 151 16 0
2.312 0.96200001 -1.146 150 16 0
2.3099999 0.96700001 -1.147 150 16 0
2.3069999 0.97100002 -1.148 150 16 0
2.3050001 0.97500002 -1.149 150 16 0
2.306 0.98100001 -1.151 150 16 0
2.3039999 0.98500001 -1.152 150 16 0
2.2980001 0.98799998 -1.15 150 16 0
2.2980001 0.99299997 -1.152 150 16 0
2.296 0.99699998 -1.152 150 16 0
2.2920001 1.001 -1.152 150 16 0
2.2869999 1.003 -1.15 150 16 0
2.283 1.006 -1.15 150 16 0
2.2809999 1.011 -1.15 150 16 0
2.2809999 1.015 -1.151 150 16 0
2.2780001 1.0190001 -1.15 150 16 0
2.276 1.022 -1.15 150 16 0
2.2739999 1.026 -1.15 150 16 0
2.2739999 1.031 -1.15 150 16 0
2.2709999 1.034 -1.149 150 16 0
2.2690001 1.0369999 -1.149 150 16 0
2.267 1.041 -1.148 150 16 0
2.266 1.045 -1.148 150 16 0
2.267 1.05 -1.148 150 16 0
2.26 1.051 -1.145 150 16 0
2.26 1.0549999 -1.145 150 16 0
2.2609999 1.059 -1.145 150 16 0
2.26 1.063 -1.145 150 16 0
2.256 1.0650001 -1.143 150 16 0
2.256 1.069 -1.142 150 16 0
2.2550001 1.072 -1.141 150 16 0
2.2539999 1.075 -1.14 150 16 0
2.2509999 1.0779999 -1.138 150 16 0
2.2539999 1.0829999 -1.138 150 16 0
2.2509999 1.085 -1.136 150 16 0
2.25 1.0880001 -1.135 150 16 0
2.25 1.091 -1.133 150 16 0
2.2479999 1.0930001 -1.132 150 16 0
2.2479999 1.096 -1.13 150 16 0
2.243 1.097 -1.126 150 16 0
2.247 1.102 -1.127 150 16 0
2.243 1.103 -1.123 150 16 0
2.244 1.107 -1.122 150 16 0
2.2409999 1.108 -1.119 150 16 0
2.244 1.112 -1.119 150 16 0
2.2409999 1.113 -1.115 150 16 0
2.244 1.117 -1.115 150 16 0
2.244 1.12 -1.113 150 16 0
2.2479999 1.124 -1.113 150 16 0
2.2409999 1.123 -1.107 150 16 0
2.2409999 1.125 -1.105 150 16 0
2.2409999 1.127 -1.102 150 16 0
2.2409999 1.1289999 -1.1 150 16 0
2.244 1.132 -1.099 151 16 0
2.2420001 1.133 -1.095 150 16 0
2.244 1.136 -1.0930001 150 16 0
2.244 1.138 -1.091 150 16 0
2.2449999 1.1390001 -1.0880001 150 16 0
2.2460001 1.141 -1.086 150 16 0
2.2460001 1.143 -1.0829999 151 16 0
2.2460001 1.1440001 -1.079 151 16 0
2.2449999 1.145 -1.076 150 16 0
2.2479999 1.147 -1.074 151 16 0
2.247 1.148 -1.0700001 151 16 0
2.25 1.15 -1.068 151 16 0
2.2509999 1.151 -1.0650001 151 16 0
2.2490001 1.151 -1.0599999 151 16 0
2.25 1.152 -1.057 151 16 0
2.2550001 1.156 -1.056 151 16 0
2.253 1.155 -1.051 151 16 0
2.256 1.1569999 -1.048 151 16 0
2.2550001 1.1569999 -1.044 151 16 0
2.257 1.1569999 -1.041 151 16 0
2.2590001 1.159 -1.038 151 16 0
2.2620001 1.16 -1.035 151 16 0
2.26 1.159 -1.03 151 16 0
2.2639999 1.16 -1.027 151 16 0
2.263 1.16 -1.023 151 16 0
2.2639999 1.16 -1.0190001 151 16 0
2.2679999 1.161 -1.016 151 16 0
2.27 1.1619999 -1.012 151 16 0
2.27 1.161 -1.007 151 16 0
2.273 1.1619999 -1.0039999 151 16 0
2.2750001 1.1619999 -1 151 16 0
2.277 1.1619999 -0.99599999 151 16 0
2.28 1.1619999 -0.99299997 151 16 0
2.28 1.161 -0.98799998 151 16 0
2.2809999 1.16 -0.98299998 151 16 0
2.283 1.16 -0.97899997 151 16 0
2.286 1.16 -0.97600001 151 16 0
2.2880001 1.16 -0.972 151 16 0
2.29 1.159 -0.96700001 151 16 0
2.2920001 1.158 -0.963 151 16 0
2.296 1.159 -0.95999998 151 16 0
2.2980001 1.158 -0.95499998 151 16 0
2.3010001 1.1569999 -0.95099998 151 16 0
2.3010001 1.155 -0.94599998 151 16 0
2.3050001 1.155 -0.94199997 151 16 0
2.306 1.153 -0.93699998 151 16 0
2.3050001 1.15 -0.93099999 150 16 0
2.3099999 1.15 -0.92799997 150 16 0
2.316 1.151 -0.92500001 151 16 0
2.316 1.148 -0.91900003 151 16 0
2.325 1.15 -0.917 150 16 0
2.335 1.152 -0.91600001 24 16 0
2.342 1.153 -0.91299999 4 16 0
2.3510001 1.155 -0.91000003 2 16 0
2.3559999 1.154 -0.90700001 1 16 0
2.352 1.149 -0.89899999 1 16 0
2.3640001 1.151 -0.898 1 16 0
2.3640001 1.148 -0.89200002 1 16 0
2.352 1.1390001 -0.88200003 1 19 0
2.3599999 1.14 -0.87900001 1 16 0
2.3640001 1.138 -0.875 1 16 0
2.3699999 1.137 -0.87099999 1 16 0
2.3629999 1.131 -0.86299998 1 16 0
2.3729999 1.132 -0.86000001 1 16 0
2.378 1.13 -0.85600001 1 16 0
2.392 1.133 -0.85500002 1 16 0
2.3829999 1.125 -0.84600002 1 16 0
2.3859999 1.122 -0.84100002 1 16 0
2.392 1.1210001 -0.83700001 7 16 0
2.3889999 1.1160001 -0.82999998 35 16 0
2.388 1.1109999 -0.824 150 16 0
2.3889999 1.107 -0.81800002 150 16 0
2.3929999 1.105 -0.81300002 150 16 0
2.3959999 1.102 -0.80800003 150 16 0
2.3989999 1.099 -0.80299997 150 16 0
2.404 1.097 -0.79900002 150 16 0
2.405 1.0930001 -0.79299998 150 16 0
2.4089999 1.09 -0.78899997 150 16 0
2.415 1.0880001 -0.78399998 150 16 0
2.4159999 1.084 -0.77899998 150 16 0
2.4200001 1.081 -0.77399999 150 16 0
2.424 1.0779999 -0.76899999 150 16 0
2.427 1.074 -0.764 150 16 0
2.4319999 1.072 -0.759 150 16 0
2.434 1.067 -0.75400001 150 16 0
2.4349999 1.063 -0.74800003 150 16 0
2.447 1.063 -0.74599999 150 16 0
2.451 1.0599999 -0.741 150 16 0
2.454 1.056 -0.736 150 16 0
2.457 1.052 -0.73100001 150 16 0
2.4619999 1.049 -0.72600001 150 16 0
2.4630001 1.044 -0.72000003 150 16 0
2.4719999 1.0420001 -0.71700001 150 16 0
2.4760001 1.038 -0.71200001 150 16 0
2.473 1.0319999 -0.70499998 150 16 0
2.4820001 1.03 -0.70099998 150 16 0
2.4849999 1.026 -0.69599998 150 16 0
2.4890001 1.022 -0.69099998 150 16 0
2.497 1.0190001 -0.68699998 150 16 0
2.4990001 1.0140001 -0.68199998 150 16 0
2.503 1.01 -0.67699999 150 16 0
2.507 1.006 -0.67199999 150 16 0
2.51 1.001 -0.667 150 16 0
2.5150001 0.99699998 -0.662 150 16 0
2.5190001 0.99299997 -0.65700001 150 16 0
2.5280001 0.99000001 -0.653 150 16 0
2.527 0.98400003 -0.64700001 150 16 0
2.536 0.98100001 -0.64300001 150 16 0
2.5369999 0.97600001 -0.63700002 150 16 0
2.549 0.97399998 -0.634 151 16 0
2.5669999 0.97500002 -0.63300002 151 16 0
2.573 0.97000003 -0.62800002 150 16 0
2.5610001 0.95999998 -0.61900002 150 16 0
2.5539999 0.95099998 -0.61199999 150 16 0
2.5599999 0.94700003 -0.60699999 150 16 0
2.5639999 0.94199997 -0.602 150 16 0
2.5669999 0.93599999 -0.597 150 16 0
2.5710001 0.93099999 -0.59200001 150 16 0
2.582 0.92900002 -0.58899999 150 16 0
2.5910001 0.926 -0.58499998 150 16 0
2.5910001 0.91900003 -0.579 150 16 0
2.5999999 0.91500002 -0.57499999 150 16 0
2.6040001 0.91000003 -0.56999999 150 16 0
2.6070001 0.90399998 -0.565 150 16 0
2.6099999 0.89899999 -0.56 150 16 0
2.6170001 0.89499998 -0.55599999 150 16 0
2.6229999 0.88999999 -0.551 150 16 0
2.6259999 0.884 -0.546 150 16 0
2.6259999 0.87699997 -0.54000002 150 16 0
2.635 0.87300003 -0.53600001 150 16 0
2.6370001 0.86699998 -0.53100002 150 16 0
2.645 0.86199999 -0.52600002 150 16 0
2.6559999 0.85900003 -0.523 150 16 0
2.654 0.85100001 -0.51700002 150 16 0
2.6600001 0.84600002 -0.51200002 150 16 0
2.665 0.84100002 -0.50800002 150 16 0
2.671 0.83600003 -0.50300002 150 16 0
2.674 0.829 -0.498 150 16 0
2.6819999 0.82499999 -0.49399999 150 16 0
2.6830001 0.81800002 -0.48800001 150 16 0
2.688 0.81199998 -0.48300001 150 16 0
2.6960001 0.80699998 -0.479 150 16 0
2.7019999 0.80199999 -0.47499999 150 16 0
2.7049999 0.79500002 -0.47 150 16 0
2.7130001 0.79100001 -0.46599999 150 16 0
2.7149999 0.78399998 -0.46000001 150 16 0
2.7179999 0.77700001 -0.45500001 150 16 0
2.7260001 0.77200001 -0.45100001 150 16 0
2.7290001 0.76599997 -0.44600001 150 16 0
2.7320001 0.759 -0.44100001 150 16 0
2.74 0.75400001 -0.43700001 150 16 0
2.7490001 0.74800003 -0.433 150 16 0
2.753 0.74199998 -0.428 150 16 0
2.756 0.73500001 -0.42300001 150 16 0
2.7679999 0.73100001 -0.419 150 16 0
2.7720001 0.72500002 -0.414 150 16 0
2.7750001 0.71799999 -0.40900001 150 16 0
2.779 0.71100003 -0.405 150 16 0
2.7839999 0.70499998 -0.40000001 150 16 0
2.7880001 0.69800001 -0.39500001 150 16 0
2.793 0.69099998 -0.38999999 150 16 0
2.803 0.68599999 -0.38600001 150 16 0
2.8080001 0.68000001 -0.382 150 16 0
2.809 0.67199999 -0.377 150 16 0
2.816 0.66600001 -0.37200001 150 16 0
2.826 0.66000003 -0.368 150 16 0
2.8280001 0.653 -0.36300001 150 16 0
2.8310001 0.64600003 -0.35800001 150 16 0
2.8440001 0.64099997 -0.35499999 150 16 0
2.846 0.63300002 -0.34999999 150 16 0
2.852 0.62699997 -0.345 150 16 0
2.855 0.61900002 -0.34 150 16 0
2.8610001 0.61299998 -0.336 150 16 0
2.8659999 0.60600001 -0.331 150 16 0
2.8729999 0.59899998 -0.32699999 150 16 0
2.8740001 0.59100002 -0.322 150 16 0
2.8840001 0.58499998 -0.31799999 150 16 0
2.8889999 0.57800001 -0.31299999 150 16 0
2.892 0.57099998 -0.308 150 16 0
2.9030001 0.565 -0.30399999 150 16 0
2.908 0.55699998 -0.30000001 150 16 0
2.915 0.551 -0.29499999 150 16 0
2.9170001 0.54299998 -0.28999999 150 16 0
2.9189999 0.53500003 -0.285 150 16 0
2.9300001 0.528 -0.28099999 150 16 0
2.941 0.52200001 -0.27700001 150 16 0
2.9419999 0.514 -0.27200001 150 16 0
2.9489999 0.50700003 -0.26800001 150 16 0
2.954 0.49900001 -0.26300001 150 16 0
2.961 0.49200001 -0.259 150 16 0
2.967 0.48500001 -0.25400001 150 16 0
2.974 0.477 -0.25 150 16 0
2.9790001 0.47 -0.245 150 16 0
2.9820001 0.46200001 -0.241 150 16 0
2.99 0.454 -0.236 150 16 0
2.9960001 0.447 -0.23199999 150 16 0
3.003 0.43900001 -0.227 150 16 0
3.0039999 0.43099999 -0.223 150 16 0
3.0120001 0.42399999 -0.21799999 150 16 0
3.0150001 0.41600001 -0.214 150 16 0
3.027 0.40799999 -0.20900001 150 16 0
3.0320001 0.40000001 -0.205 150 16 0
3.0339999 0.39199999 -0.2 150 16 0
3.0420001 0.384 -0.19599999 150 16 0
3.05 0.377 -0.191 150 16 0
3.0550001 0.36899999 -0.18700001 150 16 0
3.0650001 0.361 -0.183 150 16 0
3.0650001 0.352 -0.178 150 16 0
3.072 0.34400001 -0.17299999 150 16 0
3.0799999 0.336 -0.169 150 16 0
3.0910001 0.329 -0.16500001 149 16 0
3.096 0.31999999 -0.16 150 16 0
3.102 0.31200001 -0.156 150 16 0
3.1070001 0.30399999 -0.15099999 146 16 0
3.118 0.296 -0.147 125 16 0
3.1229999 0.287 -0.142 130 16 0
3.128 0.27900001 -0.138 124 16 0
3.131 0.27000001 -0.133 120 16 0
3.1440001 0.26199999 -0.12899999 124 16 0
3.1489999 0.25299999 -0.124 142 16 0
3.158 0.245 -0.12 118 16 0
3.1659999 0.236 -0.115 127 16 0
3.171 0.228 -0.111 122 16 0
3.175 0.219 -0.106 116 16 0
3.1849999 0.20999999 -0.102 108 16 0
3.1960001 0.20200001 -0.097999997 111 16 0
3.198 0.192 -0.093000002 103 16 0
3.2090001 0.184 -0.089000002 105 16 0
3.214 0.175 -0.083999999 115 16 0
3.221 0.16599999 -0.079999998 109 16 0
3.2290001 0.15700001 -0.075000003 107 16 0
3.2360001 0.148 -0.071000002 103 16 0
3.2460001 0.139 -0.066 105 16 0
3.25 0.13 -0.061999999 97 16 0
3.2539999 0.12 -0.057 94 16 0
3.263 0.111 -0.052000001 89 16 0
3.276 0.102 -0.048 89 16 0
3.2780001 0.092 -0.043000001 99 16 0
3.283 0.082999997 -0.039000001 80 16 0
3.289 0.072999999 -0.034000002 89 16 0
3.2939999 0.064000003 -0.029999999 53 16 0
3.3039999 0.055 -0.025 48 16 0
3.306 0.045000002 -0.021 91 16 0
3.316 0.035 -0.016000001 55 16 0
3.3299999 0.026000001 -0.012 37 16 0
3.3039999 0.016000001 -0.0070000002 21 16 0
3.2869999 0.0060000001 -0.003 19 16 0
3.2690001 -0.003 0.001 18 16 0
3.25 -0.012 0.0049999999 29 16 0
3.2550001 -0.022 0.0099999998 139 16 0
3.2579999 -0.030999999 0.014 150 16 0
3.2639999 -0.041000001 0.018999999 150 16 0
3.277 -0.050999999 0.023 150 16 0
3.2809999 -0.061000001 0.027000001 150 16 0
3.283 -0.07 0.032000002 45 16 0
3.2609999 -0.079999998 0.035999998 30 16 0
3.2349999 -0.088 0.039999999 29 16 0
3.22 -0.097999997 0.044 29 16 0
3.207 -0.107 0.048 31 16 0
3.1849999 -0.115 0.052000001 32 16 0
3.1700001 -0.124 0.056000002 32 16 0
3.1489999 -0.133 0.059 32 16 0
3.1329999 -0.141 0.063000001 31 16 0
3.112 -0.15000001 0.066 30 16 0
3.099 -0.15800001 0.07 31 16 0
3.0769999 -0.16599999 0.074000001 30 16 0
3.0580001 -0.17399999 0.077 31 16 0
3.046 -0.183 0.079999998 31 16 0
3.026 -0.191 0.083999999 32 16 0
3.003 -0.198 0.086999997 31 16 0
2.9909999 -0.207 0.090000004 31 16 0
2.971 -0.214 0.093000002 29 16 0
2.9579999 -0.222 0.097000003 30 16 0
2.9389999 -0.23 0.1 32 16 0
2.928 -0.23800001 0.103 32 16 0
2.911 -0.245 0.106 31 16 0
2.892 -0.252 0.109 34 16 0
2.8789999 -0.259 0.111 32 16 0
2.865 -0.26699999 0.114 30 16 0
2.849 -0.27399999 0.117 33 16 0
2.829 -0.28099999 0.12 34 16 0
2.8180001 -0.28799999 0.123 35 16 0
2.8039999 -0.29499999 0.125 35 16 0
2.79 -0.30199999 0.12800001 34 16 0
2.773 -0.30899999 0.131 36 16 0
2.76 -0.31600001 0.133 35 16 0
2.7409999 -0.322 0.13500001 34 16 0
2.733 -0.329 0.138 37 16 0
2.7219999 -0.33700001 0.141 37 16 0
2.711 -0.34299999 0.14300001 36 16 0
2.6989999 -0.34999999 0.146 36 16 0
2.6849999 -0.35699999 0.148 41 16 0
2.671 -0.36300001 0.15000001 34 16 0
2.655 -0.36899999 0.152 37 16 0
2.6400001 -0.375 0.155 41 16 0
2.6289999 -0.382 0.15700001 49 16 0
2.6159999 -0.38800001 0.15899999 47 16 0
2.596 -0.39300001 0.161 44 16 0
2.5880001 -0.40000001 0.163 51 16 0
2.575 -0.40599999 0.16500001 52 16 0
2.566 -0.412 0.167 61 16 0
2.5539999 -0.41800001 0.169 58 16 0
2.5369999 -0.42300001 0.171 64 16 0
2.526 -0.42899999 0.17299999 58 16 0
2.5139999 -0.435 0.175 69 16 0
2.5039999 -0.44100001 0.177 77 16 0
2.493 -0.447 0.178 80 16 0
2.4820001 -0.45300001 0.18000001 84 16 0
2.4679999 -0.458 0.182 82 16 0
2.4579999 -0.46399999 0.184 84 16 0
2.4430001 -0.46900001 0.185 76 16 0
2.4330001 -0.47499999 0.18700001 83 16 0
2.4230001 -0.47999999 0.18799999 78 16 0
2.4100001 -0.48500001 0.19 68 16 0
2.4000001 -0.491 0.191 80 16 0
2.3870001 -0.49599999 0.193 80 16 0
2.3729999 -0.50099999 0.19400001 84 16 0
2.3659999 -0.50700003 0.19599999 82 16 0
2.3510001 -0.51099998 0.197 92 16 0
2.3380001 -0.51499999 0.198 79 16 0
2.335 -0.52200001 0.2 80 16 0
2.322 -0.52700001 0.20100001 91 16 0
2.312 -0.53200001 0.20299999 82 16 0
2.302 -0.537 0.204 94 16 0
2.2880001 -0.54100001 0.205 92 16 0
2.276 -0.546 0.206 90 16 0
2.2650001 -0.55000001 0.207 89 16 0
2.257 -0.55500001 0.208 85 16 0
2.243 -0.55900002 0.20900001 94 16 0
2.234 -0.56400001 0.20999999 103 16 0
2.223 -0.56900001 0.211 90 16 0
2.2160001 -0.574 0.212 109 16 0
2.2060001 -0.579 0.213 102 16 0
2.1989999 -0.58399999 0.215 94 16 0
2.184 -0.58700001 0.215 111 16 0
2.175 -0.59200001 0.21600001 99 16 0
2.168 -0.597 0.21699999 102 16 0
2.1589999 -0.60100001 0.21799999 115 16 0
2.1429999 -0.60399997 0.21799999 112 16 0
2.1359999 -0.60900003 0.219 117 16 0
2.122 -0.61199999 0.22 119 16 0
2.1140001 -0.61699998 0.221 122 16 0
2.1029999 -0.62 0.221 126 16 0
2.099 -0.62599999 0.222 121 16 0
2.0899999 -0.63 0.223 126 16 0
2.0769999 -0.63300002 0.223 134 16 0
2.0639999 -0.63599998 0.223 129 16 0
2.062 -0.64200002 0.22499999 132 16 0
2.049 -0.64499998 0.22499999 122 16 0
2.0469999 -0.65100002 0.226 115 16 0
2.0369999 -0.65499997 0.226 150 16 0
2.0320001 -0.66000003 0.227 150 16 0
2.0120001 -0.66000003 0.226 150 19 0
2.01 -0.66600001 0.228 150 16 0
1.999 -0.66900003 0.228 150 16 0
1.992 -0.67400002 0.228 150 16 0
1.984 -0.67699999 0.229 150 16 0
1.975 -0.68099999 0.229 150 16 0
1.971 -0.68599999 0.23 150 16 0
1.959 -0.68800002 0.23 150 16 0
1.948 -0.69099998 0.23 150 16 0
1.939 -0.69400001 0.23 150 16 0
1.933 -0.699 0.23 150 16 0
1.929 -0.704 0.23100001 150 16 0
1.911 -0.704 0.23 150 16 0
1.906 -0.708 0.23 150 16 0
1.899 -0.71200001 0.23100001 150 16 0
1.895 -0.71700001 0.23100001 150 16 0
1.8839999 -0.71899998 0.23100001 150 16 0
1.886 -0.72600001 0.23199999 2 0 0
1.8710001 -0.727 0.23100001 150 16 0
1.8609999 -0.72899997 0.23100001 150 16 0
1.8559999 -0.73400003 0.23100001 150 16 0
1.85 -0.73699999 0.23100001 150 16 0
1.8430001 -0.741 0.23100001 150 16 0
1.832 -0.74299997 0.23100001 150 16 0
1.83 -0.74800003 0.23100001 150 16 0
1.822 -0.75099999 0.23100001 2 0 0
1.814 -0.75300002 0.23100001 3 0 0
1.804 -0.755 0.23100001 150 16 0
1.796 -0.75800002 0.23 150 16 0
1.789 -0.76099998 0.23 3 0 0
1.779 -0.76300001 0.229 150 16 0
1.776 -0.76800001 0.23 150 16 0
1.77 -0.77100003 0.229 2 0 0
1.7640001 -0.77399999 0.229 150 16 0
1.758 -0.778 0.229 3 0 0
1.7460001 -0.778 0.228 2 0 0
1.742 -0.78200001 0.228 3 0 0
1.734 -0.78399998 0.227 1 0 0
1.729 -0.78799999 0.227 96 0 0
1.721 -0.79000002 0.227 75 0 0
1.711 -0.79100001 0.226 96 0 0
1.7079999 -0.79500002 0.226 106 0 0
1.704 -0.79900002 0.22499999 96 0 0
1.698 -0.80199999 0.22499999 128 0 0
1.693 -0.80599999 0.22499999 150 0 0
1.691 -0.81 0.22499999 104 0 0
1.6799999 -0.81 0.223 109 0 0
1.67 -0.81199998 0.222 132 0 0
1.661 -0.81300002 0.221 101 0 0
1.6569999 -0.81599998 0.221 109 0 0
1.654 -0.81999999 0.221 143 0 0
1.647 -0.82200003 0.22 123 0 0
1.642 -0.82499999 0.219 84 0 0
1.6339999 -0.82599998 0.21799999 133 0 0
1.6289999 -0.829 0.21799999 104 0 0
1.624 -0.83200002 0.21699999 119 0 0
1.617 -0.83399999 0.21600001 150 0 0
1.6109999 -0.83499998 0.215 127 0 0
1.603 -0.83700001 0.214 139 0 0
1.599 -0.83999997 0.213 129 0 0
1.594 -0.84200001 0.213 150 0 0
1.589 -0.84500003 0.212 150 0 0
1.585 -0.847 0.211 108 0 0
1.569 -0.84399998 0.20900001 150 3 0
1.567 -0.84799999 0.208 150 0 0
1.5650001 -0.852 0.208 150 0 0
1.561 -0.85399997 0.207 150 0 0
1.559 -0.85799998 0.206 150 0 0
1.552 -0.85900003 0.205 141 0 0
1.551 -0.86400002 0.204 150 0 0
1.5470001 -0.866 0.20299999 150 0 0
1.54 -0.86699998 0.20200001 129 0 0
1.535 -0.86900002 0.20100001 4 0 0
1.531 -0.87099999 0.2 150 0 0
1.524 -0.87199998 0.199 5 0 0
1.52 -0.87400001 0.197 0 0 0
1.518 -0.87699997 0.197 135 0 0
1.512 -0.87800002 0.19499999 150 16 0
1.507 -0.87900001 0.19400001 150 0 0
1.499 -0.87900001 0.192 127 0 0
1.497 -0.88300002 0.191 150 0 0
1.4910001 -0.88300002 0.19 150 0 0
1.489 -0.88599998 0.189 150 0 0
1.485 -0.88800001 0.18799999 148 0 0
1.483 -0.89099997 0.18700001 136 0 0
1.478 -0.89200002 0.185 144 0 0
1.472 -0.89300001 0.184 150 0 0
1.464 -0.89200002 0.182 119 0 0
1.462 -0.89399999 0.18099999 117 0 0
1.461 -0.898 0.18000001 150 0 0
1.454 -0.898 0.178 150 0 0
1.452 -0.89999998 0.177 124 0 0
1.449 -0.90200001 0.175 127 0 0
1.4450001 -0.903 0.17399999 126 0 0
1.441 -0.90399998 0.17200001 150 0 0
1.439 -0.90600002 0.171 150 0 0
1.437 -0.90799999 0.17 150 0 0
1.429 -0.90700001 0.168 150 0 0
1.428 -0.91000003 0.16599999 150 0 0
1.426 -0.912 0.16500001 115 0 0
1.425 -0.91500002 0.164 141 0 0
1.416 -0.912 0.162 150 3 0
1.4119999 -0.91299999 0.16 126 0 0
1.4119999 -0.91600001 0.15899999 141 0 0
1.41 -0.917 0.15700001 150 0 0
1.408 -0.92000002 0.156 129 0 0
1.4 -0.917 0.154 150 3 0
1.398 -0.91799998 0.152 136 0 0
1.3940001 -0.91900003 0.15000001 141 0 0
1.395 -0.92199999 0.149 150 0 0
1.392 -0.92299998 0.147 117 0 0
1.3890001 -0.92400002 0.146 150 0 0
1.385 -0.92299998 0.14399999 150 0 0
1.383 -0.92500001 0.142 145 0 0
1.381 -0.926 0.14 150 0 0
1.38 -0.92699999 0.139 140 0 0
1.372 -0.92500001 0.13699999 131 3 0
1.37 -0.92500001 0.13500001 142 0 0
1.369 -0.92699999 0.133 123 0 0
1.37 -0.92900002 0.132 150 0 0
1.365 -0.92799997 0.13 128 0 0
1.3660001 -0.93099999 0.12800001 139 0 0
1.363 -0.93099999 0.126 100 0 0
1.3559999 -0.92799997 0.124 150 3 0
1.358 -0.93099999 0.123 128 0 0
1.355 -0.93099999 0.121 137 0 0
1.358 -0.93400002 0.119 138 0 0
1.3559999 -0.935 0.117 150 0 0
1.3559999 -0.93599999 0.116 126 0 0
1.352 -0.93400002 0.114 146 0 0
1.351 -0.935 0.112 128 0 0
1.351 -0.93599999 0.11 124 0 0
1.348 -0.93599999 0.108 148 0 0
1.35 -0.93800002 0.106 150 0 0
1.347 -0.93699998 0.104 117 0 0
1.347 -0.93800002 0.103 126 0 0
1.345 -0.93699998 0.101 138 0 0
1.344 -0.93800002 0.098999999 114 0 0
1.344 -0.93900001 0.097000003 126 0 0
1.344 -0.93900001 0.094999999 97 0 0
1.345 -0.94099998 0.093000002 116 0 0
1.341 -0.93800002 0.090999998 106 0 0
1.341 -0.93900001 0.089000002 150 0 0
1.3380001 -0.93699998 0.086999997 122 0 0
1.342 -0.94 0.086000003 126 0 0
1.3380001 -0.93800002 0.083999999 123 0 0
1.337 -0.93699998 0.082000002 142 0 0
1.342 -0.94099998 0.079999998 118 3 0
1.337 -0.93800002 0.078000002 113 0 0
1.336 -0.93699998 0.075999998 127 0 0
1.3380001 -0.93800002 0.074000001 112 0 0
1.336 -0.93599999 0.071999997 137 0 0
1.334 -0.935 0.07 105 0 0
1.336 -0.93599999 0.068000004 116 0 0
1.339 -0.93800002 0.066 123 0 0
1.337 -0.93599999 0.064000003 138 0 0
1.3329999 -0.93199998 0.061999999 118 0 0
1.3380001 -0.935 0.061000001 150 0 0
1.3380001 -0.93400002 0.059 150 0 0
1.3380001 -0.93300003 0.057 98 0 0
1.339 -0.93300003 0.055 144 0 0
1.34 -0.93300003 0.052999999 150 0 0
1.342 -0.93300003 0.050999999 113 0 0
1.3430001 -0.93300003 0.048999999 98 0 0
1.34 -0.93000001 0.046999998 136 0 0
1.344 -0.93199998 0.046 100 0 0
1.3430001 -0.92900002 0.044 140 0 0
1.347 -0.93099999 0.041999999 150 0 0
1.348 -0.93000001 0.039999999 150 0 0
1.347 -0.92799997 0.037999999 105 0 0
1.345 -0.92500001 0.035999998 139 0 0
1.346 -0.92400002 0.034000002 150 0 0
1.35 -0.92500001 0.032000002 150 0 0
1.355 -0.926 0.030999999 145 0 0
1.349 -0.921 0.028999999 140 0 0
1.3559999 -0.92400002 0.027000001 137 0 0
1.353 -0.92000002 0.025 115 0 0
1.358 -0.921 0.023 150 0 0
1.359 -0.92000002 0.021 118 0 0
1.36 -0.91799998 0.02 135 0 0
1.3609999 -0.917 0.017999999 88 0 0
1.362 -0.91500002 0.016000001 123 0 0
1.363 -0.91399997 0.014 133 0 0
1.365 -0.912 0.012 115 0 0
1.369 -0.912 0.011 133 0 0
1.37 -0.91100001 0.0089999996 135 0 0
1.3710001 -0.90799999 0.0070000002 132 0 0
1.373 -0.90700001 0.0049999999 137 0 0
1.376 -0.90600002 0.0040000002 130 0 0
1.377 -0.90399998 0.0020000001 124 0 0
1.378 -0.90200001 0 131 0 0
1.38 -0.89999998 -0.001 121 0 0
1.385 -0.90100002 -0.0020000001 121 0 0
1.386 -0.89899999 -0.0040000002 116 0 0
1.387 -0.89600003 -0.0060000001 103 0 0
1.3890001 -0.89399999 -0.0070000002 143 0 0
1.391 -0.89200002 -0.0089999996 150 0 0
1.3940001 -0.89099997 -0.0099999998 125 0 0
1.399 -0.89099997 -0.012 120 0 0
1.4 -0.88800001 -0.014 111 0 0
1.403 -0.88700002 -0.015 138 0 0
1.408 -0.88700002 -0.017000001 131 0 0
1.4119999 -0.88499999 -0.017999999 110 0 0
1.411 -0.88099998 -0.02 124 0 0
1.413 -0.87900001 -0.022 138 0 0
1.42 -0.88 -0.023 116 0 0
1.421 -0.87699997 -0.025 150 0 0
1.423 -0.87400001 -0.026000001 150 0 0
1.4299999 -0.875 -0.028000001 132 0 0
1.431 -0.87199998 -0.028999999 115 0 0
1.433 -0.86900002 -0.030999999 107 0 0
1.437 -0.86799997 -0.032000002 87 0 0
1.444 -0.86799997 -0.034000002 129 0 0
1.449 -0.866 -0.035 143 0 0
1.45 -0.86299998 -0.035999998 127 0 0
1.452 -0.86000001 -0.037999999 114 0 0
1.455 -0.85799998 -0.039000001 121 0 0
1.459 -0.85600001 -0.041000001 140 0 0
1.465 -0.85500002 -0.041999999 144 0 0
1.471 -0.85399997 -0.043000001 139 0 0
1.473 -0.85100001 -0.045000002 138 0 0
1.475 -0.84799999 -0.046 137 0 0
1.477 -0.84500003 -0.046999998 127 0 0
1.485 -0.84500003 -0.048999999 138 0 0
1.49 -0.84299999 -0.050000001 132 0 0
1.4910001 -0.83899999 -0.050999999 131 0 0
1.495 -0.83700001 -0.052000001 149 0 0
1.505 -0.838 -0.054000001 125 0 0
1.5039999 -0.833 -0.055 86 0 0
1.5089999 -0.83099997 -0.056000002 99 0 0
1.516 -0.82999998 -0.057 100 0 0
1.516 -0.82499999 -0.057999998 111 0 0
1.524 -0.82499999 -0.059999999 118 0 0
1.533 -0.82499999 -0.061000001 89 0 0
1.533 -0.81999999 -0.061999999 78 0 0
1.5369999 -0.81699997 -0.063000001 106 0 0
1.545 -0.81599998 -0.064000003 87 0 0
1.548 -0.81300002 -0.064999998 106 0 0
1.551 -0.80900002 -0.066 102 0 0
1.557 -0.80800003 -0.067000002 66 0 0
1.564 -0.80599999 -0.068000004 89 0 0
1.567 -0.80299997 -0.068999998 75 0 0
1.577 -0.80299997 -0.071000002 67 0 0
1.5779999 -0.79799998 -0.071000002 71 0 0
1.589 -0.79900002 -0.072999999 106 0 0
1.59 -0.79299998 -0.074000001 79 0 0
1.596 -0.79100001 -0.075000003 112 0 0
1.599 -0.78799999 -0.075000003 105 0 0
1.607 -0.78600001 -0.075999998 76 0 0
1.608 -0.78100002 -0.077 101 0 0
1.623 -0.78299999 -0.078000002 46 3 0
1.626 -0.77899998 -0.079000004 97 0 0
1.632 -0.77700001 -0.079999998 59 0 0
1.637 -0.773 -0.081 75 0 0
1.64 -0.76899999 -0.082000002 72 0 0
1.649 -0.76800001 -0.082999997 150 16 0
1.651 -0.764 -0.082999997 150 16 0
1.66 -0.76200002 -0.083999999 150 16 0
1.6670001 -0.75999999 -0.085000001 79 0 0
1.675 -0.75800002 -0.086000003 72 0 0
1.683 -0.75599998 -0.086999997 150 16 0
1.686 -0.75099999 -0.086999997 82 0 0
1.696 -0.75 -0.088 89 0 0
1.698 -0.745 -0.089000002 78 0 0
1.7079999 -0.74400002 -0.089000002 79 0 0
1.7130001 -0.74000001 -0.090000004 62 0 0
1.72 -0.73699999 -0.090999998 47 0 0
1.725 -0.73299998 -0.090999998 56 0 0
1.7309999 -0.73000002 -0.092 49 0 0
1.745 -0.73000002 -0.093000002 65 0 0
1.753 -0.72799999 -0.093999997 49 0 0
1.758 -0.72399998 -0.093999997 60 0 0
1.7640001 -0.72000003 -0.093999997 45 0 0
1.767 -0.71499997 -0.094999999 38 0 0
1.774 -0.71200001 -0.094999999 42 0 0
1.785 -0.70999998 -0.096000001 44 0 0
1.7920001 -0.70700002 -0.097000003 43 0 0
1.798 -0.70300001 -0.097000003 42 0 0
1.803 -0.699 -0.097000003 32 0 0
1.814 -0.69700003 -0.097999997 1 0 0
1.819 -0.69300002 -0.097999997 42 0 0
1.827 -0.69 -0.098999999 1 0 0
1.835 -0.68599999 -0.098999999 1 0 0
1.84 -0.68199998 -0.098999999 149 16 0
1.854 -0.68099999 -0.1 2 0 0
1.86 -0.67699999 -0.1 1 0 0
1.8660001 -0.67299998 -0.1 2 0 0
1.872 -0.66799998 -0.101 2 0 0
1.881 -0.66500002 -0.101 150 16 0
1.887 -0.66100001 -0.101 150 16 0
1.9 -0.65899998 -0.102 139 16 0
1.905 -0.65399998 -0.102 137 16 0
1.914 -0.65100002 -0.102 137 16 0
1.921 -0.64700001 -0.102 145 16 0
1.927 -0.64200002 -0.102 141 16 0
1.9349999 -0.63800001 -0.102 135 16 0
1.9400001 -0.63300002 -0.102 127 16 0
1.9579999 -0.63300002 -0.103 140 19 0
1.967 -0.62900001 -0.103 129 16 0
1.969 -0.62300003 -0.103 132 16 0
1.983 -0.62 -0.103 130 16 0
1.995 -0.61799997 -0.103 128 16 0
1.999 -0.61199999 -0.103 116 16 0
2.0109999 -0.60900003 -0.103 130 16 0
2.017 -0.60399997 -0.103 117 16 0
2.0239999 -0.59899998 -0.103 119 16 0
2.036 -0.59600002 -0.103 112 16 0
2.049 -0.59299999 -0.103 108 16 0
2.0550001 -0.58700001 -0.103 105 16 0
2.0610001 -0.58200002 -0.103 101 16 0
2.075 -0.579 -0.103 100 16 0
2.086 -0.57499999 -0.103 95 16 0
2.098 -0.57200003 -0.103 103 16 0
2.1040001 -0.56599998 -0.102 91 16 0
2.115 -0.56199998 -0.102 85 16 0
2.1210001 -0.55699998 -0.102 95 16 0
2.1359999 -0.55400002 -0.102 89 16 0
