# .PCD v0.7 - Point Cloud Data file format
VERSION 0.7
FIELDS x y z intensity tag line
SIZE 4 4 4 4 1 1
TYPE F F F F U U
COUNT 1 1 1 1 1 1
WIDTH 1369
HEIGHT 1
VIEWPOINT 0 0 0 1 0 0 0
POINTS 1369
DATA ascii
2.0840001 0.54799998 0.90399998 150 16 0
2.0780001 0.54799998 0.90799999 150 16 0
2.073 0.54900002 0.912 150 16 0
2.063 0.54799998 0.91399997 150 16 0
2.0580001 0.54900002 0.91799998 150 16 0
2.0480001 0.54799998 0.921 150 16 0
2.043 0.54799998 0.92500001 150 16 0
2.0339999 0.54799998 0.92699999 150 16 0
2.027 0.54799998 0.93000001 150 16 0
2.0209999 0.54799998 0.93400002 150 16 0
2.0090001 0.54699999 0.93400002 150 16 0
2.0050001 0.54699999 0.93900001 150 16 0
1.998 0.54699999 0.94199997 150 16 0
1.992 0.54699999 0.94499999 150 16 0
1.987 0.54699999 0.949 150 16 0
1.978 0.546 0.95099998 150 16 0
1.974 0.546 0.95499998 150 16 0
1.967 0.546 0.958 150 16 0
1.9579999 0.54400003 0.95899999 150 16 0
1.949 0.54299998 0.95999998 150 16 0
1.944 0.54299998 0.96399999 150 16 0
1.933 0.54100001 0.96499997 150 16 0
1.924 0.54000002 0.96600002 150 16 0
1.919 0.53899997 0.96899998 150 16 0
1.916 0.54000002 0.97399998 150 16 0
1.911 0.53899997 0.977 150 16 0
1.909 0.54000002 0.98100001 150 16 0
1.898 0.537 0.98100001 150 16 0
1.895 0.537 0.98500001 150 16 0
1.8839999 0.53500003 0.98500001 150 16 0
1.883 0.53600001 0.99000001 150 16 0
1.873 0.53399998 0.991 150 16 0
1.869 0.53299999 0.99400002 150 16 0
1.867 0.53299999 0.99800003 150 16 0
1.855 0.52999997 0.99699998 150 16 0
1.852 0.52999997 1.001 150 16 0
1.849 0.52999997 1.0039999 150 16 0
1.844 0.52899998 1.007 150 16 0
1.837 0.52700001 1.008 150 16 0
1.835 0.52700001 1.012 150 16 0
1.83 0.52600002 1.0140001 150 16 0
1.823 0.52399999 1.015 150 16 0
1.8150001 0.52200001 1.016 150 16 0
1.811 0.52100003 1.0190001 150 16 0
1.808 0.51999998 1.022 150 16 0
1.804 0.51899999 1.024 150 16 0
1.794 0.51599997 1.023 150 16 0
1.791 0.51499999 1.026 150 16 0
1.789 0.51499999 1.03 150 16 0
1.786 0.514 1.0319999 150 16 0
1.779 0.51200002 1.033 150 16 0
1.776 0.50999999 1.035 150 16 0
1.77 0.50800002 1.036 150 16 0
1.762 0.50599998 1.036 150 16 0
1.76 0.505 1.039 150 16 0
1.7589999 0.50400001 1.043 150 16 0
1.751 0.50099999 1.0420001 150 16 0
1.752 0.50099999 1.046 150 16 0
1.749 0.5 1.049 150 16 0
1.744 0.498 1.05 150 16 0
1.7410001 0.49599999 1.051 150 16 0
1.7359999 0.49399999 1.052 150 16 0
1.732 0.49200001 1.054 150 16 0
1.7309999 0.491 1.056 150 16 0
1.729 0.49000001 1.059 150 16 0
1.725 0.48800001 1.0599999 150 16 0
1.717 0.484 1.059 150 16 0
1.716 0.48300001 1.062 150 16 0
1.7130001 0.48100001 1.063 150 16 0
1.712 0.47999999 1.0650001 150 16 0
1.706 0.477 1.0650001 150 16 0
1.7029999 0.47499999 1.066 150 16 0
1.689 0.47 1.0599999 150 18 0
1.688 0.46900001 1.063 150 16 0
1.686 0.46700001 1.064 150 16 0
1.686 0.46599999 1.066 150 16 0
1.6849999 0.46399999 1.069 150 16 0
1.678 0.461 1.067 150 16 0
1.6799999 0.46000001 1.0700001 150 16 0
1.679 0.458 1.072 150 16 0
1.676 0.456 1.073 150 16 0
1.676 0.454 1.075 150 16 0
1.6720001 0.45199999 1.075 150 16 0
1.671 0.44999999 1.076 150 16 0
1.67 0.44800001 1.0779999 150 16 0
1.669 0.44600001 1.079 150 16 0
1.666 0.44299999 1.079 150 16 0
1.665 0.44100001 1.08 150 16 0
1.661 0.43799999 1.079 150 16 0
1.661 0.43599999 1.081 150 16 0
1.661 0.43399999 1.082 150 16 0
1.659 0.43200001 1.082 150 16 0
1.66 0.43000001 1.085 150 16 0
1.658 0.428 1.085 150 16 0
1.6569999 0.42500001 1.085 150 16 0
1.6569999 0.42300001 1.086 150 16 0
1.656 0.421 1.087 150 16 0
1.656 0.419 1.087 150 16 0
1.656 0.41600001 1.0880001 150 16 0
1.652 0.41299999 1.086 150 16 0
1.652 0.41100001 1.087 150 16 0
1.652 0.40900001 1.087 150 16 0
1.653 0.40700001 1.0880001 150 16 0
1.651 0.40400001 1.0880001 150 16 0
1.651 0.40200001 1.0880001 150 16 0
1.653 0.40000001 1.09 150 16 0
1.653 0.39700001 1.09 150 16 0
1.648 0.39399999 1.087 150 16 0
1.65 0.39199999 1.0880001 150 16 0
1.648 0.389 1.087 150 16 0
1.648 0.38600001 1.086 150 16 0
1.649 0.384 1.086 150 16 0
1.651 0.382 1.087 150 16 0
1.65 0.37900001 1.086 150 16 0
1.651 0.377 1.087 150 16 0
1.653 0.37400001 1.087 150 16 0
1.652 0.37099999 1.086 150 16 0
1.653 0.36899999 1.086 150 16 0
1.654 0.366 1.086 150 16 0
1.656 0.36399999 1.086 150 16 0
1.6569999 0.36199999 1.085 150 16 0
1.658 0.359 1.085 150 16 0
1.658 0.35600001 1.084 150 16 0
1.661 0.354 1.085 150 16 0
1.66 0.35100001 1.082 150 16 0
1.6619999 0.34900001 1.082 150 16 0
1.664 0.34599999 1.082 150 16 0
1.664 0.34299999 1.08 150 16 0
1.665 0.34099999 1.079 150 16 0
1.67 0.33899999 1.081 150 16 0
1.669 0.336 1.0779999 150 16 0
1.677 0.33500001 1.082 150 16 0
1.676 0.331 1.079 150 16 0
1.677 0.329 1.0779999 150 16 0
1.679 0.32600001 1.077 150 16 0
1.683 0.324 1.077 150 16 0
1.684 0.32100001 1.076 150 16 0
1.683 0.31799999 1.072 150 16 0
1.687 0.31600001 1.073 150 16 0
1.6900001 0.31299999 1.071 150 16 0
1.693 0.31099999 1.071 150 16 0
1.698 0.30899999 1.071 150 16 0
1.696 0.30599999 1.067 150 16 0
1.698 0.303 1.066 150 16 0
1.704 0.301 1.066 150 16 0
1.706 0.29800001 1.0650001 150 16 0
1.711 0.296 1.0650001 150 16 0
1.71 0.29300001 1.061 150 16 0
1.717 0.29100001 1.062 150 16 0
1.7180001 0.289 1.0599999 150 16 0
1.721 0.28600001 1.058 150 16 0
1.726 0.28400001 1.058 150 16 0
1.728 0.28099999 1.0549999 150 16 0
1.73 0.278 1.053 150 16 0
1.732 0.27599999 1.051 150 16 0
1.735 0.273 1.049 150 16 0
1.7359999 0.27000001 1.045 150 16 0
1.74 0.26800001 1.044 150 16 0
1.742 0.26499999 1.0420001 150 16 0
1.7460001 0.26300001 1.04 150 16 0
1.75 0.26100001 1.038 150 16 0
1.752 0.25799999 1.035 150 16 0
1.768 0.25799999 1.041 150 18 0
1.774 0.255 1.04 150 16 0
1.778 0.25299999 1.038 150 16 0
1.783 0.25099999 1.0369999 150 16 0
1.785 0.248 1.034 150 16 0
1.789 0.24600001 1.031 150 16 0
1.793 0.243 1.03 150 16 0
1.7970001 0.241 1.027 150 16 0
1.806 0.23899999 1.028 150 16 0
1.806 0.236 1.023 150 16 0
1.813 0.234 1.022 150 16 0
1.819 0.23199999 1.021 150 16 0
1.822 0.229 1.018 150 16 0
1.826 0.227 1.015 150 16 0
1.832 0.22499999 1.013 150 16 0
1.837 0.223 1.011 150 16 0
1.842 0.22 1.0089999 150 16 0
1.846 0.21799999 1.006 150 16 0
1.852 0.21600001 1.0039999 150 16 0
1.857 0.214 1.002 150 16 0
1.8609999 0.211 0.99900001 150 16 0
1.87 0.20999999 0.99800003 150 16 0
1.875 0.207 0.99599999 150 16 0
1.886 0.206 0.99599999 150 16 0
1.892 0.204 0.99400002 150 16 0
1.897 0.20100001 0.991 150 16 0
1.901 0.199 0.98699999 150 16 0
1.906 0.197 0.98400003 150 16 0
1.91 0.19499999 0.98100001 150 16 0
1.92 0.193 0.98000002 150 16 0
1.928 0.191 0.97899997 150 16 0
1.9299999 0.189 0.97399998 150 16 0
1.938 0.18700001 0.972 150 16 0
1.9450001 0.185 0.97000003 150 16 0
1.9529999 0.183 0.96799999 150 16 0
1.955 0.18000001 0.963 150 16 0
1.964 0.17900001 0.96200001 150 16 0
1.9680001 0.176 0.95700002 150 16 0
1.975 0.17399999 0.95499998 150 16 0
1.983 0.17200001 0.95200002 150 16 0
1.985 0.17 0.94700003 150 16 0
1.995 0.168 0.94599998 150 16 0
2.0090001 0.167 0.94599998 150 16 0
2.0139999 0.16500001 0.94199997 150 16 0
2.0220001 0.163 0.94 150 16 0
2.029 0.161 0.93599999 150 16 0
2.039 0.15899999 0.935 150 16 0
2.043 0.15700001 0.93000001 150 16 0
2.0510001 0.155 0.92699999 150 16 0
2.0599999 0.154 0.92500001 150 16 0
2.0669999 0.152 0.921 150 16 0
2.073 0.15000001 0.917 150 16 0
2.0810001 0.148 0.91399997 150 16 0
2.092 0.146 0.912 149 16 0
2.099 0.14399999 0.90899998 130 16 0
2.1040001 0.142 0.90399998 149 16 0
2.1110001 0.141 0.89999998 150 16 0
2.119 0.139 0.89700001 150 16 0
2.1270001 0.13699999 0.89399999 137 16 0
2.1359999 0.13500001 0.88999999 140 16 0
2.142 0.133 0.88599998 139 16 0
2.152 0.132 0.88300002 135 16 0
2.1559999 0.13 0.87800002 132 16 0
2.1670001 0.12800001 0.875 139 16 0
2.1730001 0.126 0.87 141 16 0
2.184 0.125 0.86799997 139 16 0
2.1960001 0.123 0.86500001 138 16 0
2.2019999 0.122 0.861 144 16 0
2.2079999 0.12 0.85600001 135 16 0
2.2190001 0.118 0.85299999 130 16 0
2.2290001 0.117 0.84899998 139 16 0
2.2390001 0.115 0.84600002 121 16 0
2.2460001 0.113 0.84100002 130 16 0
2.2550001 0.112 0.83700001 139 16 0
2.2639999 0.11 0.833 131 16 0
2.2739999 0.109 0.829 98 16 0
2.2850001 0.107 0.82599998 105 16 0
2.293 0.105 0.82099998 94 16 0
2.3050001 0.104 0.81800002 93 16 0
2.3139999 0.103 0.81300002 92 16 0
2.3269999 0.101 0.81 85 16 0
2.335 0.098999999 0.80500001 88 16 0
2.345 0.097999997 0.801 84 16 0
2.349 0.096000001 0.79400003 94 16 0
2.3640001 0.094999999 0.79100001 104 16 0
2.375 0.093999997 0.787 103 16 0
2.382 0.092 0.78200001 85 16 0
2.3889999 0.090000004 0.77600002 96 16 0
2.402 0.089000002 0.77200001 87 16 0
2.414 0.088 0.76800001 82 16 0
2.421 0.086000003 0.76300001 90 16 0
2.4330001 0.085000001 0.759 90 16 0
2.441 0.082999997 0.75300002 80 16 0
2.457 0.082000002 0.75 84 16 0
2.467 0.081 0.745 88 16 0
2.4779999 0.079000004 0.74000001 79 16 0
2.484 0.078000002 0.73299998 83 16 0
2.5039999 0.077 0.73100001 84 16 0
2.5120001 0.075000003 0.72500002 87 16 0
2.5209999 0.074000001 0.71899998 80 16 0
2.5350001 0.072999999 0.71499997 76 16 0
2.5510001 0.071000002 0.71100003 76 16 0
2.5599999 0.07 0.70499998 79 16 0
2.5710001 0.068999998 0.699 69 16 0
2.582 0.067000002 0.69400001 60 16 0
2.596 0.066 0.68900001 72 16 0
2.6059999 0.064999998 0.68300003 72 16 0
2.622 0.064000003 0.67900002 69 16 0
2.6340001 0.063000001 0.67299998 55 16 0
2.642 0.061000001 0.667 62 16 0
2.6600001 0.059999999 0.662 71 16 0
2.6659999 0.059 0.65499997 71 16 0
2.6789999 0.057999998 0.64899999 65 16 0
2.6889999 0.056000002 0.64300001 62 16 0
2.698 0.055 0.63599998 55 16 0
2.7179999 0.054000001 0.63200003 61 16 0
2.733 0.052999999 0.62599999 51 16 0
2.743 0.052000001 0.62 49 16 0
2.757 0.050999999 0.61400002 50 16 0
2.773 0.050000001 0.60799998 46 16 0
2.7839999 0.048 0.60100001 46 16 0
2.803 0.046999998 0.59600002 33 16 0
2.8139999 0.046 0.58899999 32 16 0
2.829 0.045000002 0.583 36 16 0
2.8399999 0.044 0.57599998 36 16 0
2.8510001 0.043000001 0.56900001 33 16 0
2.8599999 0.041999999 0.56099999 35 16 0
2.8800001 0.041000001 0.55599999 33 16 0
2.892 0.039999999 0.54900002 33 16 0
2.915 0.039000001 0.54400003 31 16 0
2.934 0.037999999 0.53799999 32 16 0
2.9430001 0.037 0.52999997 30 16 0
2.9649999 0.035999998 0.52399999 30 16 0
2.983 0.035 0.51700002 32 16 0
2.993 0.034000002 0.509 33 16 0
3.006 0.033 0.50199997 33 16 0
3.026 0.032000002 0.495 35 16 0
3.039 0.030999999 0.48699999 33 16 0
3.063 0.029999999 0.48100001 34 16 0
3.076 0.028999999 0.47299999 34 16 0
3.0880001 0.028000001 0.465 34 16 0
3.1110001 0.027000001 0.458 32 16 0
3.132 0.027000001 0.45100001 36 16 0
3.1470001 0.026000001 0.44299999 35 16 0
3.1719999 0.025 0.43599999 34 16 0
3.188 0.024 0.428 35 16 0
3.2060001 0.023 0.41999999 35 16 0
3.2249999 0.022 0.412 32 16 0
3.2460001 0.022 0.40400001 31 16 0
3.257 0.021 0.39500001 30 16 0
3.2750001 0.02 0.38600001 29 16 0
3.3 0.018999999 0.37799999 30 16 0
3.3169999 0.017999999 0.37 31 16 0
3.3429999 0.017999999 0.36199999 31 16 0
3.3659999 0.017000001 0.35299999 36 16 0
3.3710001 0.016000001 0.34299999 112 16 0
3.362 0.015 0.331 114 16 0
3.3610001 0.014 0.31999999 100 16 0
3.358 0.014 0.30899999 101 16 0
3.3559999 0.013 0.29800001 98 16 0
3.3499999 0.012 0.28600001 100 16 0
3.348 0.011 0.27500001 98 16 0
3.3399999 0.011 0.264 114 16 0
3.3380001 0.0099999998 0.25299999 103 16 0
3.329 0.0089999996 0.241 109 16 0
3.3280001 0.0089999996 0.23 129 16 0
3.326 0.0080000004 0.219 118 16 0
3.3180001 0.0070000002 0.208 104 16 0
3.3169999 0.0070000002 0.197 106 16 0
3.3080001 0.0060000001 0.186 107 16 0
3.3010001 0.0060000001 0.175 99 16 0
3.2980001 0.0049999999 0.164 115 16 0
3.299 0.0049999999 0.153 112 16 0
3.289 0.0040000002 0.142 96 16 0
3.29 0.0040000002 0.132 103 16 0
3.279 0.003 0.121 99 16 0
3.289 0.003 0.11 37 16 0
3.3110001 0.0020000001 0.1 32 16 0
3.3169999 0.0020000001 0.090000004 22 16 0
3.316 0.0020000001 0.079000004 17 16 0
3.313 0.001 0.068000004 17 16 0
3.309 0.001 0.057999998 17 16 0
3.3 0.001 0.046999998 16 16 0
3.296 0 0.035999998 16 16 0
3.293 0 0.025 16 16 0
3.286 0 0.014 16 16 0
3.283 0 0.0040000002 16 16 0
3.277 0 -0.0060000001 16 16 0
3.2650001 0 -0.016000001 15 16 0
3.2650001 0 -0.027000001 16 16 0
3.2639999 0 -0.037 16 16 0
3.2539999 0 -0.048 16 16 0
3.2539999 0 -0.057999998 16 16 0
3.2479999 -0.001 -0.068999998 16 16 0
3.244 -0.001 -0.079000004 16 16 0
3.2390001 -0.001 -0.090000004 16 16 0
3.234 -0.001 -0.1 16 16 0
3.23 -0.001 -0.11 16 16 0
3.2219999 -0.001 -0.12 16 16 0
3.22 -0.001 -0.131 16 16 0
3.217 -0.001 -0.141 16 16 0
3.217 -0.001 -0.152 16 16 0
3.214 -0.001 -0.162 16 16 0
3.2060001 -0.001 -0.17200001 16 16 0
3.2 -0.001 -0.182 16 16 0
3.198 0 -0.192 16 16 0
3.1960001 0 -0.20299999 16 16 0
3.1930001 0 -0.213 16 16 0
3.1930001 0 -0.223 16 16 0
3.1849999 0 -0.233 15 16 0
3.184 0 -0.243 16 16 0
3.1800001 0 -0.25299999 15 16 0
3.171 0 -0.26300001 16 16 0
3.1700001 0 -0.273 16 16 0
3.1689999 0 -0.28299999 16 16 0
3.1659999 0.001 -0.29300001 16 16 0
3.158 0.001 -0.303 16 16 0
3.158 0.001 -0.31299999 16 16 0
3.1530001 0.0020000001 -0.32300001 17 16 0
3.154 0.0020000001 -0.333 17 16 0
3.151 0.0020000001 -0.34299999 17 16 0
3.1440001 0.003 -0.352 17 16 0
3.141 0.003 -0.36199999 17 16 0
3.1370001 0.0040000002 -0.37200001 17 16 0
3.138 0.0040000002 -0.382 18 16 0
3.1340001 0.0049999999 -0.39199999 17 16 0
3.1329999 0.0049999999 -0.40200001 18 16 0
3.1240001 0.0060000001 -0.41100001 17 16 0
3.128 0.0060000001 -0.42199999 18 16 0
3.125 0.0070000002 -0.43200001 18 16 0
3.1199999 0.0070000002 -0.442 18 16 0
3.122 0.0080000004 -0.45199999 18 16 0
3.115 0.0080000004 -0.461 18 16 0
3.1159999 0.0089999996 -0.47099999 20 16 0
3.1099999 0.0099999998 -0.48100001 20 16 0
3.1110001 0.0099999998 -0.491 22 16 0
3.1040001 0.011 -0.5 23 16 0
3.102 0.012 -0.50999999 26 16 0
3.102 0.012 -0.51999998 28 16 0
3.099 0.013 -0.52999997 29 16 0
3.092 0.014 -0.53899997 33 16 0
3.095 0.015 -0.55000001 35 16 0
3.082 0.015 -0.55699998 38 16 0
3.0810001 0.016000001 -0.56699997 43 16 0
3.0769999 0.017000001 -0.57700002 45 16 0
3.0710001 0.017999999 -0.58600003 47 16 0
3.0650001 0.018999999 -0.59500003 49 16 0
3.0610001 0.02 -0.60399997 49 16 0
3.053 0.021 -0.61199999 63 16 0
3.0510001 0.022 -0.62199998 68 16 0
3.0469999 0.023 -0.63099998 71 16 0
3.039 0.023 -0.63999999 75 16 0
3.0339999 0.024 -0.64899999 59 16 0
3.026 0.025 -0.65700001 66 16 0
3.023 0.026000001 -0.66600001 64 16 0
3.0150001 0.027000001 -0.67500001 64 16 0
3.0090001 0.028000001 -0.68300003 69 16 0
3.007 0.029999999 -0.69300002 68 16 0
3.0050001 0.030999999 -0.70200002 97 16 0
2.9979999 0.032000002 -0.71100003 98 16 0
2.9949999 0.033 -0.72000003 93 16 0
2.993 0.034000002 -0.72899997 79 16 0
2.9860001 0.035 -0.73799998 58 16 0
2.98 0.035999998 -0.74599999 54 16 0
2.977 0.037999999 -0.755 45 16 0
2.973 0.039000001 -0.764 42 16 0
2.973 0.039999999 -0.77399999 41 16 0
2.967 0.041000001 -0.78200001 38 16 0
2.961 0.043000001 -0.79000002 40 16 0
2.9530001 0.044 -0.79799998 38 16 0
2.95 0.045000002 -0.80699998 38 16 0
2.947 0.046999998 -0.81599998 41 16 0
2.944 0.048 -0.82499999 49 16 0
2.938 0.050000001 -0.833 74 16 0
2.9349999 0.050999999 -0.84200001 89 16 0
2.9300001 0.052999999 -0.85000002 93 16 0
2.925 0.054000001 -0.85799998 81 16 0
2.9200001 0.055 -0.86699998 81 16 0
2.9159999 0.057 -0.875 89 16 0
2.914 0.059 -0.884 88 16 0
2.9119999 0.059999999 -0.89300001 84 16 0
2.904 0.061999999 -0.90100002 95 16 0
2.902 0.063000001 -0.90899998 87 16 0
2.8940001 0.064999998 -0.917 85 16 0
2.885 0.067000002 -0.92400002 86 16 0
2.8859999 0.068000004 -0.93400002 94 16 0
2.8789999 0.07 -0.94099998 92 16 0
2.8759999 0.071999997 -0.949 94 16 0
2.8729999 0.074000001 -0.958 81 16 0
2.868 0.075000003 -0.96600002 89 16 0
2.859 0.077 -0.972 109 16 0
2.8559999 0.079000004 -0.98100001 116 16 0
2.8510001 0.081 -0.98900002 120 16 0
2.848 0.082000002 -0.99699998 125 16 0
2.8410001 0.083999999 -1.0039999 111 16 0
2.8410001 0.086000003 -1.013 124 16 0
2.832 0.088 -1.02 108 16 0
2.8329999 0.090000004 -1.029 125 16 0
2.8299999 0.092 -1.038 118 16 0
2.8199999 0.093999997 -1.044 110 16 0
2.8169999 0.096000001 -1.052 112 16 0
2.8139999 0.097999997 -1.0599999 112 16 0
2.8110001 0.1 -1.068 112 16 0
2.806 0.102 -1.076 121 16 0
2.8 0.104 -1.082 150 16 0
2.7939999 0.106 -1.089 150 16 0
2.79 0.109 -1.097 150 16 0
2.789 0.111 -1.1059999 150 16 0
2.7809999 0.113 -1.112 150 16 0
2.7739999 0.115 -1.118 150 16 0
2.7750001 0.117 -1.128 150 16 0
2.7609999 0.119 -1.131 150 16 0
2.7639999 0.122 -1.142 150 16 0
2.753 0.124 -1.146 150 16 0
2.747 0.126 -1.153 150 16 0
2.7460001 0.12899999 -1.161 150 16 0
2.74 0.131 -1.168 150 16 0
2.7360001 0.133 -1.175 150 16 0
2.733 0.13600001 -1.183 150 16 0
2.7290001 0.139 -1.1900001 150 16 0
2.724 0.141 -1.196 150 16 0
2.72 0.14300001 -1.204 150 16 0
2.717 0.146 -1.211 149 16 0
2.714 0.149 -1.2180001 150 16 0
2.7060001 0.15099999 -1.223 150 16 0
2.7019999 0.154 -1.2309999 150 16 0
2.6989999 0.156 -1.238 150 16 0
2.694 0.15899999 -1.244 150 16 0
2.6919999 0.162 -1.252 150 16 0
2.687 0.164 -1.258 145 16 0
2.678 0.167 -1.262 149 16 0
2.6800001 0.17 -1.272 150 16 0
2.674 0.17299999 -1.277 128 16 0
2.671 0.175 -1.284 141 16 0
2.664 0.178 -1.289 138 16 0
2.661 0.18099999 -1.296 148 16 0
2.6559999 0.184 -1.302 135 16 0
2.654 0.18700001 -1.309 146 16 0
2.6489999 0.19 -1.3150001 137 16 0
2.642 0.192 -1.3200001 138 16 0
2.638 0.19499999 -1.326 146 16 0
2.6370001 0.198 -1.3329999 128 16 0
2.6329999 0.20100001 -1.34 129 16 0
2.628 0.204 -1.345 139 16 0
2.619 0.207 -1.348 125 16 0
2.6159999 0.20999999 -1.355 133 16 0
2.6099999 0.213 -1.359 146 16 0
2.6059999 0.21600001 -1.365 125 16 0
2.6059999 0.22 -1.373 133 16 0
2.602 0.223 -1.378 123 16 0
2.595 0.226 -1.382 130 16 0
2.5910001 0.229 -1.388 129 16 0
2.589 0.23199999 -1.3940001 128 16 0
2.582 0.235 -1.398 138 16 0
2.5780001 0.23800001 -1.403 136 16 0
2.5780001 0.242 -1.41 130 16 0
2.572 0.245 -1.414 127 16 0
2.5680001 0.248 -1.42 131 16 0
2.563 0.252 -1.424 135 16 0
2.559 0.255 -1.429 131 16 0
2.5569999 0.25799999 -1.4349999 129 16 0
2.5550001 0.26199999 -1.441 143 16 0
2.55 0.26499999 -1.444 145 16 0
2.546 0.26899999 -1.449 133 16 0
2.5409999 0.27200001 -1.4529999 144 16 0
2.54 0.27500001 -1.459 137 16 0
2.5339999 0.27900001 -1.4630001 134 16 0
2.5309999 0.28200001 -1.467 144 16 0
2.527 0.28600001 -1.472 123 16 0
2.5209999 0.289 -1.475 121 16 0
2.517 0.292 -1.478 133 16 0
2.5139999 0.296 -1.483 123 16 0
2.51 0.29899999 -1.4859999 119 16 0
2.507 0.303 -1.4910001 120 16 0
2.5039999 0.30700001 -1.495 124 16 0
2.5020001 0.31 -1.5 122 16 0
2.4960001 0.31400001 -1.502 120 16 0
2.493 0.317 -1.506 116 16 0
2.4920001 0.32100001 -1.511 119 16 0
2.4879999 0.32499999 -1.5140001 116 16 0
2.4749999 0.32699999 -1.512 110 16 0
2.4820001 0.33199999 -1.522 111 16 0
2.473 0.33500001 -1.522 116 16 0
2.473 0.33899999 -1.527 120 16 0
2.471 0.34299999 -1.53 110 16 0
2.4619999 0.345 -1.53 116 16 0
2.4590001 0.34900001 -1.533 115 16 0
2.4630001 0.354 -1.54 114 16 0
2.454 0.35699999 -1.54 113 16 0
2.4519999 0.36000001 -1.543 115 16 0
2.4489999 0.36399999 -1.546 105 16 0
2.4449999 0.368 -1.548 123 16 0
2.437 0.37099999 -1.5470001 111 16 0
2.4400001 0.375 -1.554 104 16 0
2.4360001 0.37900001 -1.5549999 111 16 0
2.4360001 0.38299999 -1.559 111 16 0
2.4300001 0.38600001 -1.559 122 16 0
2.431 0.38999999 -1.563 125 16 0
2.424 0.39300001 -1.562 122 16 0
2.424 0.39700001 -1.566 120 16 0
2.4189999 0.40099999 -1.567 120 16 0
2.415 0.40400001 -1.567 108 16 0
2.414 0.40799999 -1.5700001 117 16 0
2.411 0.412 -1.571 107 16 0
2.4070001 0.41499999 -1.572 109 16 0
2.4070001 0.419 -1.575 113 16 0
2.4059999 0.42300001 -1.577 112 16 0
2.405 0.42699999 -1.579 119 16 0
2.4000001 0.43000001 -1.5779999 108 16 0
2.3989999 0.43399999 -1.58 121 16 0
2.3959999 0.43700001 -1.58 112 16 0
2.3940001 0.44100001 -1.582 107 16 0
2.3889999 0.44299999 -1.58 111 16 0
2.3870001 0.447 -1.581 107 16 0
2.3859999 0.45100001 -1.582 109 16 0
2.385 0.45500001 -1.5829999 107 16 0
2.3829999 0.458 -1.584 115 16 0
2.382 0.46200001 -1.585 113 16 0
2.3789999 0.465 -1.584 119 16 0
2.378 0.46900001 -1.584 113 16 0
2.3729999 0.47099999 -1.5829999 115 16 0
2.375 0.47499999 -1.585 113 16 0
2.3699999 0.47799999 -1.582 115 16 0
2.3659999 0.48100001 -1.581 116 16 0
2.368 0.48500001 -1.5829999 117 16 0
2.365 0.48800001 -1.581 113 16 0
2.3640001 0.49200001 -1.581 109 16 0
2.3640001 0.495 -1.581 112 16 0
2.362 0.498 -1.58 116 16 0
2.362 0.50199997 -1.58 112 16 0
2.362 0.505 -1.58 117 16 0
2.359 0.50800002 -1.5779999 116 16 0
2.3610001 0.51200002 -1.579 118 16 0
2.355 0.514 -1.574 150 16 0
2.3529999 0.51700002 -1.572 150 16 0
2.3570001 0.52100003 -1.574 144 16 0
2.352 0.523 -1.5700001 150 16 0
2.352 0.52600002 -1.569 150 16 0
2.3499999 0.52899998 -1.566 150 16 0
2.3499999 0.53200001 -1.5650001 150 16 0
2.349 0.53500003 -1.564 148 16 0
2.348 0.53799999 -1.561 142 16 0
2.3499999 0.54100001 -1.561 143 16 0
2.345 0.54299998 -1.556 138 16 0
2.345 0.546 -1.554 141 16 0
2.346 0.54900002 -1.553 150 16 0
2.345 0.551 -1.55 135 16 0
2.3469999 0.55400002 -1.549 150 16 0
2.3469999 0.55699998 -1.5470001 150 16 0
2.348 0.56 -1.545 144 16 0
2.349 0.56300002 -1.543 149 16 0
2.348 0.565 -1.54 150 16 0
2.342 0.56599998 -1.534 150 16 0
2.346 0.56999999 -1.533 150 16 0
2.3440001 0.57099998 -1.529 150 16 0
2.345 0.574 -1.526 150 16 0
2.346 0.57599998 -1.524 148 16 0
2.345 0.579 -1.52 150 16 0
2.342 0.57999998 -1.515 150 16 0
2.348 0.58399999 -1.515 150 16 0
2.345 0.58499998 -1.5089999 150 16 0
2.346 0.58700001 -1.506 150 16 0
2.346 0.58899999 -1.502 150 16 0
2.348 0.59100002 -1.5 150 16 0
2.3469999 0.59299999 -1.495 150 16 0
2.349 0.59500003 -1.492 150 16 0
2.3499999 0.597 -1.489 150 16 0
2.348 0.59799999 -1.483 150 16 0
2.3499999 0.60000002 -1.48 150 16 0
2.349 0.602 -1.475 150 16 0
2.3510001 0.60299999 -1.471 150 16 0
2.355 0.60600001 -1.469 150 16 0
2.355 0.60699999 -1.464 150 16 0
2.355 0.60799998 -1.459 150 16 0
2.358 0.611 -1.456 150 16 0
2.359 0.61199999 -1.451 150 16 0
2.3610001 0.61299998 -1.447 150 16 0
2.362 0.61500001 -1.443 150 16 0
2.3640001 0.616 -1.439 150 16 0
2.3640001 0.61699998 -1.433 150 16 0
2.369 0.61900002 -1.431 150 16 0
2.3710001 0.62 -1.426 150 16 0
2.3710001 0.62099999 -1.421 150 16 0
2.3729999 0.62199998 -1.416 150 16 0
2.3729999 0.62300003 -1.411 150 16 0
2.3759999 0.62400001 -1.406 150 16 0
2.378 0.625 -1.401 150 16 0
2.3800001 0.62599999 -1.397 150 16 0
2.381 0.62699997 -1.391 150 16 0
2.3840001 0.62800002 -1.386 150 16 0
2.3859999 0.62900001 -1.382 150 16 0
2.3889999 0.63 -1.377 150 16 0
2.3900001 0.63 -1.3710001 150 16 0
2.392 0.63099998 -1.3660001 150 16 0
2.3929999 0.63099998 -1.36 150 16 0
2.3970001 0.63200003 -1.3559999 150 16 0
2.4000001 0.63200003 -1.351 150 16 0
2.398 0.63200003 -1.3430001 150 16 0
2.3989999 0.63200003 -1.337 150 16 0
2.408 0.634 -1.335 150 16 0
2.405 0.63300002 -1.326 150 16 0
2.4089999 0.634 -1.322 150 16 0
2.4119999 0.634 -1.317 150 16 0
2.4119999 0.63300002 -1.309 150 16 0
2.415 0.63300002 -1.304 150 16 0
2.4200001 0.634 -1.3 150 16 0
2.4200001 0.63300002 -1.293 150 16 0
2.4230001 0.634 -1.2869999 150 16 0
2.4289999 0.634 -1.283 150 16 0
2.4289999 0.63300002 -1.276 150 16 0
2.4319999 0.63300002 -1.27 150 16 0
2.434 0.63300002 -1.263 150 16 0
2.4400001 0.63300002 -1.2589999 150 16 0
2.4419999 0.63300002 -1.253 150 16 0
2.447 0.63300002 -1.248 150 16 0
2.4460001 0.63099998 -1.24 150 16 0
2.4519999 0.63200003 -1.235 150 16 0
2.4519999 0.63 -1.228 150 16 0
2.4579999 0.63099998 -1.223 150 16 0
2.4590001 0.62900001 -1.216 150 16 0
2.4630001 0.62900001 -1.21 150 16 0
2.464 0.62800002 -1.2029999 150 16 0
2.4690001 0.62699997 -1.198 150 16 0
2.4719999 0.62699997 -1.192 150 16 0
2.4760001 0.62599999 -1.1849999 150 16 0
2.4790001 0.625 -1.179 150 16 0
2.4820001 0.62400001 -1.173 150 16 0
2.4849999 0.62300003 -1.1670001 150 16 0
2.4890001 0.62199998 -1.16 150 16 0
2.493 0.62099999 -1.154 150 16 0
2.4960001 0.62 -1.148 150 16 0
2.4979999 0.61799997 -1.141 150 16 0
2.5020001 0.61699998 -1.135 150 16 0
2.506 0.616 -1.128 150 16 0
2.5090001 0.61500001 -1.122 150 16 0
2.5120001 0.61299998 -1.115 150 16 0
2.516 0.61199999 -1.109 150 16 0
2.5190001 0.611 -1.102 150 16 0
2.5220001 0.60900003 -1.095 150 16 0
2.5250001 0.60699999 -1.089 150 16 0
2.529 0.60600001 -1.082 150 16 0
2.5350001 0.60500002 -1.077 150 16 0
2.539 0.60299999 -1.0700001 150 16 0
2.5420001 0.602 -1.063 150 16 0
2.5480001 0.60000002 -1.058 150 16 0
2.549 0.59799999 -1.05 150 16 0
2.5539999 0.597 -1.044 150 16 0
2.5569999 0.59399998 -1.0369999 150 16 0
2.563 0.59299999 -1.031 150 16 0
2.569 0.59200001 -1.025 150 16 0
2.5739999 0.58999997 -1.0190001 150 16 0
2.582 0.58899999 -1.0140001 18 16 0
2.605 0.59100002 -1.0140001 0 16 0
2.609 0.58899999 -1.008 0 16 0
2.6259999 0.58999997 -1.006 0 16 0
0 0 0 0 16 0
2.619 0.58200002 -0.986 0 16 0
2.6070001 0.57700002 -0.97399998 0 16 0
2.444 0.53799999 -0.90499997 0 17 0
2.638 0.57700002 -0.96899998 0 17 0
0 0 0 0 16 0
2.5150001 0.54400003 -0.90700001 0 19 0
2.7019999 0.58099997 -0.96600002 0 17 0
2.631 0.56199998 -0.93199998 8 19 0
2.631 0.55900002 -0.92400002 112 16 0
2.6329999 0.55599999 -0.917 150 16 0
2.638 0.55400002 -0.91000003 150 16 0
2.645 0.55199999 -0.90399998 150 16 0
2.6459999 0.54799998 -0.89600003 150 16 0
2.648 0.54500002 -0.88800001 150 16 0
2.654 0.54299998 -0.88200003 150 16 0
2.658 0.54000002 -0.875 150 16 0
2.661 0.537 -0.86799997 150 16 0
2.668 0.53500003 -0.86199999 150 16 0
2.6730001 0.53200001 -0.85500002 150 16 0
2.677 0.52899998 -0.84799999 150 16 0
2.681 0.52600002 -0.84100002 150 16 0
2.688 0.52399999 -0.83499998 150 16 0
2.688 0.51999998 -0.82599998 150 16 0
2.698 0.51800001 -0.82099998 150 16 0
2.701 0.51499999 -0.81400001 150 16 0
2.7 0.51099998 -0.80500001 150 16 0
2.7079999 0.50800002 -0.79900002 150 16 0
2.7130001 0.505 -0.792 150 16 0
2.7190001 0.50199997 -0.78600001 150 16 0
2.7219999 0.49900001 -0.778 150 16 0
2.7249999 0.495 -0.77100003 150 16 0
2.7360001 0.493 -0.76499999 150 16 0
2.7390001 0.49000001 -0.75800002 150 16 0
2.744 0.486 -0.75099999 150 16 0
2.747 0.48300001 -0.74299997 150 16 0
2.757 0.47999999 -0.73799998 150 16 0
2.7609999 0.477 -0.73000002 150 16 0
2.763 0.47299999 -0.72299999 150 16 0
2.766 0.46900001 -0.71499997 150 16 0
2.773 0.46599999 -0.70899999 150 16 0
2.777 0.46200001 -0.70099998 150 16 0
2.7820001 0.45899999 -0.69400001 150 16 0
2.786 0.45500001 -0.68699998 150 16 0
2.7869999 0.45100001 -0.67900002 150 16 0
2.8 0.44800001 -0.67400002 150 16 0
2.8039999 0.44499999 -0.667 150 16 0
2.8050001 0.44 -0.65799999 150 16 0
2.8150001 0.43700001 -0.65200001 150 16 0
2.819 0.433 -0.64499998 150 16 0
2.823 0.42899999 -0.63800001 150 16 0
2.829 0.426 -0.63099998 150 16 0
2.836 0.42199999 -0.62400001 150 16 0
2.8399999 0.41800001 -0.61699998 150 16 0
2.845 0.414 -0.60900003 150 16 0
2.8499999 0.41 -0.602 150 16 0
2.855 0.40599999 -0.59500003 150 16 0
2.8610001 0.40200001 -0.588 150 16 0
2.8629999 0.398 -0.57999998 150 16 0
2.8699999 0.39399999 -0.57300001 150 16 0
2.8740001 0.38999999 -0.56599998 150 16 0
2.885 0.38600001 -0.55900002 150 16 0
2.8859999 0.38100001 -0.551 150 16 0
2.8970001 0.37799999 -0.54500002 150 16 0
2.904 0.37400001 -0.53799999 150 16 0
2.908 0.36899999 -0.53100002 150 16 0
2.9100001 0.36500001 -0.523 150 16 0
2.9170001 0.361 -0.51599997 150 16 0
2.9230001 0.35600001 -0.50800002 150 16 0
2.9349999 0.35299999 -0.50199997 150 16 0
2.9389999 0.34799999 -0.49399999 150 16 0
2.9389999 0.34299999 -0.486 150 16 0
2.944 0.338 -0.479 150 16 0
2.9519999 0.33399999 -0.472 150 16 0
2.9579999 0.329 -0.46399999 150 16 0
2.97 0.32600001 -0.458 150 16 0
2.973 0.32100001 -0.44999999 150 16 0
2.98 0.31600001 -0.44299999 150 16 0
2.9809999 0.31099999 -0.435 150 16 0
2.987 0.30599999 -0.42699999 150 16 0
2.9909999 0.301 -0.41999999 150 16 0
3 0.29699999 -0.412 150 16 0
3.007 0.292 -0.405 150 16 0
3.0050001 0.287 -0.39700001 150 16 0
3.017 0.28200001 -0.38999999 150 16 0
3.026 0.278 -0.38299999 150 16 0
3.027 0.27200001 -0.375 150 16 0
3.0320001 0.26699999 -0.36700001 150 16 0
3.0350001 0.26199999 -0.359 150 16 0
3.043 0.257 -0.352 150 16 0
3.0539999 0.252 -0.345 150 16 0
3.059 0.24699999 -0.33700001 150 16 0
3.062 0.242 -0.329 150 16 0
3.0650001 0.236 -0.32100001 150 16 0
3.073 0.23100001 -0.31400001 150 16 0
3.0739999 0.226 -0.30500001 150 16 0
3.0869999 0.221 -0.29800001 150 16 0
3.096 0.21600001 -0.29100001 150 16 0
3.0969999 0.20999999 -0.28299999 150 16 0
3.1110001 0.205 -0.27599999 150 16 0
3.1129999 0.2 -0.26699999 150 16 0
3.119 0.19400001 -0.25999999 150 16 0
3.1270001 0.189 -0.252 150 16 0
3.1300001 0.183 -0.244 149 16 0
3.1359999 0.177 -0.236 150 16 0
3.148 0.17200001 -0.229 150 16 0
3.154 0.167 -0.221 150 16 0
3.1559999 0.161 -0.212 149 16 0
3.1670001 0.155 -0.205 150 16 0
3.1719999 0.149 -0.197 150 16 0
3.178 0.14300001 -0.189 142 16 0
3.1889999 0.138 -0.18099999 140 16 0
3.1919999 0.132 -0.17299999 130 16 0
3.204 0.126 -0.16500001 139 16 0
3.204 0.12 -0.15700001 121 16 0
3.2149999 0.114 -0.149 123 16 0
3.223 0.108 -0.141 131 16 0
3.2309999 0.102 -0.133 131 16 0
3.2390001 0.096000001 -0.125 123 16 0
3.2420001 0.090000004 -0.117 128 16 0
3.2509999 0.083999999 -0.109 136 16 0
3.2579999 0.078000002 -0.1 119 16 0
3.2609999 0.071000002 -0.092 131 16 0
3.273 0.064999998 -0.083999999 68 16 0
3.279 0.059 -0.075999998 51 16 0
3.2850001 0.052999999 -0.067000002 54 16 0
3.2869999 0.046 -0.059 116 16 0
3.2950001 0.039999999 -0.050999999 115 16 0
3.306 0.033 -0.041999999 70 16 0
3.3169999 0.027000001 -0.034000002 39 16 0
3.3050001 0.02 -0.025 22 16 0
3.2939999 0.013 -0.017000001 20 16 0
3.2809999 0.0070000002 -0.0089999996 19 16 0
3.2750001 0 0 19 16 0
3.257 -0.0049999999 0.0070000002 20 16 0
3.2539999 -0.012 0.015 34 16 0
3.2609999 -0.018999999 0.023 128 16 0
3.263 -0.025 0.032000002 150 16 0
3.266 -0.032000002 0.039999999 150 16 0
3.2809999 -0.039000001 0.048999999 150 16 0
3.2869999 -0.046 0.057 150 16 0
3.2909999 -0.052000001 0.064999998 150 16 0
3.3 -0.059 0.074000001 150 16 0
3.303 -0.066 0.082000002 94 16 0
3.2969999 -0.072999999 0.090000004 34 16 0
3.283 -0.079000004 0.097999997 31 16 0
3.2709999 -0.086000003 0.106 30 16 0
3.26 -0.092 0.114 30 16 0
3.2509999 -0.098999999 0.121 31 16 0
3.2390001 -0.105 0.12899999 30 16 0
3.2290001 -0.111 0.13699999 31 16 0
3.217 -0.118 0.14399999 31 16 0
3.2060001 -0.124 0.152 30 16 0
3.197 -0.13 0.15899999 29 16 0
3.187 -0.13699999 0.16599999 30 16 0
3.1730001 -0.14300001 0.17299999 30 16 0
3.1600001 -0.149 0.18000001 29 16 0
3.151 -0.155 0.18799999 30 16 0
3.138 -0.161 0.19499999 30 16 0
3.1270001 -0.167 0.20200001 28 16 0
3.119 -0.17299999 0.20900001 32 16 0
3.105 -0.17900001 0.215 31 16 0
3.0969999 -0.185 0.222 31 16 0
3.0829999 -0.191 0.229 32 16 0
3.076 -0.197 0.236 29 16 0
3.0650001 -0.20299999 0.243 30 16 0
3.052 -0.20900001 0.249 30 16 0
3.04 -0.215 0.255 29 16 0
3.0280001 -0.221 0.26199999 29 16 0
3.017 -0.226 0.26800001 30 16 0
3.0090001 -0.23199999 0.27500001 29 16 0
2.99 -0.237 0.28 30 16 0
2.9849999 -0.244 0.287 31 16 0
2.9719999 -0.249 0.29300001 29 16 0
2.964 -0.255 0.29899999 30 16 0
2.954 -0.26100001 0.30500001 30 16 0
2.9430001 -0.266 0.31099999 29 16 0
2.9349999 -0.27200001 0.31799999 30 16 0
2.9189999 -0.27700001 0.32300001 29 16 0
2.9159999 -0.28400001 0.33000001 31 16 0
2.9089999 -0.289 0.336 31 16 0
2.895 -0.294 0.34099999 32 16 0
2.8829999 -0.30000001 0.34599999 31 16 0
2.8710001 -0.30500001 0.352 31 16 0
2.862 -0.31099999 0.35800001 32 16 0
2.852 -0.31600001 0.36300001 32 16 0
2.8469999 -0.322 0.36899999 32 16 0
2.8329999 -0.32699999 0.37400001 31 16 0
2.822 -0.33199999 0.37900001 30 16 0
2.8139999 -0.338 0.38499999 30 16 0
2.806 -0.34299999 0.38999999 31 16 0
2.796 -0.34799999 0.396 31 16 0
2.79 -0.354 0.40099999 33 16 0
2.7720001 -0.35800001 0.405 33 16 0
2.7650001 -0.36399999 0.41100001 31 16 0
2.7579999 -0.36899999 0.41600001 31 16 0
2.7490001 -0.375 0.421 33 16 0
2.7390001 -0.37900001 0.426 34 16 0
2.7279999 -0.384 0.43099999 33 16 0
2.7219999 -0.38999999 0.43599999 34 16 0
2.711 -0.39500001 0.44100001 33 16 0
2.698 -0.39899999 0.44499999 35 16 0
2.6919999 -0.405 0.44999999 36 16 0
2.6830001 -0.41 0.45500001 34 16 0
2.6760001 -0.41499999 0.46000001 35 16 0
2.665 -0.41999999 0.46399999 35 16 0
2.6559999 -0.42500001 0.46900001 46 16 0
2.651 -0.43099999 0.47400001 41 16 0
2.6429999 -0.43599999 0.479 42 16 0
2.6300001 -0.44 0.48199999 46 16 0
2.6240001 -0.44499999 0.48699999 53 16 0
2.619 -0.45100001 0.49200001 61 16 0
2.602 -0.454 0.495 47 16 0
2.5929999 -0.45899999 0.49900001 48 16 0
2.585 -0.46399999 0.50300002 51 16 0
2.5710001 -0.46799999 0.50700003 49 16 0
2.5680001 -0.47400001 0.51200002 44 16 0
2.5580001 -0.479 0.51599997 60 16 0
2.5480001 -0.48300001 0.51899999 49 16 0
2.5380001 -0.48699999 0.523 55 16 0
2.5320001 -0.493 0.52700001 59 16 0
2.5220001 -0.49700001 0.53100002 55 16 0
2.5179999 -0.50300002 0.53600001 62 16 0
2.506 -0.50599998 0.53899997 63 16 0
2.4979999 -0.51099998 0.54299998 66 16 0
2.4879999 -0.51599997 0.546 61 16 0
2.4779999 -0.51999998 0.54900002 61 16 0
2.4690001 -0.52399999 0.55199999 68 16 0
2.4579999 -0.528 0.55500001 65 16 0
2.4489999 -0.53299999 0.55900002 63 16 0
2.4430001 -0.53799999 0.56300002 68 16 0
2.4330001 -0.542 0.56599998 71 16 0
2.4260001 -0.54699999 0.56999999 69 16 0
2.4170001 -0.551 0.57300001 71 16 0
2.4059999 -0.55500001 0.57499999 71 16 0
2.3989999 -0.55900002 0.579 74 16 0
2.3940001 -0.56400001 0.583 79 16 0
2.385 -0.56800002 0.58499998 70 16 0
2.382 -0.574 0.58999997 80 16 0
2.365 -0.57599998 0.59100002 73 16 0
2.3629999 -0.58200002 0.59500003 74 16 0
2.352 -0.58600003 0.597 81 16 0
2.348 -0.59100002 0.60100001 80 16 0
2.339 -0.59500003 0.60399997 83 16 0
2.332 -0.59899998 0.60699999 82 16 0
2.316 -0.602 0.60799998 75 16 0
2.3110001 -0.60600001 0.611 73 16 0
2.3050001 -0.611 0.61400002 78 16 0
2.296 -0.61500001 0.61699998 75 16 0
2.2839999 -0.61799997 0.61799997 87 16 0
2.279 -0.62300003 0.62199998 87 16 0
2.2690001 -0.62599999 0.62300003 93 16 0
2.2620001 -0.63099998 0.62599999 129 16 0
2.2550001 -0.63499999 0.62800002 121 16 0
2.247 -0.639 0.63099998 109 16 0
2.2390001 -0.64300001 0.63300002 127 16 0
2.2290001 -0.64600003 0.63499999 102 16 0
2.221 -0.64999998 0.63700002 104 16 0
2.2119999 -0.653 0.639 111 16 0
2.207 -0.65799999 0.64099997 112 16 0
2.197 -0.66100001 0.64300001 122 16 0
2.187 -0.66399997 0.64399999 122 16 0
2.1800001 -0.66900003 0.64600003 117 16 0
2.168 -0.671 0.64700001 117 16 0
2.1600001 -0.67400002 0.64899999 119 16 0
2.158 -0.68000001 0.65200001 117 16 0
2.1459999 -0.68199998 0.65200001 122 16 0
2.1389999 -0.68599999 0.65399998 134 16 0
2.1329999 -0.69 0.65700001 130 16 0
2.1259999 -0.69400001 0.65799999 115 16 0
2.115 -0.69599998 0.65899998 126 16 0
2.112 -0.70099998 0.66100001 120 16 0
2.1029999 -0.704 0.662 132 16 0
2.095 -0.708 0.66399997 130 16 0
2.089 -0.71200001 0.66600001 127 16 0
2.0810001 -0.71499997 0.667 131 16 0
2.0769999 -0.72000003 0.66900003 140 16 0
2.069 -0.72299999 0.67000002 134 16 0
2.062 -0.72600001 0.67199999 142 16 0
2.052 -0.72799999 0.67199999 128 16 0
2.043 -0.73100001 0.67199999 130 16 0
2.0369999 -0.73500001 0.67400002 137 16 0
2.029 -0.73799998 0.67400002 131 16 0
2.0239999 -0.74199998 0.676 150 16 0
2.0190001 -0.74599999 0.67799997 144 16 0
2.0109999 -0.74900001 0.67799997 148 16 0
2.0050001 -0.75300002 0.68000001 150 16 0
1.994 -0.75400001 0.67900002 131 16 0
1.977 -0.75400001 0.676 138 16 0
1.973 -0.75800002 0.67799997 146 16 0
1.967 -0.76200002 0.67900002 141 16 0
1.962 -0.76499999 0.68000001 148 16 0
1.956 -0.76899999 0.68099999 150 16 0
1.948 -0.77100003 0.68099999 150 16 0
1.946 -0.77600002 0.68300003 150 16 0
1.933 -0.77700001 0.68199998 145 16 0
1.929 -0.77999997 0.68300003 144 16 0
1.9220001 -0.78299999 0.68300003 150 16 0
1.915 -0.78600001 0.68300003 150 16 0
1.909 -0.78899997 0.68300003 150 16 0
1.902 -0.79100001 0.68300003 146 16 0
1.897 -0.79500002 0.68400002 150 16 0
1.888 -0.79699999 0.68300003 150 16 0
1.885 -0.801 0.685 150 16 0
1.875 -0.80199999 0.68400002 150 16 0
1.872 -0.80599999 0.685 150 16 0
1.863 -0.80699998 0.68400002 150 16 0
1.854 -0.80900002 0.68300003 150 16 0
1.852 -0.81300002 0.68400002 150 16 0
1.8430001 -0.815 0.68300003 150 16 0
1.84 -0.81900001 0.68400002 150 16 0
1.836 -0.82200003 0.68400002 150 16 0
1.825 -0.82300001 0.68199998 150 16 0
1.819 -0.82499999 0.68199998 150 16 0
1.817 -0.829 0.68300003 150 16 0
1.8099999 -0.83099997 0.68199998 150 16 0
1.804 -0.83399999 0.68199998 150 16 0
1.802 -0.838 0.68199998 150 16 0
1.794 -0.83899999 0.68099999 150 16 0
1.788 -0.84100002 0.68000001 150 16 0
1.783 -0.84299999 0.68000001 150 16 0
1.776 -0.84500003 0.67900002 150 16 0
1.771 -0.847 0.67799997 150 16 0
1.765 -0.84899998 0.67699999 150 16 0
1.762 -0.85299999 0.67699999 150 16 0
1.756 -0.85399997 0.676 150 16 0
1.739 -0.85100001 0.671 150 18 0
1.7359999 -0.85399997 0.671 150 16 0
1.7309999 -0.85600001 0.67000002 150 16 0
1.727 -0.85900003 0.67000002 150 16 0
1.725 -0.86299998 0.67000002 150 16 0
1.721 -0.86500001 0.66900003 150 16 0
1.717 -0.86699998 0.66900003 150 16 0
1.709 -0.86799997 0.66600001 150 16 0
1.707 -0.87099999 0.667 150 16 0
1.702 -0.87300003 0.66500002 150 16 0
1.7 -0.87599999 0.66500002 150 16 0
1.6950001 -0.87699997 0.66299999 150 16 0
1.6900001 -0.87900001 0.662 150 16 0
1.684 -0.88 0.66000003 150 16 0
1.6799999 -0.88200003 0.65899998 150 16 0
1.67 -0.88099998 0.65600002 150 19 0
1.671 -0.88499999 0.65600002 150 16 0
1.668 -0.88800001 0.65600002 150 16 0
1.663 -0.889 0.65399998 150 16 0
1.659 -0.89099997 0.653 150 16 0
1.656 -0.89200002 0.65100002 150 16 0
1.653 -0.89399999 0.64999998 150 16 0
1.65 -0.89600003 0.64899999 150 16 0
1.6440001 -0.89700001 0.64700001 150 16 0
1.6390001 -0.898 0.64499998 150 16 0
1.631 -0.89600003 0.64099997 150 19 0
1.631 -0.89999998 0.64099997 150 16 0
1.627 -0.90100002 0.639 150 16 0
1.619 -0.89999998 0.63599998 150 16 0
1.617 -0.90200001 0.63499999 150 16 0
1.6160001 -0.90399998 0.634 150 16 0
1.615 -0.90700001 0.63300002 150 16 0
1.6059999 -0.90499997 0.62900001 150 19 0
1.605 -0.90799999 0.62800002 150 16 0
1.604 -0.90899998 0.62699997 150 16 0
1.602 -0.91100001 0.625 150 16 0
1.598 -0.912 0.62300003 150 16 0
1.597 -0.91399997 0.62199998 150 16 0
1.5930001 -0.91399997 0.61900002 150 16 0
1.591 -0.91500002 0.61699998 150 16 0
1.5880001 -0.91600001 0.616 150 16 0
1.582 -0.91500002 0.61199999 150 16 0
1.581 -0.917 0.611 150 16 0
1.581 -0.91900003 0.61000001 150 16 0
1.58 -0.921 0.60799998 150 16 0
1.577 -0.921 0.60600001 150 16 0
1.5700001 -0.91900003 0.602 150 19 0
1.569 -0.921 0.60000002 150 16 0
1.569 -0.92299998 0.59799999 150 16 0
1.567 -0.92299998 0.59600002 150 16 0
1.561 -0.92199999 0.59299999 150 19 0
1.561 -0.92299998 0.59100002 150 16 0
1.561 -0.92500001 0.58899999 150 16 0
1.558 -0.92500001 0.58700001 150 16 0
1.558 -0.926 0.58499998 150 16 0
1.558 -0.92699999 0.583 150 16 0
1.55 -0.92400002 0.579 150 18 0
1.55 -0.92500001 0.57700002 150 16 0
1.55 -0.92699999 0.57499999 150 16 0
1.548 -0.926 0.57200003 150 16 0
1.548 -0.92699999 0.56999999 150 16 0
1.546 -0.92699999 0.56800002 150 16 0
1.545 -0.92699999 0.565 150 16 0
1.545 -0.92799997 0.56300002 150 16 0
1.54 -0.926 0.55900002 72 3 0
1.54 -0.92699999 0.55699998 79 0 0
1.541 -0.92799997 0.55599999 79 0 0
1.538 -0.92699999 0.55199999 79 0 0
1.539 -0.92799997 0.55000001 73 0 0
1.538 -0.92799997 0.54799998 63 0 0
1.5369999 -0.92699999 0.54500002 66 0 0
1.536 -0.92699999 0.542 62 0 0
1.538 -0.92799997 0.54000002 77 0 0
1.536 -0.92699999 0.537 78 0 0
1.536 -0.92699999 0.53500003 67 0 0
1.5319999 -0.92400002 0.53100002 67 0 0
1.5369999 -0.92799997 0.52999997 74 0 0
1.538 -0.92799997 0.528 102 0 0
1.539 -0.92799997 0.52600002 81 0 0
1.539 -0.92799997 0.523 110 0 0
1.535 -0.92500001 0.51899999 86 0 0
1.5319999 -0.92299998 0.51499999 77 0 0
1.536 -0.92500001 0.514 77 0 0
1.5369999 -0.92500001 0.51099998 6 0 0
1.535 -0.92199999 0.50800002 69 0 0
1.539 -0.92400002 0.50599998 78 0 0
1.536 -0.921 0.50300002 81 0 0
1.5369999 -0.921 0.5 80 0 0
1.538 -0.921 0.498 82 0 0
1.54 -0.921 0.495 75 0 0
1.541 -0.92000002 0.493 63 0 0
1.541 -0.91900003 0.49000001 73 0 0
1.5420001 -0.91799998 0.48699999 65 0 0
1.538 -0.91399997 0.48300001 79 0 0
1.54 -0.91399997 0.47999999 95 0 0
1.541 -0.91299999 0.47799999 81 0 0
1.544 -0.91399997 0.47600001 84 0 0
1.544 -0.912 0.47299999 79 0 0
1.543 -0.90899998 0.46900001 73 0 0
1.551 -0.912 0.46799999 69 0 0
1.55 -0.91000003 0.465 79 0 0
1.549 -0.90799999 0.46200001 86 0 0
1.5549999 -0.90899998 0.46000001 79 0 0
1.552 -0.90600002 0.456 84 0 0
1.551 -0.903 0.45300001 72 0 0
1.5549999 -0.903 0.45100001 80 0 0
1.556 -0.90100002 0.44800001 2 0 0
1.556 -0.89899999 0.44499999 2 0 0
1.564 -0.90200001 0.44400001 60 0 0
1.561 -0.89700001 0.44 58 0 0
1.5650001 -0.89700001 0.43700001 50 0 0
1.5650001 -0.89499998 0.43399999 150 16 0
1.571 -0.89499998 0.433 2 0 0
1.572 -0.89300001 0.43000001 150 16 0
1.574 -0.89200002 0.42699999 61 0 0
1.575 -0.88999999 0.42399999 51 0 0
1.579 -0.889 0.421 57 0 0
1.58 -0.88700002 0.41800001 49 0 0
1.582 -0.88499999 0.41600001 55 0 0
1.585 -0.884 0.41299999 54 0 0
1.587 -0.88200003 0.41 52 0 0
1.589 -0.88 0.40799999 54 0 0
1.591 -0.87800002 0.405 54 0 0
1.5930001 -0.875 0.40200001 57 0 0
1.602 -0.87699997 0.40099999 55 0 0
1.604 -0.875 0.398 47 0 0
1.6059999 -0.87300003 0.39500001 45 0 0
1.608 -0.87099999 0.39199999 45 0 0
1.613 -0.87 0.38999999 38 0 0
1.612 -0.866 0.38600001 37 0 0
1.617 -0.86500001 0.384 43 0 0
1.62 -0.86299998 0.382 49 0 0
1.622 -0.86000001 0.37900001 46 0 0
1.625 -0.85799998 0.37599999 46 0 0
1.627 -0.85600001 0.373 46 0 0
1.6289999 -0.85299999 0.37 51 0 0
1.6339999 -0.852 0.368 47 0 0
1.637 -0.84899998 0.366 40 0 0
1.641 -0.84799999 0.36300001 47 0 0
1.643 -0.84500003 0.36000001 52 0 0
1.651 -0.84500003 0.359 32 0 0
1.653 -0.84200001 0.35600001 41 0 0
1.663 -0.84200001 0.354 41 0 0
1.663 -0.83899999 0.35100001 1 0 0
1.668 -0.83700001 0.34900001 2 0 0
1.673 -0.83499998 0.347 2 0 0
1.677 -0.833 0.34400001 2 0 0
1.6799999 -0.82999998 0.34099999 45 0 0
1.6900001 -0.83099997 0.34 1 0 0
1.693 -0.82800001 0.33700001 1 0 0
1.696 -0.82499999 0.33500001 1 0 0
1.701 -0.82300001 0.33199999 1 0 0
1.696 -0.81599998 0.32800001 142 16 0
1.705 -0.81599998 0.32600001 148 16 0
1.711 -0.81400001 0.324 123 16 0
1.711 -0.81 0.32100001 125 16 0
1.721 -0.80900002 0.31999999 132 16 0
1.729 -0.80900002 0.31799999 140 16 0
1.7309999 -0.80400002 0.315 109 16 0
1.7359999 -0.80199999 0.31299999 122 16 0
1.7410001 -0.79900002 0.31 129 16 0
1.744 -0.796 0.30700001 129 16 0
1.7460001 -0.792 0.30500001 126 16 0
1.7539999 -0.79100001 0.303 122 16 0
1.7589999 -0.78799999 0.30000001 120 16 0
1.763 -0.78500003 0.29800001 129 16 0
1.77 -0.78299999 0.296 124 16 0
1.775 -0.77999997 0.29300001 115 16 0
1.777 -0.77600002 0.29100001 114 16 0
1.791 -0.77700001 0.28999999 120 16 0
1.796 -0.77399999 0.287 124 16 0
1.798 -0.76999998 0.285 125 16 0
1.802 -0.76599997 0.28200001 117 16 0
1.809 -0.764 0.28 135 16 0
1.814 -0.76099998 0.278 120 16 0
1.8200001 -0.75800002 0.27500001 127 16 0
1.824 -0.75400001 0.273 118 16 0
1.832 -0.75199997 0.271 131 16 0
1.836 -0.74800003 0.26800001 115 16 0
1.842 -0.745 0.266 106 16 0
1.85 -0.74299997 0.264 112 16 0
1.8559999 -0.74000001 0.26199999 114 16 0
1.864 -0.73699999 0.25999999 120 16 0
1.8660001 -0.73299998 0.257 112 16 0
1.874 -0.73000002 0.255 121 16 0
1.8789999 -0.727 0.25299999 102 16 0
1.883 -0.722 0.25 112 16 0
1.885 -0.71799999 0.248 103 16 0
1.893 -0.71499997 0.24600001 108 16 0
1.9069999 -0.71499997 0.245 106 16 0
1.913 -0.71100003 0.242 103 16 0
1.9220001 -0.708 0.241 103 16 0
1.927 -0.704 0.23800001 95 16 0
1.933 -0.70099998 0.236 108 16 0
1.942 -0.69800001 0.234 101 16 0
1.947 -0.69400001 0.23199999 88 16 0
1.957 -0.69099998 0.23 83 16 0
1.9630001 -0.68800002 0.228 87 16 0
1.969 -0.68400002 0.22499999 83 16 0
1.976 -0.68000001 0.223 81 16 0
1.984 -0.67699999 0.221 71 16 0
1.988 -0.67199999 0.219 77 16 0
2 -0.67000002 0.21699999 75 16 0
2.007 -0.66600001 0.215 74 16 0
2.0139999 -0.662 0.213 75 16 0
2.0220001 -0.65799999 0.211 81 16 0
2.027 -0.65399998 0.20900001 71 16 0
2.036 -0.64999998 0.207 74 16 0
2.0450001 -0.64700001 0.205 74 16 0
2.0539999 -0.64300001 0.20299999 68 16 0
2.0650001 -0.63999999 0.20100001 66 16 0
2.0669999 -0.63499999 0.198 57 16 0
2.0769999 -0.63099998 0.197 58 16 0
2.0840001 -0.62699997 0.19400001 61 16 0
2.092 -0.62300003 0.192 59 16 0
2.1029999 -0.61900002 0.191 65 16 0
2.115 -0.61699998 0.189 66 16 0
2.1199999 -0.611 0.18700001 66 16 0
2.1340001 -0.60900003 0.185 64 16 0
2.1389999 -0.60399997 0.183 60 16 0
2.145 -0.59799999 0.18000001 64 16 0
2.1619999 -0.597 0.17900001 59 16 0
2.1689999 -0.59200001 0.177 63 16 0
2.178 -0.58700001 0.175 59 16 0
2.191 -0.58399999 0.17299999 46 16 0
2.1960001 -0.57800001 0.171 50 16 0
2.2079999 -0.57499999 0.169 49 16 0
2.221 -0.57099998 0.167 48 16 0
2.2219999 -0.56400001 0.16500001 44 16 0
2.233 -0.56 0.163 47 16 0
2.2449999 -0.55599999 0.161 51 16 0
2.2520001 -0.551 0.15899999 45 16 0
2.26 -0.546 0.15700001 48 16 0
2.2720001 -0.54100001 0.155 48 16 0
2.2839999 -0.537 0.153 46 16 0
2.2920001 -0.53200001 0.15099999 43 16 0
2.3039999 -0.52700001 0.149 44 16 0
2.312 -0.52200001 0.147 41 16 0
2.322 -0.51700002 0.145 40 16 0
2.3399999 -0.514 0.14399999 47 16 0
2.348 -0.50800002 0.142 38 16 0
2.3570001 -0.50300002 0.139 38 16 0
2.369 -0.498 0.138 32 16 0
2.3770001 -0.49200001 0.13500001 29 16 0
2.3900001 -0.48699999 0.134 38 16 0
2.401 -0.48199999 0.132 45 16 0
2.4119999 -0.477 0.13 43 16 0
2.4230001 -0.47099999 0.12800001 39 16 0
2.437 -0.46599999 0.126 36 16 0
2.448 -0.461 0.124 33 16 0
2.4590001 -0.45500001 0.122 34 16 0
2.473 -0.44999999 0.12 31 16 0
2.483 -0.44400001 0.118 33 16 0
2.494 -0.43799999 0.116 32 16 0
2.503 -0.43200001 0.114 32 16 0
2.516 -0.426 0.112 32 16 0
2.53 -0.421 0.11 33 16 0
2.5439999 -0.41499999 0.108 33 16 0
2.5539999 -0.40799999 0.106 32 16 0
2.5610001 -0.40200001 0.104 30 16 0
2.582 -0.39700001 0.102 32 16 0
2.589 -0.38999999 0.1 31 16 0
2.608 -0.384 0.097999997 32 16 0
2.6240001 -0.37799999 0.096000001 32 16 0
2.6329999 -0.37099999 0.093999997 31 16 0
2.648 -0.36500001 0.092 32 16 0
2.6670001 -0.359 0.090000004 27 16 0
2.6760001 -0.352 0.088 27 16 0
2.694 -0.34599999 0.086000003 26 16 0
2.7049999 -0.33899999 0.083999999 27 16 0
2.7160001 -0.33199999 0.082000002 26 16 0
2.727 -0.32499999 0.079999998 26 16 0
2.75 -0.31900001 0.078000002 27 16 0
2.76 -0.31099999 0.075999998 26 16 0
2.7739999 -0.30399999 0.074000001 26 16 0
2.7909999 -0.29699999 0.071999997 26 16 0
2.7980001 -0.289 0.07 26 16 0
2.8210001 -0.28299999 0.068000004 25 16 0
2.8329999 -0.27500001 0.066 25 16 0
2.8499999 -0.26800001 0.064000003 26 16 0
2.8640001 -0.25999999 0.061999999 25 16 0
2.8759999 -0.252 0.059999999 26 16 0
2.8929999 -0.244 0.057999998 23 16 0
2.915 -0.237 0.056000002 25 16 0
2.934 -0.229 0.054000001 25 16 0
2.9519999 -0.221 0.052000001 25 16 0
2.9649999 -0.213 0.048999999 25 16 0
2.984 -0.205 0.046999998 26 16 0
3.0009999 -0.197 0.045000002 25 16 0
3.0139999 -0.18799999 0.043000001 25 16 0
3.04 -0.18000001 0.041000001 25 16 0
3.059 -0.17200001 0.039000001 24 16 0
3.0739999 -0.163 0.037 24 16 0
3.095 -0.154 0.035 24 16 0
3.1129999 -0.145 0.032000002 24 16 0
3.131 -0.13600001 0.029999999 25 16 0
3.155 -0.127 0.028000001 26 16 0
3.174 -0.118 0.026000001 26 16 0
3.1960001 -0.109 0.024 25 16 0
3.2119999 -0.098999999 0.022 25 16 0
3.2320001 -0.090000004 0.018999999 24 16 0
3.253 -0.079999998 0.017000001 27 16 0
3.2750001 -0.07 0.015 54 16 0
3.266 -0.059999999 0.013 141 16 0
3.266 -0.048999999 0.0099999998 100 16 0
3.26 -0.039000001 0.0080000004 111 16 0
3.25 -0.028000001 0.0060000001 104 16 0
3.2479999 -0.017999999 0.0040000002 38 16 0
3.2620001 -0.0080000004 0.001 17 16 0
3.2780001 0.0020000001 0 17 16 0
3.302 0.012 -0.0020000001 18 16 0
3.3269999 0.023 -0.0040000002 30 16 0
3.323 0.033 -0.0070000002 51 16 0
3.3150001 0.044 -0.0089999996 53 16 0
3.312 0.054000001 -0.011 39 16 0
3.3039999 0.064000003 -0.013 47 16 0
3.3010001 0.075000003 -0.015 50 16 0
3.2880001 0.085000001 -0.017000001 48 16 0
3.2850001 0.094999999 -0.018999999 54 16 0
3.28 0.106 -0.021 53 16 0
3.273 0.116 -0.023 52 16 0
3.266 0.126 -0.025 53 16 0
3.2620001 0.13600001 -0.027000001 54 16 0
3.2550001 0.146 -0.028999999 55 16 0
3.2490001 0.156 -0.030999999 59 16 0
3.244 0.167 -0.033 63 16 0
