# .PCD v0.7 - Point Cloud Data file format
VERSION 0.7
FIELDS x y z intensity tag line
SIZE 4 4 4 4 1 1
TYPE F F F F U U
COUNT 1 1 1 1 1 1
WIDTH 1357
HEIGHT 1
VIEWPOINT 0 0 0 1 0 0 0
POINTS 1357
DATA ascii
2.724 0.20999999 -1.125 150 16 0
2.7179999 0.213 -1.131 150 16 0
2.7160001 0.21600001 -1.1390001 150 16 0
2.7060001 0.21799999 -1.1440001 150 16 0
2.7 0.221 -1.15 150 16 0
2.698 0.22400001 -1.1569999 150 16 0
2.6949999 0.227 -1.165 150 16 0
2.6889999 0.23 -1.17 150 16 0
2.687 0.233 -1.178 150 16 0
2.6849999 0.236 -1.186 150 16 0
2.6730001 0.23899999 -1.189 150 16 0
2.675 0.242 -1.198 150 16 0
2.6719999 0.245 -1.205 150 16 0
2.6600001 0.248 -1.2079999 150 16 0
2.6570001 0.25099999 -1.215 150 16 0
2.6500001 0.25400001 -1.22 150 16 0
2.6470001 0.257 -1.227 150 16 0
2.6429999 0.25999999 -1.233 143 16 0
2.6429999 0.264 -1.2410001 150 16 0
2.6340001 0.26699999 -1.245 150 16 0
2.6300001 0.27000001 -1.251 150 16 0
2.6270001 0.273 -1.258 150 16 0
2.6210001 0.27599999 -1.263 150 16 0
2.6170001 0.28 -1.2690001 150 16 0
2.6140001 0.28299999 -1.275 150 16 0
2.6099999 0.28600001 -1.281 150 16 0
2.6059999 0.28999999 -1.2869999 150 16 0
2.6029999 0.29300001 -1.293 150 16 0
2.5999999 0.29699999 -1.299 150 16 0
2.596 0.30000001 -1.3049999 150 16 0
2.5910001 0.303 -1.3099999 150 16 0
2.586 0.30700001 -1.3150001 150 16 0
2.5840001 0.31099999 -1.322 150 16 0
2.575 0.31299999 -1.324 150 16 0
2.5680001 0.31600001 -1.3279999 150 16 0
2.5650001 0.31999999 -1.334 150 16 0
2.5610001 0.324 -1.339 150 16 0
2.5580001 0.32699999 -1.345 150 16 0
2.553 0.33000001 -1.349 143 16 0
2.5510001 0.33399999 -1.355 150 16 0
2.5450001 0.338 -1.359 135 16 0
2.543 0.34099999 -1.365 142 16 0
2.536 0.345 -1.368 142 16 0
2.5380001 0.34900001 -1.376 150 16 0
2.529 0.352 -1.378 145 16 0
2.526 0.35600001 -1.383 141 16 0
2.5220001 0.359 -1.388 131 16 0
2.5190001 0.36300001 -1.393 138 16 0
2.516 0.36700001 -1.397 137 16 0
2.5109999 0.37 -1.401 132 16 0
2.5079999 0.37400001 -1.406 138 16 0
2.5020001 0.377 -1.409 142 16 0
2.4979999 0.38100001 -1.413 138 16 0
2.4949999 0.38499999 -1.4170001 139 16 0
2.4920001 0.389 -1.4220001 136 16 0
2.4860001 0.39199999 -1.425 138 16 0
2.483 0.396 -1.429 127 16 0
2.48 0.40000001 -1.433 132 16 0
2.477 0.40400001 -1.437 124 16 0
2.474 0.40799999 -1.441 123 16 0
2.471 0.41100001 -1.4450001 128 16 0
2.4679999 0.41499999 -1.449 134 16 0
2.4649999 0.419 -1.452 130 16 0
2.4630001 0.42300001 -1.457 146 16 0
2.457 0.426 -1.459 135 16 0
2.454 0.43000001 -1.462 145 16 0
2.451 0.43399999 -1.465 145 16 0
2.448 0.43799999 -1.469 143 16 0
2.4389999 0.44100001 -1.4680001 136 16 0
2.4360001 0.44499999 -1.471 133 16 0
2.4330001 0.449 -1.474 138 16 0
2.437 0.454 -1.482 140 16 0
2.428 0.456 -1.4809999 143 16 0
2.425 0.46000001 -1.483 139 16 0
2.4230001 0.46399999 -1.4859999 137 16 0
2.4200001 0.46799999 -1.489 136 16 0
2.4119999 0.47099999 -1.488 142 16 0
2.4089999 0.47499999 -1.4910001 136 16 0
2.4119999 0.47999999 -1.497 150 16 0
2.4070001 0.48300001 -1.497 126 16 0
2.402 0.486 -1.498 135 16 0
2.402 0.491 -1.502 134 16 0
2.3959999 0.49399999 -1.502 135 16 0
2.395 0.498 -1.505 140 16 0
2.392 0.50099999 -1.506 140 16 0
2.3889999 0.505 -1.507 139 16 0
2.3900001 0.50999999 -1.511 136 16 0
2.3859999 0.51300001 -1.512 135 16 0
2.3829999 0.51700002 -1.513 133 16 0
2.382 0.52100003 -1.515 135 16 0
2.3789999 0.52399999 -1.516 138 16 0
2.375 0.528 -1.516 129 16 0
2.3729999 0.53100002 -1.517 129 16 0
2.3710001 0.53500003 -1.5190001 125 16 0
2.368 0.53899997 -1.5190001 128 16 0
2.3659999 0.542 -1.52 132 16 0
2.3610001 0.54500002 -1.5190001 143 16 0
2.3559999 0.54799998 -1.518 131 16 0
2.3570001 0.55199999 -1.52 134 16 0
2.3570001 0.55699998 -1.522 128 16 0
2.352 0.55900002 -1.521 130 16 0
2.3510001 0.56300002 -1.521 128 16 0
2.3499999 0.56699997 -1.522 130 16 0
2.348 0.56999999 -1.522 128 16 0
2.346 0.574 -1.522 126 16 0
2.346 0.57800001 -1.523 134 16 0
2.339 0.579 -1.5190001 125 16 0
2.342 0.58399999 -1.522 132 16 0
2.3369999 0.58700001 -1.5190001 129 16 0
2.3410001 0.59100002 -1.523 130 16 0
2.339 0.59500003 -1.522 128 16 0
2.335 0.597 -1.52 135 16 0
2.3329999 0.60000002 -1.5190001 138 16 0
2.3329999 0.60399997 -1.5190001 128 16 0
2.329 0.60600001 -1.516 124 16 0
2.3280001 0.61000001 -1.515 121 16 0
2.329 0.61299998 -1.515 129 16 0
2.325 0.61500001 -1.513 128 16 0
2.325 0.61900002 -1.512 136 16 0
2.3239999 0.62199998 -1.511 135 16 0
2.3239999 0.625 -1.51 144 16 0
2.3199999 0.62699997 -1.506 135 16 0
2.322 0.63099998 -1.507 129 16 0
2.3210001 0.634 -1.505 146 16 0
2.3199999 0.63599998 -1.503 141 16 0
2.3199999 0.639 -1.502 138 16 0
2.3239999 0.64300001 -1.503 137 16 0
2.3199999 0.64499998 -1.499 141 16 0
2.319 0.648 -1.497 139 16 0
2.319 0.65100002 -1.495 142 16 0
2.3169999 0.653 -1.492 150 16 0
2.3199999 0.65600002 -1.4910001 145 16 0
2.3210001 0.65899998 -1.49 147 16 0
2.319 0.66100001 -1.4859999 148 16 0
2.322 0.66399997 -1.4859999 150 16 0
2.3169999 0.66600001 -1.48 150 16 0
2.3180001 0.66799998 -1.478 150 16 0
2.319 0.671 -1.476 150 16 0
2.319 0.67299998 -1.473 150 16 0
2.3169999 0.67500001 -1.469 150 16 0
2.3210001 0.67799997 -1.4680001 150 16 0
2.3210001 0.68000001 -1.465 150 16 0
2.3169999 0.68099999 -1.46 150 16 0
2.3180001 0.68400002 -1.457 150 16 0
2.3199999 0.68599999 -1.455 150 16 0
2.3210001 0.68800002 -1.452 150 16 0
2.3239999 0.69 -1.449 150 16 0
2.3210001 0.69099998 -1.444 150 16 0
2.322 0.69300002 -1.441 150 16 0
2.323 0.69499999 -1.438 150 16 0
2.325 0.69700003 -1.434 150 16 0
2.326 0.699 -1.431 150 16 0
2.322 0.699 -1.424 150 16 0
2.325 0.70200002 -1.4220001 150 16 0
2.3280001 0.704 -1.419 150 16 0
2.332 0.70599997 -1.4170001 150 16 0
2.3280001 0.70599997 -1.41 150 16 0
2.3269999 0.70700002 -1.405 150 16 0
2.332 0.70899999 -1.403 150 16 0
2.3280001 0.70899999 -1.396 150 16 0
2.3299999 0.70999998 -1.392 150 16 0
2.3369999 0.713 -1.391 150 16 0
2.3340001 0.713 -1.3839999 150 16 0
2.335 0.71399999 -1.3789999 150 16 0
2.3399999 0.71600002 -1.377 150 16 0
2.339 0.71600002 -1.3710001 150 16 0
2.3410001 0.71700001 -1.367 150 16 0
2.3429999 0.71899998 -1.362 150 16 0
2.345 0.71899998 -1.358 150 16 0
2.3440001 0.71899998 -1.352 150 16 0
2.3529999 0.722 -1.351 150 16 0
2.352 0.722 -1.345 150 16 0
2.3499999 0.722 -1.3380001 150 16 0
2.3540001 0.72299999 -1.334 150 16 0
2.3559999 0.72299999 -1.329 150 16 0
2.365 0.72600001 -1.3279999 150 16 0
2.3610001 0.72399998 -1.3200001 150 16 0
2.362 0.72399998 -1.314 150 16 0
2.3640001 0.72500002 -1.309 150 16 0
2.369 0.72600001 -1.3049999 150 16 0
2.3710001 0.72600001 -1.3 150 16 0
2.372 0.72600001 -1.294 150 16 0
2.3770001 0.727 -1.29 150 16 0
2.378 0.72600001 -1.284 150 16 0
2.3770001 0.72600001 -1.277 150 16 0
2.3789999 0.72500002 -1.271 150 16 0
2.388 0.727 -1.2690001 150 16 0
2.385 0.72600001 -1.261 150 16 0
2.388 0.72600001 -1.256 150 16 0
2.3929999 0.72600001 -1.252 150 16 0
2.3959999 0.72600001 -1.2460001 150 16 0
2.3989999 0.72500002 -1.2410001 150 16 0
2.3989999 0.72399998 -1.234 150 16 0
2.404 0.72500002 -1.23 150 16 0
2.4000001 0.722 -1.22 150 16 0
2.4100001 0.72399998 -1.219 150 16 0
2.4130001 0.72299999 -1.2130001 150 16 0
2.4089999 0.72000003 -1.204 150 16 0
2.4119999 0.72000003 -1.198 150 16 0
2.4219999 0.72100002 -1.196 150 16 0
2.421 0.71899998 -1.188 150 16 0
2.421 0.71700001 -1.181 150 16 0
2.424 0.71700001 -1.175 150 16 0
2.427 0.71600002 -1.169 150 16 0
2.434 0.71600002 -1.165 150 16 0
2.4349999 0.71399999 -1.158 150 16 0
2.4360001 0.713 -1.151 150 16 0
2.444 0.713 -1.147 150 16 0
2.4430001 0.70999998 -1.1390001 150 16 0
2.45 0.70999998 -1.135 150 16 0
2.4530001 0.70899999 -1.1289999 150 16 0
2.457 0.708 -1.123 150 16 0
2.46 0.70599997 -1.117 150 16 0
2.4630001 0.70499998 -1.1109999 150 16 0
2.4660001 0.704 -1.104 150 16 0
2.4690001 0.70200002 -1.098 150 16 0
2.474 0.70099998 -1.0930001 150 16 0
2.4760001 0.699 -1.086 150 16 0
2.4790001 0.69700003 -1.079 150 16 0
2.4820001 0.69499999 -1.073 150 16 0
2.4879999 0.69400001 -1.068 150 16 0
2.4890001 0.69199997 -1.0599999 150 16 0
2.4949999 0.69099998 -1.0549999 150 16 0
2.5 0.68900001 -1.049 150 16 0
2.5009999 0.68699998 -1.0420001 150 16 0
2.5039999 0.685 -1.036 150 16 0
2.5079999 0.68300003 -1.029 150 16 0
2.5109999 0.68000001 -1.023 150 16 0
2.5220001 0.68099999 -1.0190001 150 16 0
2.527 0.67900002 -1.0140001 150 16 0
2.5369999 0.67799997 -1.0089999 150 16 0
2.536 0.67500001 -1.001 103 16 0
2.5450001 0.67400002 -0.99699998 10 16 0
2.6289999 0.69300002 -1.022 0 17 0
2.6229999 0.68800002 -1.011 0 16 0
2.625 0.685 -1.003 0 16 0
2.641 0.685 -1.001 0 16 0
2.5969999 0.67000002 -0.977 0 17 0
2.6329999 0.676 -0.98199999 0 16 0
2.632 0.67199999 -0.97399998 0 16 0
2.6429999 0.67199999 -0.97000003 0 16 0
2.6400001 0.667 -0.95999998 0 16 0
2.6530001 0.667 -0.95700002 0 16 0
2.6589999 0.66399997 -0.95099998 0 16 0
2.5969999 0.64499998 -0.921 4 17 0
2.5940001 0.64099997 -0.912 38 16 0
2.5969999 0.63800001 -0.90499997 150 16 0
2.6029999 0.63499999 -0.89899999 150 16 0
2.6040001 0.63099998 -0.89099997 150 16 0
2.609 0.62900001 -0.88499999 150 16 0
2.6110001 0.625 -0.87699997 150 16 0
2.618 0.62300003 -0.87099999 150 16 0
2.6210001 0.62 -0.86400002 150 16 0
2.6240001 0.616 -0.85799998 150 16 0
2.6270001 0.61299998 -0.85100001 150 16 0
2.6340001 0.611 -0.84500003 150 16 0
2.6440001 0.60900003 -0.83999997 150 16 0
2.6470001 0.60500002 -0.833 150 16 0
2.648 0.60100001 -0.82499999 150 16 0
2.6530001 0.59799999 -0.81900001 150 16 0
2.661 0.59600002 -0.81300002 150 16 0
2.664 0.59200001 -0.80599999 150 16 0
2.665 0.588 -0.79900002 150 16 0
2.6730001 0.58499998 -0.79299998 150 16 0
2.6760001 0.58200002 -0.78600001 150 16 0
2.6800001 0.57800001 -0.77899998 150 16 0
2.6860001 0.57499999 -0.773 150 16 0
2.6930001 0.57200003 -0.76700002 150 16 0
2.6960001 0.56800002 -0.75999999 150 16 0
2.701 0.565 -0.75300002 150 16 0
2.7079999 0.56099999 -0.74699998 150 16 0
2.7090001 0.55699998 -0.74000001 150 16 0
2.7130001 0.55299997 -0.73299998 150 16 0
2.7160001 0.54900002 -0.72600001 150 16 0
2.7219999 0.546 -0.71899998 150 16 0
2.724 0.54100001 -0.71200001 150 16 0
2.7309999 0.53799999 -0.70599997 150 16 0
2.7360001 0.53399998 -0.699 150 16 0
2.7460001 0.53100002 -0.69400001 150 16 0
2.753 0.528 -0.68800002 150 16 0
2.756 0.52399999 -0.68000001 150 16 0
2.76 0.51899999 -0.67299998 150 16 0
2.7690001 0.51599997 -0.667 150 16 0
2.7720001 0.51200002 -0.66000003 150 16 0
2.777 0.50800002 -0.65399998 150 16 0
2.7809999 0.50300002 -0.64700001 150 16 0
2.783 0.49900001 -0.639 150 16 0
2.7920001 0.495 -0.63300002 150 16 0
2.7939999 0.491 -0.62599999 150 16 0
2.8050001 0.48699999 -0.62 150 16 0
2.8080001 0.48300001 -0.61299998 150 16 0
2.812 0.47799999 -0.60600001 150 16 0
2.8199999 0.47400001 -0.60000002 150 16 0
2.829 0.47099999 -0.59399998 150 16 0
2.832 0.46599999 -0.58600003 150 16 0
2.8299999 0.46000001 -0.57800001 150 16 0
2.846 0.458 -0.574 150 16 0
2.846 0.45199999 -0.565 150 16 0
2.8499999 0.447 -0.55800003 150 16 0
2.855 0.44299999 -0.55199999 150 16 0
2.858 0.43799999 -0.54400003 150 16 0
2.8659999 0.43399999 -0.53799999 150 16 0
2.8729999 0.42899999 -0.53100002 150 16 0
2.875 0.42399999 -0.52399999 150 16 0
2.881 0.41999999 -0.51700002 150 16 0
2.8859999 0.41499999 -0.50999999 150 16 0
2.8900001 0.41 -0.50300002 150 16 0
2.8929999 0.405 -0.49599999 150 16 0
2.9089999 0.40099999 -0.49000001 150 16 0
2.911 0.396 -0.48300001 150 16 0
2.9170001 0.391 -0.47600001 150 16 0
2.928 0.38699999 -0.47 150 16 0
2.9330001 0.382 -0.463 150 16 0
2.9319999 0.37599999 -0.45500001 150 16 0
2.9430001 0.37200001 -0.449 150 16 0
2.95 0.36700001 -0.442 150 16 0
2.9519999 0.361 -0.43399999 150 16 0
2.96 0.35600001 -0.428 150 16 0
2.9690001 0.35100001 -0.421 150 16 0
2.973 0.34599999 -0.414 150 16 0
2.977 0.34099999 -0.40700001 150 16 0
2.984 0.336 -0.40000001 150 16 0
2.9890001 0.33000001 -0.39300001 150 16 0
2.9960001 0.32499999 -0.38600001 150 16 0
3.0009999 0.31999999 -0.37799999 150 16 0
3.0050001 0.31400001 -0.37099999 150 16 0
3.0179999 0.30899999 -0.36500001 150 16 0
3.017 0.303 -0.35699999 150 16 0
3.0209999 0.29699999 -0.34999999 150 16 0
3.0320001 0.292 -0.34299999 150 16 0
3.036 0.287 -0.336 150 16 0
3.0420001 0.28099999 -0.32800001 150 16 0
3.05 0.27599999 -0.32100001 150 16 0
3.0550001 0.27000001 -0.31400001 150 16 0
3.0610001 0.264 -0.30700001 150 16 0
3.0650001 0.25799999 -0.30000001 150 16 0
3.069 0.252 -0.292 150 16 0
3.0739999 0.24600001 -0.285 150 16 0
3.085 0.241 -0.278 150 16 0
3.0940001 0.235 -0.271 150 16 0
3.098 0.229 -0.26300001 150 16 0
3.102 0.223 -0.25600001 150 16 0
3.1129999 0.21699999 -0.249 150 16 0
3.119 0.211 -0.241 150 16 0
3.1270001 0.205 -0.234 150 16 0
3.1329999 0.199 -0.227 150 16 0
3.1370001 0.193 -0.219 150 16 0
3.1459999 0.18700001 -0.212 150 16 0
3.1530001 0.18099999 -0.205 150 16 0
3.1570001 0.17399999 -0.197 131 16 0
3.165 0.168 -0.19 128 16 0
3.1719999 0.162 -0.182 129 16 0
3.177 0.155 -0.175 122 16 0
3.188 0.149 -0.167 139 16 0
3.1919999 0.14300001 -0.16 125 16 0
3.2019999 0.13600001 -0.153 111 16 0
3.2049999 0.13 -0.145 116 16 0
3.2160001 0.123 -0.13699999 122 16 0
3.2260001 0.117 -0.13 133 16 0
3.2349999 0.11 -0.122 126 16 0
3.2379999 0.103 -0.115 124 16 0
3.2420001 0.096000001 -0.107 118 16 0
3.2509999 0.090000004 -0.098999999 100 16 0
3.2609999 0.082999997 -0.092 118 16 0
3.2620001 0.075999998 -0.083999999 116 16 0
3.2709999 0.068999998 -0.075999998 103 16 0
3.279 0.061999999 -0.068000004 50 16 0
3.2880001 0.055 -0.061000001 49 16 0
3.2880001 0.048 -0.052999999 104 16 0
3.2980001 0.041000001 -0.045000002 93 16 0
3.3099999 0.034000002 -0.037 79 16 0
3.3169999 0.027000001 -0.028999999 39 16 0
3.3080001 0.02 -0.021 22 16 0
3.293 0.012 -0.013 19 16 0
3.279 0.0049999999 -0.0060000001 19 16 0
3.2690001 -0.001 0.001 19 16 0
3.2520001 -0.0080000004 0.0089999996 23 16 0
3.2479999 -0.015 0.017000001 52 16 0
3.2620001 -0.023 0.024 150 16 0
3.266 -0.029999999 0.032000002 150 16 0
3.2750001 -0.037 0.039999999 150 16 0
3.2809999 -0.045000002 0.048 150 16 0
3.2920001 -0.052000001 0.056000002 150 16 0
3.2939999 -0.059999999 0.064000003 150 16 0
3.296 -0.067000002 0.071000002 80 16 0
3.2869999 -0.074000001 0.079000004 31 16 0
3.273 -0.081 0.086000003 30 16 0
3.2609999 -0.088 0.093000002 30 16 0
3.2509999 -0.094999999 0.101 31 16 0
3.24 -0.102 0.108 30 16 0
3.2190001 -0.109 0.115 29 16 0
3.2090001 -0.116 0.122 28 16 0
3.201 -0.123 0.12899999 32 16 0
3.1960001 -0.13 0.13600001 33 16 0
3.174 -0.13600001 0.142 32 16 0
3.1619999 -0.14300001 0.149 34 16 0
3.151 -0.15000001 0.156 33 16 0
3.132 -0.156 0.162 31 16 0
3.1210001 -0.162 0.169 30 16 0
3.1140001 -0.169 0.175 31 16 0
3.099 -0.176 0.182 31 16 0
3.0869999 -0.182 0.18799999 30 16 0
3.0769999 -0.189 0.19499999 31 16 0
3.066 -0.19499999 0.20100001 30 16 0
3.0550001 -0.20100001 0.207 32 16 0
3.0420001 -0.208 0.213 32 16 0
3.0280001 -0.214 0.219 32 16 0
3.0150001 -0.22 0.22499999 32 16 0
3.0020001 -0.226 0.23100001 31 16 0
2.9909999 -0.23199999 0.237 32 16 0
2.9809999 -0.23899999 0.243 31 16 0
2.967 -0.244 0.248 32 16 0
2.9560001 -0.25099999 0.25400001 31 16 0
2.9489999 -0.257 0.25999999 32 16 0
2.9319999 -0.26199999 0.26499999 32 16 0
2.924 -0.26899999 0.271 31 16 0
2.908 -0.27399999 0.27599999 32 16 0
2.902 -0.28 0.28200001 33 16 0
2.8889999 -0.28600001 0.287 34 16 0
2.8789999 -0.292 0.292 34 16 0
2.868 -0.29800001 0.29699999 34 16 0
2.8559999 -0.30399999 0.303 31 16 0
2.849 -0.31 0.308 32 16 0
2.836 -0.315 0.31299999 31 16 0
2.8239999 -0.32100001 0.31799999 32 16 0
2.819 -0.32699999 0.324 32 16 0
2.8069999 -0.33199999 0.32800001 33 16 0
2.7909999 -0.338 0.333 31 16 0
2.7780001 -0.34299999 0.33700001 31 16 0
2.773 -0.34900001 0.34299999 33 16 0
2.7679999 -0.35499999 0.34799999 32 16 0
2.7520001 -0.36000001 0.352 32 16 0
2.7409999 -0.36500001 0.35699999 33 16 0
2.733 -0.37099999 0.361 33 16 0
2.724 -0.37599999 0.366 33 16 0
2.7119999 -0.382 0.37 35 16 0
2.7030001 -0.38699999 0.375 34 16 0
2.6960001 -0.39300001 0.38 34 16 0
2.687 -0.398 0.384 43 16 0
2.6730001 -0.403 0.38800001 47 16 0
2.6659999 -0.40900001 0.39300001 45 16 0
2.6570001 -0.414 0.39700001 45 16 0
2.6459999 -0.419 0.40099999 44 16 0
2.638 -0.42399999 0.40599999 55 16 0
2.6229999 -0.42899999 0.40900001 61 16 0
2.6110001 -0.43399999 0.41299999 55 16 0
2.608 -0.44 0.41800001 50 16 0
2.596 -0.44400001 0.421 56 16 0
2.5880001 -0.44999999 0.42500001 54 16 0
2.5780001 -0.45500001 0.42899999 58 16 0
2.569 -0.46000001 0.433 55 16 0
2.5580001 -0.46399999 0.43700001 55 16 0
2.546 -0.46900001 0.44 51 16 0
2.5420001 -0.47499999 0.44499999 55 16 0
2.5309999 -0.479 0.44800001 63 16 0
2.5220001 -0.484 0.45100001 60 16 0
2.517 -0.49000001 0.456 63 16 0
2.5039999 -0.49399999 0.45899999 61 16 0
2.4920001 -0.498 0.46200001 65 16 0
2.4809999 -0.50300002 0.465 70 16 0
2.4719999 -0.50700003 0.46799999 56 16 0
2.4649999 -0.51200002 0.472 62 16 0
2.4530001 -0.51700002 0.47400001 67 16 0
2.4489999 -0.52200001 0.479 71 16 0
2.437 -0.52600002 0.48100001 72 16 0
2.4289999 -0.53100002 0.48500001 70 16 0
2.4170001 -0.53500003 0.48699999 71 16 0
2.4119999 -0.54100001 0.491 73 16 0
2.398 -0.54400003 0.493 72 16 0
2.392 -0.54900002 0.49700001 78 16 0
2.385 -0.55400002 0.5 78 16 0
2.375 -0.55800003 0.50300002 78 16 0
2.368 -0.56300002 0.50599998 77 16 0
2.3599999 -0.56800002 0.509 78 16 0
2.355 -0.57300001 0.51200002 77 16 0
2.342 -0.57599998 0.514 72 16 0
2.336 -0.58099997 0.51700002 79 16 0
2.3239999 -0.58499998 0.51899999 79 16 0
2.3139999 -0.58899999 0.52100003 71 16 0
2.303 -0.59200001 0.523 72 16 0
2.2950001 -0.597 0.52600002 85 16 0
2.2909999 -0.602 0.52899998 86 16 0
2.2820001 -0.60600001 0.53200001 79 16 0
2.2709999 -0.61000001 0.53299999 86 16 0
2.2639999 -0.61400002 0.53600001 111 16 0
2.2579999 -0.61900002 0.53899997 90 16 0
2.244 -0.62099999 0.54000002 101 16 0
2.2379999 -0.62599999 0.542 104 16 0
2.23 -0.63 0.54500002 118 16 0
2.2190001 -0.63300002 0.546 108 16 0
2.211 -0.63800001 0.54799998 108 16 0
2.2019999 -0.64099997 0.55000001 107 16 0
2.2030001 -0.648 0.55400002 139 16 0
2.184 -0.64899999 0.55299997 126 16 0
2.177 -0.653 0.55500001 130 16 0
2.1700001 -0.65700001 0.55800003 136 16 0
2.164 -0.662 0.56 119 16 0
2.1530001 -0.66399997 0.56099999 121 16 0
2.151 -0.67000002 0.56400001 127 16 0
2.138 -0.67199999 0.565 136 16 0
2.1340001 -0.67699999 0.56699997 129 16 0
2.125 -0.68000001 0.56900001 134 16 0
2.118 -0.685 0.57099998 134 16 0
2.109 -0.68800002 0.57099998 141 16 0
2.1010001 -0.69199997 0.57300001 141 16 0
2.0910001 -0.69400001 0.574 129 16 0
2.0869999 -0.699 0.57599998 138 16 0
2.0780001 -0.70200002 0.57700002 141 16 0
2.0669999 -0.70499998 0.57800001 137 16 0
2.0650001 -0.70999998 0.57999998 148 16 0
2.0539999 -0.71200001 0.58099997 147 16 0
2.0510001 -0.71799999 0.583 150 16 0
2.04 -0.72000003 0.583 146 16 0
2.03 -0.722 0.58399999 150 16 0
2.016 -0.72299999 0.583 150 16 0
2.0109999 -0.72799999 0.58499998 150 16 0
2.0050001 -0.73100001 0.58600003 150 16 0
2.0009999 -0.736 0.588 150 16 0
1.9910001 -0.73799998 0.588 149 16 0
1.985 -0.74199998 0.58899999 150 16 0
1.976 -0.745 0.58899999 149 16 0
1.973 -0.75 0.59200001 150 16 0
1.9630001 -0.75099999 0.59100002 150 16 0
1.9579999 -0.75599998 0.59299999 150 16 0
1.947 -0.75700003 0.59200001 150 16 0
1.942 -0.76099998 0.59299999 150 16 0
1.932 -0.76300001 0.59299999 150 16 0
1.928 -0.76700002 0.59399998 149 16 0
1.918 -0.76899999 0.59399998 150 16 0
1.916 -0.77399999 0.59600002 150 16 0
1.906 -0.77600002 0.59500003 150 16 0
1.895 -0.77700001 0.59399998 150 16 0
1.89 -0.77999997 0.59500003 150 16 0
1.885 -0.78399998 0.59600002 150 16 0
1.875 -0.78600001 0.59500003 150 16 0
1.874 -0.79100001 0.59799999 150 16 0
1.863 -0.792 0.59600002 150 16 0
1.8559999 -0.79500002 0.59600002 150 16 0
1.854 -0.79900002 0.59799999 150 16 0
1.845 -0.801 0.597 150 16 0
1.8430001 -0.80500001 0.59799999 150 16 0
1.835 -0.80800003 0.59799999 150 16 0
1.827 -0.81 0.59799999 150 16 0
1.821 -0.81199998 0.597 150 16 0
1.813 -0.81400001 0.597 150 16 0
1.808 -0.81699997 0.597 150 16 0
1.802 -0.81999999 0.597 150 16 0
1.7970001 -0.82300001 0.597 150 16 0
1.781 -0.82099998 0.59299999 150 19 0
1.776 -0.824 0.59299999 150 16 0
1.772 -0.82800001 0.59399998 150 16 0
1.768 -0.83099997 0.59399998 150 16 0
1.7640001 -0.83399999 0.59399998 150 16 0
1.7589999 -0.83700001 0.59399998 150 16 0
1.753 -0.83899999 0.59399998 150 16 0
1.747 -0.84100002 0.59299999 150 16 0
1.745 -0.84500003 0.59299999 150 16 0
1.737 -0.84600002 0.59200001 150 16 0
1.733 -0.85000002 0.59200001 150 16 0
1.724 -0.85000002 0.58999997 150 16 0
1.722 -0.85399997 0.59100002 150 16 0
1.712 -0.85399997 0.588 150 16 0
1.71 -0.85699999 0.58899999 150 16 0
1.7029999 -0.85900003 0.588 150 16 0
1.697 -0.86000001 0.58700001 150 16 0
1.693 -0.86299998 0.58600003 150 16 0
1.6900001 -0.866 0.58600003 150 16 0
1.6849999 -0.86799997 0.58499998 150 16 0
1.6799999 -0.87 0.58399999 150 16 0
1.678 -0.87400001 0.58399999 150 16 0
1.669 -0.87300003 0.58200002 150 16 0
1.664 -0.87599999 0.58099997 150 16 0
1.658 -0.87699997 0.579 150 16 0
1.655 -0.87900001 0.579 150 16 0
1.647 -0.87900001 0.57599998 150 16 0
1.642 -0.88099998 0.57499999 150 16 0
1.638 -0.88300002 0.574 150 16 0
1.637 -0.88700002 0.574 150 16 0
1.633 -0.88800001 0.57300001 150 16 0
1.628 -0.88999999 0.57200003 150 16 0
1.624 -0.89200002 0.56999999 150 16 0
1.6210001 -0.89399999 0.56900001 150 16 0
1.612 -0.89300001 0.56699997 150 16 0
1.6109999 -0.89600003 0.56599998 150 16 0
1.609 -0.89899999 0.56599998 150 16 0
1.6059999 -0.90100002 0.56400001 150 16 0
1.599 -0.90100002 0.56199998 150 16 0
1.598 -0.90399998 0.56099999 150 16 0
1.596 -0.90600002 0.56099999 150 16 0
1.587 -0.90399998 0.55699998 150 19 0
1.585 -0.90700001 0.55599999 150 16 0
1.581 -0.90799999 0.55400002 150 16 0
1.579 -0.91000003 0.55299997 150 16 0
1.575 -0.91100001 0.551 150 16 0
1.569 -0.91100001 0.54900002 150 16 0
1.566 -0.912 0.54699999 150 16 0
1.5650001 -0.91500002 0.546 150 16 0
1.563 -0.917 0.54500002 150 16 0
1.5599999 -0.91799998 0.54299998 150 16 0
1.559 -0.92000002 0.542 150 16 0
1.553 -0.92000002 0.54000002 150 16 0
1.548 -0.91900003 0.537 150 16 0
1.551 -0.92400002 0.537 150 16 0
1.5420001 -0.921 0.53299999 150 16 0
1.539 -0.92199999 0.53100002 150 16 0
1.538 -0.92299998 0.52999997 150 16 0
1.534 -0.92400002 0.52700001 150 16 0
1.527 -0.92199999 0.52399999 103 3 0
1.534 -0.92799997 0.52499998 89 0 0
1.529 -0.92799997 0.52200001 96 0 0
1.523 -0.926 0.51899999 84 0 0
1.522 -0.92799997 0.51700002 99 0 0
1.522 -0.92900002 0.51599997 96 0 0
1.52 -0.93000001 0.514 70 0 0
1.5190001 -0.93199998 0.51200002 93 0 0
1.515 -0.93099999 0.50999999 82 0 0
1.513 -0.93099999 0.50700003 84 0 0
1.512 -0.93300003 0.50599998 85 0 0
1.5089999 -0.93300003 0.50300002 75 0 0
1.511 -0.935 0.50199997 85 0 0
1.506 -0.93300003 0.49900001 77 0 0
1.499 -0.93000001 0.495 75 0 0
1.501 -0.93300003 0.49399999 81 0 0
1.501 -0.93400002 0.49200001 81 0 0
1.5 -0.935 0.49000001 100 0 0
1.498 -0.93400002 0.48699999 79 0 0
1.498 -0.935 0.48500001 95 0 0
1.493 -0.93300003 0.48199999 88 0 0
1.49 -0.93199998 0.479 81 0 0
1.493 -0.935 0.47799999 99 0 0
1.492 -0.935 0.47600001 97 0 0
1.492 -0.93599999 0.47400001 73 0 0
1.489 -0.93400002 0.47 90 0 0
1.488 -0.93400002 0.46799999 68 0 0
1.487 -0.93400002 0.465 92 0 0
1.489 -0.935 0.46399999 77 0 0
1.487 -0.935 0.461 90 0 0
1.487 -0.935 0.45899999 88 0 0
1.483 -0.93199998 0.45500001 95 0 0
1.4859999 -0.93400002 0.454 87 0 0
1.4859999 -0.93400002 0.45199999 85 0 0
1.487 -0.935 0.44999999 87 0 0
1.485 -0.93300003 0.44600001 79 0 0
1.483 -0.93199998 0.44400001 80 0 0
1.4859999 -0.93300003 0.442 85 0 0
1.485 -0.93199998 0.43900001 97 0 0
1.485 -0.93199998 0.43700001 89 0 0
1.4859999 -0.93199998 0.435 89 0 0
1.487 -0.93199998 0.43200001 74 0 0
1.488 -0.93099999 0.43000001 99 0 0
1.489 -0.93099999 0.428 95 0 0
1.489 -0.93000001 0.42500001 88 0 0
1.49 -0.93000001 0.42300001 102 0 0
1.4910001 -0.93000001 0.421 110 0 0
1.4910001 -0.92900002 0.41800001 146 0 0
1.489 -0.926 0.41499999 91 0 0
1.49 -0.926 0.412 96 0 0
1.4910001 -0.92500001 0.41 80 0 0
1.493 -0.92500001 0.40799999 84 0 0
1.498 -0.926 0.40599999 98 0 0
1.4960001 -0.92400002 0.403 2 0 0
1.498 -0.92299998 0.40000001 4 0 0
1.497 -0.921 0.39700001 86 0 0
1.498 -0.92000002 0.39500001 88 0 0
1.497 -0.91799998 0.39199999 90 0 0
1.498 -0.917 0.389 79 0 0
1.5039999 -0.91799998 0.38800001 150 16 0
1.505 -0.917 0.38499999 73 0 0
1.508 -0.917 0.38299999 66 0 0
1.51 -0.91600001 0.38100001 69 0 0
1.5089999 -0.91299999 0.37799999 62 0 0
1.5089999 -0.91100001 0.375 94 0 0
1.512 -0.91100001 0.37200001 69 0 0
1.516 -0.91100001 0.37099999 59 0 0
1.5140001 -0.90700001 0.36700001 79 0 0
1.515 -0.90499997 0.36399999 75 0 0
1.5140001 -0.90200001 0.361 79 0 0
1.522 -0.90399998 0.36000001 67 0 0
1.523 -0.90200001 0.35699999 70 0 0
1.526 -0.90100002 0.35499999 71 0 0
1.529 -0.89999998 0.35299999 68 0 0
1.533 -0.89999998 0.35100001 60 0 0
1.53 -0.89499998 0.347 63 0 0
1.5319999 -0.89399999 0.34400001 78 0 0
1.538 -0.89399999 0.34299999 56 0 0
1.539 -0.89099997 0.34 85 0 0
1.539 -0.889 0.33700001 78 0 0
1.544 -0.88800001 0.33500001 68 0 0
1.548 -0.88700002 0.333 61 0 0
1.553 -0.88700002 0.331 150 16 0
1.554 -0.884 0.32800001 150 16 0
1.5549999 -0.88099998 0.32499999 73 0 0
1.556 -0.87800002 0.322 53 0 0
1.561 -0.87800002 0.32100001 54 0 0
1.562 -0.875 0.31799999 62 0 0
1.5700001 -0.87599999 0.31600001 150 16 0
1.569 -0.87199998 0.31299999 51 0 0
1.569 -0.86799997 0.31 62 0 0
1.5779999 -0.87 0.30899999 3 0 0
1.579 -0.866 0.30599999 150 16 0
1.585 -0.866 0.30399999 1 0 0
1.585 -0.86199999 0.301 51 0 0
1.589 -0.86000001 0.29899999 51 0 0
1.591 -0.85699999 0.296 57 0 0
1.599 -0.85799998 0.29499999 58 0 0
1.604 -0.85600001 0.29300001 55 0 0
1.602 -0.85100001 0.28999999 58 0 0
1.608 -0.85000002 0.28799999 48 0 0
1.61 -0.847 0.285 52 0 0
1.615 -0.84500003 0.28299999 41 0 0
1.622 -0.84500003 0.28099999 52 0 0
1.624 -0.84200001 0.27900001 52 0 0
1.626 -0.838 0.27599999 41 0 0
1.6289999 -0.83600003 0.27399999 32 0 0
1.6390001 -0.83600003 0.273 38 0 0
1.64 -0.83200002 0.27000001 34 0 0
1.65 -0.833 0.26899999 30 0 0
1.654 -0.83099997 0.266 25 0 0
1.659 -0.82800001 0.264 33 0 0
1.659 -0.824 0.26100001 22 0 0
1.661 -0.81999999 0.259 27 0 0
1.668 -0.81900001 0.257 25 0 0
1.673 -0.81699997 0.255 28 0 0
1.675 -0.81300002 0.252 26 0 0
1.684 -0.81199998 0.25099999 27 0 0
1.689 -0.81 0.249 1 0 0
1.692 -0.80599999 0.24600001 23 0 0
1.696 -0.80299997 0.244 1 0 0
1.706 -0.80299997 0.243 1 0 0
1.7079999 -0.79900002 0.23999999 136 16 0
1.7180001 -0.79900002 0.23899999 1 0 0
1.72 -0.79500002 0.236 1 0 0
1.724 -0.792 0.234 132 16 0
1.732 -0.79000002 0.233 133 16 0
1.7359999 -0.787 0.23 132 16 0
1.74 -0.78299999 0.228 125 16 0
1.747 -0.78100002 0.226 119 16 0
1.752 -0.778 0.22400001 122 16 0
1.7589999 -0.77600002 0.222 124 16 0
1.7640001 -0.773 0.22 125 16 0
1.7690001 -0.76999998 0.21799999 124 16 0
1.771 -0.76499999 0.21600001 138 16 0
1.781 -0.764 0.214 126 16 0
1.786 -0.76099998 0.212 122 16 0
1.789 -0.75599998 0.20999999 127 16 0
1.798 -0.755 0.208 118 16 0
1.801 -0.75099999 0.206 122 16 0
1.8150001 -0.75099999 0.205 137 16 0
1.818 -0.74599999 0.20299999 115 16 0
1.825 -0.74400002 0.20100001 123 16 0
1.834 -0.74199998 0.199 130 16 0
1.836 -0.73699999 0.197 128 16 0
1.846 -0.73500001 0.19499999 115 16 0
1.849 -0.73000002 0.193 117 16 0
1.858 -0.72899997 0.192 1 0 0
1.865 -0.72500002 0.19 107 16 0
1.868 -0.72100002 0.18799999 114 16 0
1.877 -0.71799999 0.186 114 16 0
1.8839999 -0.71499997 0.184 110 16 0
1.891 -0.71100003 0.182 106 16 0
1.896 -0.70700002 0.18000001 110 16 0
1.899 -0.70300001 0.178 95 16 0
1.905 -0.699 0.176 110 16 0
1.911 -0.69499999 0.17399999 107 16 0
1.927 -0.69499999 0.17299999 106 16 0
1.933 -0.69099998 0.171 107 16 0
1.9400001 -0.68699998 0.17 102 16 0
1.946 -0.68300003 0.168 102 16 0
1.956 -0.68000001 0.16599999 102 16 0
1.9579999 -0.67500001 0.164 97 16 0
1.971 -0.67299998 0.163 100 16 0
1.976 -0.66900003 0.161 102 16 0
1.984 -0.66500002 0.15899999 93 16 0
1.993 -0.662 0.15700001 92 16 0
1.998 -0.65700001 0.155 93 16 0
2.007 -0.653 0.154 92 16 0
2.0209999 -0.65200001 0.153 93 16 0
2.027 -0.64700001 0.15099999 92 16 0
2.0309999 -0.64200002 0.149 79 16 0
2.0450001 -0.639 0.147 75 16 0
2.0469999 -0.63300002 0.145 72 16 0
2.059 -0.63099998 0.14399999 72 16 0
2.073 -0.62800002 0.14300001 66 16 0
2.0769999 -0.62300003 0.141 73 16 0
2.085 -0.61900002 0.139 71 16 0
2.089 -0.61299998 0.13699999 60 16 0
2.102 -0.61000001 0.13600001 69 16 0
2.1110001 -0.60600001 0.134 64 16 0
2.1210001 -0.602 0.132 65 16 0
2.125 -0.597 0.13 60 16 0
2.142 -0.59399998 0.12899999 57 16 0
2.1470001 -0.58899999 0.127 64 16 0
2.1530001 -0.58399999 0.126 66 16 0
2.175 -0.583 0.125 57 19 0
2.177 -0.57599998 0.123 59 16 0
2.188 -0.57200003 0.121 51 16 0
2.201 -0.56800002 0.12 48 16 0
2.2119999 -0.56400001 0.118 51 16 0
2.224 -0.56 0.117 48 16 0
2.23 -0.55400002 0.115 48 16 0
2.2390001 -0.54900002 0.113 47 16 0
2.25 -0.54500002 0.112 50 16 0
2.2609999 -0.54000002 0.11 48 16 0
2.266 -0.53399998 0.108 39 16 0
2.28 -0.52999997 0.107 50 16 0
2.293 -0.52600002 0.106 43 16 0
2.3010001 -0.51999998 0.104 47 16 0
2.3150001 -0.51599997 0.103 39 16 0
2.326 -0.51099998 0.101 39 16 0
2.336 -0.50599998 0.098999999 45 16 0
2.3510001 -0.50199997 0.097999997 37 16 0
2.3610001 -0.49599999 0.097000003 38 16 0
2.3699999 -0.49000001 0.094999999 33 16 0
2.3829999 -0.48500001 0.093000002 43 16 0
2.3929999 -0.47999999 0.092 37 16 0
2.405 -0.47400001 0.090000004 48 16 0
2.4159999 -0.46900001 0.089000002 44 16 0
2.427 -0.463 0.086999997 44 16 0
2.4400001 -0.458 0.086000003 40 16 0
2.4549999 -0.45300001 0.083999999 36 16 0
2.4630001 -0.44600001 0.082999997 37 16 0
2.4779999 -0.44100001 0.081 36 16 0
2.49 -0.435 0.079999998 38 16 0
2.4979999 -0.428 0.078000002 32 16 0
2.5109999 -0.42300001 0.077 32 16 0
2.527 -0.417 0.075000003 36 16 0
2.5380001 -0.41100001 0.074000001 31 16 0
2.549 -0.40400001 0.071999997 31 16 0
2.5610001 -0.398 0.071000002 32 16 0
2.575 -0.39199999 0.068999998 31 16 0
2.5910001 -0.38600001 0.068000004 30 16 0
2.6070001 -0.38 0.066 31 16 0
2.618 -0.37400001 0.064999998 30 16 0
2.632 -0.36700001 0.063000001 32 16 0
2.648 -0.361 0.061999999 32 16 0
2.6630001 -0.354 0.059999999 31 16 0
2.6719999 -0.347 0.059 31 16 0
2.6930001 -0.34099999 0.057999998 32 16 0
2.7060001 -0.33399999 0.056000002 33 16 0
2.717 -0.32699999 0.055 31 16 0
2.7309999 -0.31999999 0.052999999 31 16 0
2.747 -0.31299999 0.052000001 30 16 0
2.763 -0.30599999 0.050000001 31 16 0
2.777 -0.29800001 0.048999999 31 16 0
2.789 -0.29100001 0.046999998 29 16 0
2.802 -0.28299999 0.046 29 16 0
2.822 -0.27599999 0.044 29 16 0
2.8380001 -0.26899999 0.043000001 30 16 0
2.8540001 -0.26100001 0.041000001 29 16 0
2.875 -0.25400001 0.039999999 27 16 0
2.8900001 -0.24600001 0.037999999 25 16 0
2.904 -0.23800001 0.037 24 16 0
2.921 -0.23 0.035 25 16 0
2.9419999 -0.222 0.034000002 24 16 0
2.9619999 -0.214 0.033 24 16 0
2.9779999 -0.205 0.030999999 25 16 0
2.994 -0.197 0.029999999 25 16 0
3.0109999 -0.189 0.028000001 24 16 0
3.0309999 -0.18000001 0.027000001 25 16 0
3.053 -0.17200001 0.025 24 16 0
3.075 -0.163 0.024 25 16 0
3.095 -0.154 0.022 24 16 0
3.112 -0.145 0.021 25 16 0
3.1259999 -0.13600001 0.018999999 26 16 0
3.154 -0.127 0.017999999 26 16 0
3.174 -0.117 0.017000001 25 16 0
3.198 -0.108 0.015 25 16 0
3.2190001 -0.098999999 0.014 25 16 0
3.2349999 -0.089000002 0.012 25 16 0
3.257 -0.079000004 0.011 28 16 0
3.2720001 -0.068999998 0.0089999996 72 16 0
3.2650001 -0.057999998 0.0080000004 123 16 0
3.26 -0.048 0.0060000001 87 16 0
3.2609999 -0.037 0.0049999999 112 16 0
3.25 -0.027000001 0.003 102 16 0
3.2409999 -0.016000001 0.0020000001 29 16 0
3.267 -0.0060000001 0 16 16 0
3.2850001 0.0040000002 0 17 16 0
3.3110001 0.014 -0.001 19 16 0
3.3280001 0.025 -0.003 36 16 0
3.316 0.035999998 -0.0040000002 54 16 0
3.3110001 0.046 -0.0060000001 51 16 0
3.3110001 0.057 -0.0070000002 39 16 0
3.296 0.067000002 -0.0080000004 50 16 0
3.3010001 0.078000002 -0.0099999998 51 16 0
3.293 0.088 -0.011 54 16 0
3.2880001 0.098999999 -0.012 54 16 0
3.2880001 0.109 -0.013 55 16 0
3.279 0.12 -0.014 60 16 0
3.2709999 0.13 -0.016000001 53 16 0
3.2609999 0.14 -0.017000001 54 16 0
3.2609999 0.15099999 -0.017999999 63 16 0
3.2539999 0.161 -0.018999999 55 16 0
3.244 0.171 -0.02 55 16 0
3.24 0.18099999 -0.021 55 16 0
3.2349999 0.191 -0.022 54 16 0
3.2309999 0.20100001 -0.023 60 16 0
3.2290001 0.212 -0.024 62 16 0
3.22 0.221 -0.025 57 16 0
3.2179999 0.23199999 -0.026000001 77 16 0
3.207 0.241 -0.027000001 68 16 0
3.1989999 0.25099999 -0.028000001 80 16 0
3.201 0.26199999 -0.028999999 70 16 0
3.1930001 0.271 -0.029999999 72 16 0
3.1860001 0.28099999 -0.030999999 64 16 0
3.1819999 0.29100001 -0.030999999 73 16 0
3.174 0.301 -0.032000002 60 16 0
3.168 0.31 -0.033 66 16 0
3.1630001 0.31999999 -0.034000002 76 16 0
3.1559999 0.33000001 -0.034000002 70 16 0
3.1500001 0.33899999 -0.035 52 16 0
3.145 0.34900001 -0.035999998 58 16 0
3.1429999 0.359 -0.037 58 16 0
3.1359999 0.368 -0.037 68 16 0
3.132 0.37799999 -0.037999999 77 16 0
3.128 0.38800001 -0.039000001 79 16 0
3.1110001 0.396 -0.039000001 72 16 0
3.1099999 0.40599999 -0.039999999 78 16 0
3.1059999 0.41499999 -0.039999999 78 16 0
3.1010001 0.42500001 -0.041000001 68 16 0
3.099 0.435 -0.041000001 71 16 0
3.0940001 0.44400001 -0.041999999 74 16 0
3.0810001 0.45199999 -0.041999999 72 16 0
3.082 0.463 -0.043000001 83 16 0
3.0799999 0.472 -0.043000001 85 16 0
3.0739999 0.48199999 -0.043000001 83 16 0
3.0680001 0.491 -0.044 82 16 0
3.0639999 0.5 -0.044 76 16 0
3.056 0.509 -0.045000002 83 16 0
3.049 0.51800001 -0.045000002 86 16 0
3.0480001 0.528 -0.045000002 88 16 0
3.0380001 0.53600001 -0.045000002 81 16 0
3.0380001 0.546 -0.046 87 16 0
3.0309999 0.55400002 -0.046 108 16 0
3.0280001 0.56400001 -0.046 98 16 0
3.0220001 0.57300001 -0.046 97 16 0
3.0209999 0.583 -0.046999998 92 16 0
3.0139999 0.59100002 -0.046999998 80 16 0
3.007 0.60000002 -0.046999998 90 16 0
3.0020001 0.60900003 -0.046999998 85 16 0
2.9979999 0.61799997 -0.046999998 100 16 0
2.993 0.62699997 -0.046999998 96 16 0
2.9860001 0.63499999 -0.046999998 102 16 0
2.984 0.64499998 -0.046999998 109 16 0
2.9809999 0.65399998 -0.046999998 103 16 0
2.973 0.662 -0.046999998 106 16 0
2.97 0.671 -0.046999998 100 16 0
2.9679999 0.68099999 -0.046999998 118 16 0
2.964 0.69 -0.046999998 123 16 0
2.957 0.69800001 -0.046999998 94 16 0
2.951 0.70599997 -0.046999998 111 16 0
2.947 0.71499997 -0.046999998 106 16 0
2.941 0.72399998 -0.046 114 16 0
2.9389999 0.73299998 -0.046 107 16 0
2.9319999 0.741 -0.046 119 16 0
2.9289999 0.75 -0.046 111 16 0
2.921 0.75800002 -0.045000002 110 16 0
2.918 0.76700002 -0.045000002 121 16 0
2.914 0.77499998 -0.045000002 118 16 0
2.908 0.78399998 -0.044 119 16 0
2.9070001 0.79299998 -0.044 124 16 0
2.9030001 0.80199999 -0.044 112 16 0
2.8970001 0.81 -0.043000001 110 16 0
2.8929999 0.81900001 -0.043000001 111 16 0
2.8870001 0.82700002 -0.041999999 128 16 0
2.882 0.83499998 -0.041999999 105 16 0
2.882 0.84500003 -0.041999999 124 16 0
2.8789999 0.85299999 -0.041000001 133 16 0
2.8740001 0.861 -0.041000001 126 16 0
2.8640001 0.86799997 -0.039999999 146 16 0
2.8659999 0.87900001 -0.039000001 136 16 0
2.8640001 0.88800001 -0.039000001 117 16 0
2.8559999 0.89499998 -0.037999999 148 16 0
2.849 0.90200001 -0.037 140 16 0
2.848 0.91100001 -0.037 141 16 0
2.8429999 0.92000002 -0.035999998 134 16 0
2.8380001 0.92799997 -0.035 137 16 0
2.825 0.93300003 -0.034000002 135 16 0
2.822 0.94099998 -0.034000002 134 16 0
2.8239999 0.95200002 -0.033 145 16 0
2.8169999 0.95899999 -0.032000002 122 16 0
2.8280001 0.972 -0.030999999 28 16 0
2.8169999 0.97799999 -0.029999999 41 16 0
2.806 0.98299998 -0.028999999 139 16 0
2.799 0.99000001 -0.028000001 119 16 0
2.796 0.99900001 -0.027000001 142 16 0
2.793 1.007 -0.026000001 150 16 0
2.79 1.016 -0.025 147 16 0
2.7850001 1.023 -0.024 150 16 0
2.7839999 1.0319999 -0.023 143 16 0
2.7809999 1.041 -0.022 134 16 0
2.776 1.048 -0.021 145 16 0
2.773 1.056 -0.02 150 16 0
2.7679999 1.064 -0.018999999 150 16 0
2.767 1.073 -0.017000001 150 16 0
2.763 1.081 -0.016000001 143 16 0
2.7579999 1.0880001 -0.015 150 16 0
2.7490001 1.094 -0.014 140 16 0
2.75 1.103 -0.012 150 16 0
2.7490001 1.112 -0.011 150 16 0
2.744 1.119 -0.0099999998 150 16 0
2.74 1.127 -0.0080000004 150 16 0
2.7360001 1.135 -0.0070000002 150 16 0
2.734 1.143 -0.0049999999 150 16 0
2.727 1.149 -0.0040000002 147 16 0
2.727 1.158 -0.0020000001 150 16 0
2.72 1.165 -0.001 147 16 0
2.717 1.1720001 0 149 16 0
2.714 1.1799999 0.0020000001 149 16 0
2.714 1.189 0.003 150 16 0
2.7130001 1.198 0.0049999999 150 16 0
2.7090001 1.205 0.0060000001 150 16 0
2.7 1.21 0.0080000004 146 16 0
2.7 1.219 0.0099999998 150 16 0
2.694 1.225 0.012 150 16 0
2.694 1.234 0.014 150 16 0
2.6919999 1.243 0.015 150 16 0
2.6860001 1.249 0.017000001 150 16 0
2.6800001 1.255 0.018999999 150 16 0
2.6789999 1.263 0.021 150 16 0
2.6789999 1.272 0.023 145 16 0
2.675 1.279 0.025 150 16 0
2.674 1.2869999 0.027000001 137 16 0
2.668 1.293 0.028999999 150 16 0
2.6670001 1.301 0.030999999 150 16 0
2.6619999 1.307 0.033 150 16 0
2.6600001 1.3150001 0.035 150 16 0
2.6559999 1.322 0.037999999 140 16 0
2.655 1.329 0.039999999 143 16 0
2.651 1.336 0.041999999 141 16 0
2.648 1.3430001 0.044 139 16 0
2.645 1.349 0.046999998 140 16 0
2.641 1.3559999 0.048999999 150 16 0
2.638 1.363 0.050999999 150 16 0
2.638 1.3710001 0.054000001 149 16 0
2.6359999 1.378 0.056000002 150 16 0
2.6300001 1.383 0.059 150 16 0
2.628 1.39 0.061000001 150 16 0
2.6359999 1.403 0.064000003 150 16 0
2.6270001 1.406 0.066 150 16 0
2.6229999 1.4119999 0.068999998 150 16 0
2.6199999 1.419 0.071000002 150 16 0
2.6170001 1.425 0.074000001 150 16 0
2.6140001 1.431 0.075999998 150 16 0
2.6170001 1.441 0.079000004 150 16 0
2.6129999 1.447 0.082000002 150 16 0
2.6129999 1.454 0.085000001 150 16 0
2.609 1.46 0.088 150 16 0
2.608 1.467 0.090999998 150 16 0
2.6040001 1.472 0.093000002 144 16 0
2.605 1.48 0.096000001 150 16 0
2.5999999 1.485 0.098999999 145 16 0
2.6029999 1.494 0.102 140 16 0
2.5999999 1.5 0.105 150 16 0
2.5969999 1.505 0.108 139 16 0
2.598 1.513 0.111 139 16 0
2.5940001 1.518 0.114 142 16 0
2.5880001 1.522 0.117 145 16 0
2.5899999 1.53 0.12 137 16 0
2.5880001 1.536 0.124 131 16 0
2.5810001 1.539 0.126 123 16 0
2.5829999 1.5470001 0.13 118 16 0
2.5829999 1.554 0.133 130 16 0
2.5769999 1.556 0.13600001 118 16 0
2.582 1.566 0.14 143 16 0
2.5739999 1.568 0.14300001 139 16 0
2.575 1.575 0.146 134 16 0
2.576 1.582 0.15000001 139 16 0
2.5699999 1.585 0.153 126 16 0
2.573 1.5930001 0.156 115 16 0
2.5710001 1.598 0.16 131 16 0
2.572 1.604 0.163 136 16 0
2.569 1.608 0.167 126 16 0
2.5680001 1.613 0.17 120 16 0
2.5650001 1.618 0.17399999 127 16 0
2.5650001 1.623 0.177 122 16 0
2.562 1.627 0.18099999 115 16 0
2.563 1.633 0.184 133 16 0
2.5569999 1.635 0.18799999 122 16 0
2.5550001 1.6390001 0.191 112 16 0
2.5599999 1.647 0.19499999 131 16 0
2.562 1.654 0.199 114 16 0
2.5599999 1.6569999 0.20299999 121 16 0
2.5610001 1.663 0.207 125 16 0
2.5580001 1.666 0.20999999 124 16 0
2.5610001 1.673 0.214 120 16 0
2.5580001 1.676 0.21799999 113 16 0
2.5539999 1.677 0.221 116 16 0
2.5580001 1.6849999 0.226 123 16 0
2.556 1.687 0.229 124 16 0
2.552 1.689 0.233 112 16 0
2.5539999 1.6950001 0.237 109 16 0
2.556 1.7 0.241 123 16 0
2.5510001 1.7 0.244 112 16 0
2.5510001 1.704 0.248 110 16 0
2.5550001 1.71 0.25299999 74 16 0
2.559 1.717 0.257 41 16 0
2.5569999 1.719 0.26100001 35 16 0
2.556 1.721 0.26499999 35 16 0
2.5539999 1.723 0.26800001 43 16 0
2.5580001 1.729 0.273 78 16 0
2.552 1.728 0.27599999 105 16 0
2.552 1.73 0.28 99 16 0
2.553 1.734 0.28400001 97 16 0
2.556 1.738 0.28799999 105 16 0
2.5539999 1.739 0.292 138 16 0
2.5580001 1.744 0.296 150 16 0
2.562 1.749 0.30000001 131 16 0
2.5580001 1.748 0.30399999 81 16 0
2.559 1.751 0.308 43 16 0
2.562 1.755 0.31200001 33 16 0
2.5599999 1.755 0.31600001 23 16 0
2.5510001 1.75 0.31900001 17 16 0
2.5439999 1.7460001 0.322 14 16 0
2.536 1.743 0.32499999 12 16 0
2.53 1.739 0.32699999 12 16 0
2.5139999 1.729 0.329 16 16 0
2.506 1.725 0.33199999 16 16 0
2.5 1.721 0.33500001 19 16 0
2.493 1.716 0.33700001 22 16 0
2.4879999 1.714 0.34 25 16 0
2.4890001 1.714 0.34400001 28 16 0
2.4890001 1.714 0.34799999 33 16 0
2.4909999 1.716 0.352 38 16 0
2.4909999 1.716 0.35499999 41 16 0
2.4920001 1.716 0.359 45 16 0
2.4920001 1.716 0.36199999 55 16 0
2.49 1.7130001 0.366 58 16 0
2.4949999 1.716 0.37 72 16 0
2.4920001 1.7130001 0.373 66 16 0
2.497 1.716 0.377 68 16 0
2.5009999 1.7180001 0.38100001 67 16 0
2.5039999 1.7180001 0.38499999 64 16 0
2.5 1.714 0.38800001 51 16 0
2.5020001 1.714 0.391 47 16 0
2.5039999 1.7130001 0.39399999 45 16 0
2.51 1.716 0.39899999 40 16 0
2.5109999 1.715 0.40200001 39 16 0
2.5139999 1.714 0.40599999 41 16 0
2.517 1.715 0.40900001 44 16 0
2.5220001 1.715 0.41299999 47 16 0
2.516 1.709 0.41499999 63 16 0
2.5209999 1.709 0.419 87 16 0
2.523 1.7079999 0.42199999 139 16 0
2.5220001 1.704 0.42500001 150 16 0
2.523 1.702 0.428 150 16 0
2.5239999 1.7 0.43099999 150 16 0
2.5280001 1.699 0.43399999 150 16 0
2.5309999 1.698 0.43799999 150 16 0
2.533 1.696 0.44100001 150 16 0
2.5350001 1.693 0.44400001 150 16 0
2.5380001 1.692 0.447 150 16 0
2.54 1.689 0.44999999 150 16 0
2.539 1.684 0.45199999 150 16 0
2.5450001 1.684 0.45500001 150 16 0
2.5450001 1.6799999 0.458 150 16 0
2.55 1.679 0.461 150 16 0
2.5510001 1.675 0.46399999 150 16 0
2.5510001 1.671 0.46599999 150 16 0
2.559 1.671 0.46900001 150 16 0
2.562 1.668 0.472 150 16 0
2.5699999 1.669 0.47600001 150 16 0
2.566 1.661 0.477 150 16 0
2.5710001 1.659 0.47999999 150 16 0
2.5739999 1.656 0.48300001 150 16 0
2.579 1.653 0.48500001 150 16 0
2.5810001 1.649 0.48800001 150 16 0
2.585 1.647 0.49000001 150 16 0
2.586 1.641 0.49200001 150 16 0
2.5910001 1.6390001 0.495 150 16 0
2.5929999 1.6339999 0.49700001 150 16 0
2.596 1.63 0.49900001 150 16 0
2.598 1.625 0.50099999 150 16 0
2.6010001 1.6210001 0.50300002 150 16 0
2.605 1.617 0.505 150 16 0
2.6059999 1.6109999 0.50599998 150 16 0
2.6110001 1.608 0.509 150 16 0
2.6159999 1.605 0.51099998 150 16 0
2.6159999 1.598 0.51200002 150 16 0
2.6170001 1.592 0.51300001 150 16 0
2.625 1.59 0.51599997 150 16 0
2.625 1.5829999 0.51700002 150 16 0
2.631 1.58 0.51899999 150 16 0
2.6340001 1.574 0.51999998 150 16 0
2.6370001 1.569 0.52200001 150 16 0
2.642 1.5650001 0.52399999 150 16 0
2.642 1.558 0.52399999 150 16 0
2.6470001 1.554 0.52600002 150 16 0
2.655 1.55 0.528 150 16 0
2.652 1.541 0.528 150 16 0
2.6600001 1.538 0.52999997 150 16 0
2.664 1.533 0.53100002 150 16 0
2.661 1.524 0.53100002 150 16 0
2.671 1.522 0.53299999 150 16 0
2.675 1.516 0.53399998 150 16 0
2.677 1.5089999 0.53500003 150 16 0
2.6760001 1.501 0.53500003 150 16 0
2.6830001 1.497 0.53600001 150 16 0
2.6860001 1.49 0.537 150 16 0
2.6919999 1.4859999 0.53799999 150 16 0
2.6960001 1.48 0.53899997 150 16 0
2.698 1.473 0.53899997 150 16 0
2.7 1.466 0.53899997 150 16 0
2.704 1.46 0.54000002 150 16 0
2.707 1.4529999 0.54000002 150 16 0
2.7130001 1.448 0.54100001 150 16 0
2.7160001 1.441 0.54100001 150 16 0
2.717 1.433 0.54100001 150 16 0
2.72 1.426 0.54100001 150 16 0
2.7249999 1.42 0.54100001 150 16 0
2.7279999 1.413 0.54100001 150 16 0
2.7309999 1.406 0.54100001 150 16 0
2.7360001 1.399 0.54100001 150 16 0
2.7390001 1.392 0.54100001 150 16 0
2.7409999 1.385 0.54100001 150 16 0
2.747 1.378 0.54100001 150 16 0
2.7490001 1.3710001 0.54000002 150 16 0
2.753 1.364 0.54000002 150 16 0
2.7550001 1.3559999 0.54000002 150 16 0
2.7639999 1.351 0.54000002 150 16 0
2.766 1.344 0.54000002 150 16 0
2.7679999 1.335 0.53899997 150 16 0
2.7709999 1.3279999 0.53799999 150 16 0
2.7739999 1.321 0.537 150 16 0
2.777 1.313 0.537 150 16 0
2.78 1.3049999 0.53600001 150 16 0
2.783 1.298 0.53500003 150 16 0
2.7880001 1.29 0.53399998 150 16 0
2.789 1.2819999 0.53299999 150 16 0
2.7950001 1.276 0.53200001 150 16 0
2.7980001 1.268 0.53100002 150 16 0
2.799 1.2589999 0.52999997 150 16 0
2.806 1.253 0.52999997 150 16 0
2.809 1.245 0.528 150 16 0
2.812 1.237 0.52700001 150 16 0
2.816 1.229 0.52600002 150 16 0
2.8199999 1.221 0.52499998 150 16 0
2.8210001 1.2130001 0.523 150 16 0
2.825 1.205 0.52200001 150 16 0
2.8299999 1.198 0.52100003 150 16 0
2.832 1.189 0.51899999 150 16 0
2.8369999 1.182 0.51800001 150 16 0
2.8410001 1.174 0.51599997 150 16 0
2.842 1.165 0.514 150 16 0
2.846 1.158 0.51300001 150 16 0
2.852 1.151 0.51200002 150 16 0
2.852 1.141 0.50999999 150 16 0
2.859 1.1339999 0.50800002 150 16 0
2.8629999 1.127 0.50700003 150 16 0
2.8610001 1.117 0.50400001 150 16 0
2.8670001 1.11 0.50300002 150 16 0
2.8710001 1.101 0.50099999 150 16 0
2.8740001 1.0930001 0.49900001 150 16 0
2.878 1.085 0.49700001 150 16 0
2.8829999 1.0779999 0.495 150 16 0
2.8840001 1.068 0.493 150 16 0
2.8900001 1.061 0.491 150 16 0
2.8929999 1.053 0.48899999 150 16 0
2.8940001 1.044 0.486 150 16 0
2.898 1.036 0.484 150 16 0
2.9000001 1.027 0.48199999 150 16 0
2.9070001 1.02 0.47999999 150 16 0
2.908 1.011 0.477 150 16 0
2.9100001 1.002 0.47499999 150 16 0
2.9130001 0.99400002 0.472 150 16 0
2.9200001 0.98699999 0.47 150 16 0
2.9200001 0.977 0.46700001 150 16 0
2.924 0.96899998 0.465 150 16 0
2.9260001 0.95999998 0.46200001 150 16 0
2.931 0.95200002 0.46000001 150 16 0
2.934 0.94400001 0.45699999 150 16 0
2.9389999 0.93599999 0.454 150 16 0
2.9419999 0.92699999 0.45199999 150 16 0
2.9460001 0.91900003 0.449 150 16 0
2.9449999 0.90899998 0.44600001 150 16 0
2.9489999 0.90100002 0.44299999 150 16 0
2.9489999 0.89200002 0.44 150 16 0
2.9549999 0.884 0.43700001 150 16 0
2.957 0.875 0.43399999 150 16 0
2.9630001 0.86699998 0.43099999 150 16 0
2.964 0.85799998 0.428 150 16 0
2.97 0.85000002 0.42500001 150 16 0
2.9719999 0.84200001 0.42199999 150 16 0
2.973 0.83200002 0.419 150 16 0
2.9779999 0.82499999 0.41600001 150 16 0
2.98 0.81599998 0.41299999 150 16 0
2.9890001 0.80900002 0.41 150 16 0
2.987 0.79900002 0.40599999 150 16 0
2.9909999 0.79100001 0.403 150 16 0
2.9909999 0.78100002 0.39899999 150 16 0
2.997 0.773 0.39700001 150 16 0
2.997 0.764 0.39300001 150 16 0
3.0020001 0.75599998 0.38999999 150 16 0
3.0050001 0.74699998 0.38600001 150 16 0
3.007 0.73799998 0.38299999 150 16 0
3.0109999 0.73000002 0.37900001 150 16 0
3.016 0.722 0.37599999 150 16 0
3.0150001 0.71200001 0.37200001 150 16 0
3.027 0.70599997 0.37 150 16 0
3.027 0.69599998 0.366 150 16 0
3.029 0.68699998 0.36199999 150 16 0
3.0350001 0.67900002 0.35800001 150 16 0
3.0350001 0.67000002 0.35499999 150 16 0
3.0369999 0.66100001 0.35100001 150 16 0
3.0420001 0.653 0.347 150 16 0
3.046 0.64399999 0.34400001 150 16 0
3.046 0.63499999 0.33899999 150 16 0
3.049 0.62699997 0.336 150 16 0
3.0510001 0.61799997 0.33199999 146 16 0
3.0580001 0.61000001 0.32800001 150 16 0
3.053 0.60000002 0.32300001 150 16 0
3.0650001 0.59299999 0.32100001 150 16 0
3.0650001 0.583 0.31600001 142 16 0
3.066 0.574 0.31200001 145 16 0
3.072 0.56599998 0.308 150 16 0
3.073 0.55699998 0.30399999 150 16 0
3.0769999 0.54900002 0.30000001 148 16 0
3.079 0.54000002 0.296 145 16 0
3.0810001 0.53100002 0.292 137 16 0
3.0829999 0.52200001 0.28799999 150 16 0
3.085 0.51300001 0.28299999 150 16 0
3.0869999 0.50400001 0.27900001 150 16 0
3.0910001 0.49599999 0.27500001 135 16 0
3.0910001 0.48699999 0.271 150 16 0
3.0940001 0.47799999 0.266 143 16 0
3.096 0.46900001 0.26199999 142 16 0
3.099 0.46000001 0.25799999 137 16 0
3.102 0.45199999 0.25299999 140 16 0
3.109 0.44299999 0.249 150 16 0
3.1110001 0.435 0.245 150 16 0
3.112 0.426 0.23999999 150 16 0
3.1129999 0.417 0.236 146 16 0
3.1159999 0.40799999 0.23199999 150 16 0
3.122 0.40000001 0.227 150 16 0
3.1229999 0.391 0.223 149 16 0
3.1259999 0.382 0.21799999 150 16 0
3.1300001 0.373 0.214 150 16 0
3.131 0.36500001 0.20900001 145 16 0
3.135 0.35600001 0.204 150 16 0
3.1359999 0.347 0.2 150 16 0
3.1400001 0.338 0.19499999 148 16 0
3.1400001 0.329 0.19 150 16 0
3.145 0.32100001 0.186 145 16 0
3.148 0.31200001 0.18099999 150 16 0
3.148 0.303 0.176 137 16 0
3.154 0.29499999 0.17200001 105 16 0
3.1589999 0.28600001 0.167 51 16 0
3.1689999 0.278 0.162 39 16 0
3.174 0.26899999 0.15800001 33 16 0
3.1849999 0.26100001 0.153 30 16 0
3.178 0.25099999 0.148 24 16 0
3.198 0.244 0.14399999 26 16 0
3.22 0.236 0.14 31 16 0
3.21 0.226 0.134 25 16 0
3.2049999 0.21699999 0.12899999 25 16 0
3.2279999 0.20999999 0.125 28 16 0
3.2679999 0.20299999 0.121 33 16 0
