# .PCD v0.7 - Point Cloud Data file format
VERSION 0.7
FIELDS x y z intensity tag line
SIZE 4 4 4 4 1 1
TYPE F F F F U U
COUNT 1 1 1 1 1 1
WIDTH 1360
HEIGHT 1
VIEWPOINT 0 0 0 1 0 0 0
POINTS 1360
DATA ascii
2.8970001 -0.219 -0.054000001 27 16 0
2.8829999 -0.227 -0.056000002 27 16 0
2.862 -0.235 -0.057999998 27 16 0
2.8469999 -0.242 -0.059999999 27 16 0
2.832 -0.25 -0.061999999 28 16 0
2.809 -0.25600001 -0.064000003 29 16 0
2.793 -0.264 -0.066 28 16 0
2.7739999 -0.271 -0.068000004 28 16 0
2.763 -0.278 -0.07 28 16 0
2.7409999 -0.285 -0.071999997 28 16 0
2.733 -0.292 -0.074000001 30 16 0
2.7190001 -0.29899999 -0.075999998 29 16 0
2.7030001 -0.30599999 -0.078000002 28 16 0
2.6889999 -0.31299999 -0.081 30 16 0
2.675 -0.31999999 -0.082999997 30 16 0
2.6500001 -0.32499999 -0.083999999 30 16 0
2.6389999 -0.33199999 -0.086000003 30 16 0
2.619 -0.338 -0.088 31 16 0
2.609 -0.345 -0.090000004 31 16 0
2.595 -0.35100001 -0.092 33 16 0
2.582 -0.35699999 -0.093999997 32 16 0
2.5650001 -0.36300001 -0.096000001 30 16 0
2.5480001 -0.368 -0.097999997 47 16 0
2.5380001 -0.375 -0.1 43 16 0
2.5209999 -0.38 -0.102 46 16 0
2.5109999 -0.38699999 -0.104 45 16 0
2.497 -0.39199999 -0.106 48 16 0
2.4779999 -0.39700001 -0.108 48 16 0
2.4690001 -0.403 -0.11 53 16 0
2.4579999 -0.40900001 -0.112 52 16 0
2.447 -0.41499999 -0.114 56 16 0
2.434 -0.41999999 -0.116 52 16 0
2.4170001 -0.42500001 -0.117 48 16 0
2.405 -0.43099999 -0.119 49 16 0
2.395 -0.43599999 -0.121 53 16 0
2.378 -0.44100001 -0.123 35 16 0
2.368 -0.44600001 -0.125 43 16 0
2.3540001 -0.45100001 -0.127 47 16 0
2.3399999 -0.45500001 -0.12899999 55 16 0
2.332 -0.461 -0.131 60 16 0
2.316 -0.465 -0.133 62 16 0
2.3039999 -0.47 -0.134 63 16 0
2.2920001 -0.47499999 -0.13600001 66 16 0
2.2809999 -0.47999999 -0.138 59 16 0
2.276 -0.486 -0.14 67 16 0
2.2650001 -0.491 -0.142 68 16 0
2.2479999 -0.49399999 -0.14399999 69 16 0
2.2409999 -0.49900001 -0.146 61 16 0
2.227 -0.50300002 -0.148 70 16 0
2.2179999 -0.50800002 -0.15000001 75 16 0
2.2060001 -0.51200002 -0.152 75 16 0
2.197 -0.51700002 -0.153 72 16 0
2.191 -0.52200001 -0.156 71 16 0
2.181 -0.52700001 -0.15800001 77 16 0
2.1600001 -0.528 -0.15899999 74 16 0
2.1489999 -0.53200001 -0.16 78 16 0
2.141 -0.537 -0.163 78 16 0
2.132 -0.54100001 -0.16500001 78 16 0
2.1199999 -0.54500002 -0.16599999 80 16 0
2.1110001 -0.54900002 -0.168 88 16 0
2.0999999 -0.55299997 -0.17 94 16 0
2.0940001 -0.55800003 -0.17200001 76 16 0
2.082 -0.56099999 -0.17399999 82 16 0
2.0799999 -0.56699997 -0.176 91 16 0
2.066 -0.56999999 -0.178 97 16 0
2.053 -0.57300001 -0.17900001 89 16 0
2.0469999 -0.57700002 -0.182 98 16 0
2.0320001 -0.579 -0.183 86 16 0
2.023 -0.583 -0.185 88 16 0
2.02 -0.588 -0.18700001 95 16 0
2.01 -0.59100002 -0.189 98 16 0
1.998 -0.59399998 -0.191 88 16 0
1.994 -0.59899998 -0.193 104 16 0
1.979 -0.60100001 -0.19400001 101 16 0
1.971 -0.60500002 -0.19599999 91 16 0
1.965 -0.60900003 -0.198 97 16 0
1.957 -0.61199999 -0.2 96 16 0
1.941 -0.61299998 -0.20100001 106 16 0
1.9299999 -0.616 -0.20299999 103 16 0
1.926 -0.62 -0.205 99 16 0
1.92 -0.62400001 -0.207 102 16 0
1.9119999 -0.62800002 -0.20900001 106 16 0
1.906 -0.63200003 -0.212 109 16 0
1.898 -0.63499999 -0.213 96 16 0
1.888 -0.63700002 -0.215 105 16 0
1.881 -0.64099997 -0.21699999 106 16 0
1.873 -0.64300001 -0.219 109 16 0
1.869 -0.648 -0.221 120 16 0
1.8609999 -0.65100002 -0.223 130 16 0
1.854 -0.65399998 -0.22499999 120 16 0
1.84 -0.65499997 -0.226 120 16 0
1.831 -0.65700001 -0.228 115 16 0
1.824 -0.66000003 -0.23 103 16 0
1.822 -0.66500002 -0.233 137 16 0
1.811 -0.66600001 -0.234 150 16 0
1.807 -0.67000002 -0.237 141 16 0
1.8049999 -0.67500001 -0.23899999 142 16 0
1.795 -0.67699999 -0.241 150 16 0
1.7920001 -0.68099999 -0.243 140 16 0
1.781 -0.68199998 -0.245 136 16 0
1.7690001 -0.68300003 -0.24600001 150 16 0
1.766 -0.68699998 -0.248 150 16 0
1.757 -0.68800002 -0.25 150 16 0
1.755 -0.69300002 -0.25299999 150 16 0
1.743 -0.69400001 -0.25400001 150 16 0
1.738 -0.69700003 -0.25600001 150 16 0
1.735 -0.70099998 -0.259 148 16 0
1.7309999 -0.704 -0.26100001 145 16 0
1.723 -0.70599997 -0.26300001 150 16 0
1.712 -0.70599997 -0.264 142 16 0
1.711 -0.71100003 -0.26699999 1 0 0
1.699 -0.71100003 -0.26800001 1 0 0
1.693 -0.713 -0.27000001 150 16 0
1.684 -0.71399999 -0.27200001 150 16 0
1.684 -0.71899998 -0.27500001 1 0 0
1.678 -0.72100002 -0.27700001 150 16 0
1.674 -0.72399998 -0.27900001 1 0 0
1.659 -0.72299999 -0.28 150 19 0
1.655 -0.72600001 -0.28200001 150 16 0
1.652 -0.72899997 -0.28400001 41 0 0
1.65 -0.73299998 -0.287 1 0 0
1.642 -0.73400003 -0.289 150 16 0
1.638 -0.736 -0.29100001 1 0 0
1.632 -0.73799998 -0.29300001 150 16 0
1.628 -0.741 -0.29499999 150 16 0
1.624 -0.74299997 -0.29800001 1 0 0
1.6160001 -0.74400002 -0.29899999 44 0 0
1.608 -0.745 -0.301 1 0 0
1.597 -0.74400002 -0.30199999 57 0 0
1.602 -0.75099999 -0.30599999 150 16 0
1.59 -0.75 -0.30700001 1 0 0
1.587 -0.75199997 -0.30899999 150 16 0
1.585 -0.75599998 -0.31200001 150 16 0
1.58 -0.75800002 -0.31400001 3 0 0
1.573 -0.75800002 -0.31600001 68 0 0
1.568 -0.75999999 -0.31799999 52 0 0
1.564 -0.76200002 -0.31999999 63 0 0
1.5599999 -0.764 -0.322 77 0 0
1.557 -0.76700002 -0.32499999 94 0 0
1.554 -0.76899999 -0.32699999 2 0 0
1.545 -0.76800001 -0.32800001 2 0 0
1.5420001 -0.77100003 -0.331 63 0 0
1.54 -0.77399999 -0.33399999 73 0 0
1.536 -0.77600002 -0.336 75 0 0
1.531 -0.77700001 -0.338 73 0 0
1.528 -0.77899998 -0.34 94 0 0
1.518 -0.778 -0.34099999 62 0 0
1.5140001 -0.77899998 -0.34400001 66 0 0
1.517 -0.78399998 -0.347 80 0 0
1.507 -0.78299999 -0.34799999 64 0 0
1.505 -0.78500003 -0.35100001 74 0 0
1.499 -0.78500003 -0.35299999 75 0 0
1.497 -0.78799999 -0.35499999 64 0 0
1.4910001 -0.78799999 -0.35699999 102 0 0
1.489 -0.79000002 -0.36000001 64 0 0
1.487 -0.792 -0.36199999 97 0 0
1.48 -0.792 -0.36399999 71 0 0
1.475 -0.79299998 -0.366 65 0 0
1.472 -0.79400003 -0.368 86 0 0
1.466 -0.79400003 -0.36899999 71 0 0
1.464 -0.796 -0.37200001 80 0 0
1.46 -0.796 -0.37400001 70 0 0
1.456 -0.79699999 -0.37599999 108 0 0
1.456 -0.80000001 -0.37900001 113 0 0
1.4529999 -0.801 -0.38100001 107 0 0
1.45 -0.80199999 -0.384 122 0 0
1.446 -0.80299997 -0.38600001 96 0 0
1.439 -0.80199999 -0.38699999 77 0 0
1.438 -0.80400002 -0.38999999 87 0 0
1.437 -0.80500001 -0.39199999 94 0 0
1.4349999 -0.80699998 -0.39500001 104 0 0
1.4299999 -0.80699998 -0.39700001 95 0 0
1.426 -0.80699998 -0.39899999 108 0 0
1.4220001 -0.80699998 -0.40000001 112 0 0
1.42 -0.80800003 -0.403 110 0 0
1.419 -0.81 -0.405 128 0 0
1.4170001 -0.81099999 -0.40799999 150 0 0
1.413 -0.81 -0.41 150 0 0
1.411 -0.81099999 -0.412 150 0 0
1.4069999 -0.81099999 -0.414 136 0 0
1.408 -0.81400001 -0.417 147 0 0
1.404 -0.81300002 -0.419 130 0 0
1.406 -0.81599998 -0.42199999 146 0 0
1.402 -0.81599998 -0.42399999 150 0 0
1.395 -0.81400001 -0.42500001 150 0 0
1.3940001 -0.815 -0.42699999 131 0 0
1.392 -0.815 -0.42899999 106 0 0
1.392 -0.81599998 -0.43200001 150 0 0
1.388 -0.81599998 -0.43399999 150 0 0
1.39 -0.81800002 -0.43700001 150 0 0
1.383 -0.815 -0.43799999 150 0 0
1.386 -0.81900001 -0.44100001 150 0 0
1.3839999 -0.81900001 -0.44299999 150 0 0
1.382 -0.81900001 -0.44600001 150 0 0
1.382 -0.81999999 -0.44800001 149 0 0
1.38 -0.81999999 -0.44999999 128 0 0
1.373 -0.81699997 -0.45100001 150 3 0
1.375 -0.81800002 -0.454 150 0 0
1.372 -0.81699997 -0.45500001 150 0 0
1.373 -0.81900001 -0.458 129 0 0
1.372 -0.81900001 -0.461 150 0 0
1.369 -0.81800002 -0.46200001 150 0 0
1.369 -0.81900001 -0.46399999 150 0 0
1.367 -0.81800002 -0.46599999 145 0 0
1.37 -0.81999999 -0.47 150 0 0
1.3660001 -0.81800002 -0.47099999 150 0 0
1.368 -0.81999999 -0.47400001 150 0 0
1.364 -0.81800002 -0.47499999 150 0 0
1.3609999 -0.81599998 -0.47600001 145 0 0
1.3660001 -0.81900001 -0.47999999 150 0 0
1.363 -0.81699997 -0.48100001 150 0 0
1.362 -0.81699997 -0.48300001 150 0 0
1.362 -0.81699997 -0.48500001 150 0 0
1.3609999 -0.81599998 -0.48699999 150 0 0
1.3609999 -0.81599998 -0.48899999 150 0 0
1.363 -0.81800002 -0.49200001 150 0 0
1.362 -0.81699997 -0.49399999 150 0 0
1.364 -0.81699997 -0.49599999 150 0 0
1.362 -0.81599998 -0.498 150 0 0
1.362 -0.815 -0.5 150 0 0
1.363 -0.815 -0.50199997 150 0 0
1.358 -0.81199998 -0.50199997 150 3 0
1.365 -0.815 -0.50599998 150 0 0
1.363 -0.81300002 -0.50700003 150 0 0
1.3660001 -0.81400001 -0.50999999 150 0 0
1.3660001 -0.81300002 -0.51200002 150 0 0
1.3660001 -0.81199998 -0.514 150 0 0
1.3660001 -0.81099999 -0.51499999 150 0 0
1.3660001 -0.81 -0.51700002 150 0 0
1.369 -0.81099999 -0.51999998 150 0 0
1.367 -0.80800003 -0.51999998 150 0 0
1.3710001 -0.81 -0.523 150 0 0
1.37 -0.80699998 -0.52399999 150 0 0
1.37 -0.80599999 -0.52600002 150 0 0
1.372 -0.80599999 -0.528 150 0 0
1.37 -0.80299997 -0.52899998 150 0 0
1.372 -0.80299997 -0.53100002 147 0 0
1.373 -0.801 -0.53200001 150 0 0
1.38 -0.80400002 -0.53600001 150 2 0
1.3789999 -0.80199999 -0.537 150 0 0
1.38 -0.801 -0.53899997 5 0 0
1.383 -0.80000001 -0.54000002 150 0 0
1.381 -0.79699999 -0.54100001 150 0 0
1.387 -0.79799998 -0.54400003 150 0 0
1.387 -0.796 -0.54500002 150 0 0
1.388 -0.79500002 -0.546 150 0 0
1.39 -0.79400003 -0.54799998 150 0 0
1.393 -0.79400003 -0.55000001 150 0 0
1.395 -0.792 -0.551 150 0 0
1.396 -0.79000002 -0.55199999 150 0 0
1.399 -0.79000002 -0.55400002 150 0 0
1.401 -0.78799999 -0.55599999 150 0 0
1.405 -0.78799999 -0.55800003 150 0 0
1.4069999 -0.787 -0.55900002 150 0 0
1.41 -0.78500003 -0.56 150 0 0
1.411 -0.78399998 -0.56199998 150 0 0
1.414 -0.78200001 -0.56300002 150 0 0
1.416 -0.78100002 -0.56400001 150 0 0
1.421 -0.77999997 -0.56599998 150 0 0
1.4220001 -0.778 -0.56699997 150 0 0
1.424 -0.77600002 -0.56800002 150 0 0
1.427 -0.77499998 -0.56900001 148 0 0
1.434 -0.77600002 -0.57200003 150 0 0
1.4349999 -0.773 -0.57300001 150 0 0
1.439 -0.77200001 -0.574 150 0 0
1.4400001 -0.76999998 -0.574 150 0 0
1.442 -0.76700002 -0.57499999 150 0 0
1.447 -0.76700002 -0.57700002 150 0 0
1.449 -0.764 -0.57700002 150 0 0
1.456 -0.764 -0.57999998 150 0 0
1.457 -0.76200002 -0.57999998 150 0 0
1.4630001 -0.76099998 -0.58200002 150 0 0
1.465 -0.759 -0.58200002 150 0 0
1.467 -0.75599998 -0.583 150 0 0
1.473 -0.75599998 -0.58399999 150 0 0
1.477 -0.75400001 -0.58600003 150 0 0
1.4809999 -0.75300002 -0.58700001 150 0 0
1.488 -0.75199997 -0.58899999 150 0 0
1.487 -0.74800003 -0.58700001 150 0 0
1.492 -0.74699998 -0.58899999 150 0 0
1.4960001 -0.745 -0.58899999 150 0 0
1.503 -0.74400002 -0.59100002 150 0 0
1.5039999 -0.741 -0.59100002 150 0 0
1.505 -0.73799998 -0.58999997 150 0 0
1.51 -0.736 -0.59100002 150 0 0
1.515 -0.73400003 -0.59200001 150 0 0
1.52 -0.73299998 -0.59299999 150 0 0
1.523 -0.73000002 -0.59299999 150 0 0
1.526 -0.727 -0.59299999 150 0 0
1.53 -0.72500002 -0.59299999 150 0 0
1.5319999 -0.722 -0.59299999 144 0 0
1.536 -0.72000003 -0.59299999 150 0 0
1.548 -0.72100002 -0.59600002 137 0 0
1.554 -0.71899998 -0.597 6 0 0
1.561 -0.71799999 -0.59799999 150 16 0
1.562 -0.71399999 -0.597 150 0 0
1.567 -0.71200001 -0.59799999 150 0 0
1.573 -0.71100003 -0.59799999 149 0 0
1.576 -0.708 -0.59799999 4 0 0
1.5829999 -0.70599997 -0.59899998 150 16 0
1.585 -0.70300001 -0.59799999 150 0 0
1.591 -0.70099998 -0.59799999 150 16 0
1.599 -0.69999999 -0.59899998 150 16 0
1.602 -0.69599998 -0.59799999 150 0 0
1.61 -0.69499999 -0.60000002 150 0 0
1.613 -0.69199997 -0.59899998 117 0 0
1.617 -0.68900001 -0.59799999 150 16 0
1.624 -0.68699998 -0.59899998 150 0 0
1.6289999 -0.685 -0.59799999 150 16 0
1.632 -0.68099999 -0.597 150 0 0
1.637 -0.67900002 -0.597 118 0 0
1.652 -0.68000001 -0.60000002 134 3 0
1.655 -0.67699999 -0.59899998 150 16 0
1.6619999 -0.67500001 -0.59899998 103 0 0
1.6670001 -0.67199999 -0.59899998 127 0 0
1.6720001 -0.66900003 -0.59799999 88 0 0
1.6720001 -0.66399997 -0.59600002 117 0 0
1.681 -0.66299999 -0.597 114 0 0
1.684 -0.65899998 -0.59500003 135 0 0
1.6950001 -0.65899998 -0.597 106 0 0
1.698 -0.65499997 -0.59500003 96 0 0
1.7079999 -0.65399998 -0.59600002 2 0 0
1.712 -0.64999998 -0.59399998 2 0 0
1.7180001 -0.648 -0.59399998 2 0 0
1.726 -0.64600003 -0.59399998 2 0 0
1.735 -0.64399999 -0.59399998 2 0 0
1.739 -0.63999999 -0.59200001 2 0 0
1.743 -0.63700002 -0.59100002 2 0 0
1.749 -0.634 -0.58999997 1 0 0
1.755 -0.63099998 -0.58899999 150 16 0
1.762 -0.62900001 -0.58899999 1 0 0
1.77 -0.62599999 -0.588 2 0 0
1.775 -0.62300003 -0.58700001 150 16 0
1.7819999 -0.62099999 -0.58600003 2 0 0
1.791 -0.61799997 -0.58600003 2 0 0
1.801 -0.61699998 -0.58600003 2 0 0
1.802 -0.61199999 -0.583 150 16 0
1.811 -0.61000001 -0.583 150 16 0
1.8200001 -0.60799998 -0.58200002 150 16 0
1.8279999 -0.60500002 -0.58099997 150 16 0
1.83 -0.60100001 -0.579 150 16 0
1.841 -0.59899998 -0.579 150 16 0
1.849 -0.59600002 -0.57800001 150 16 0
1.853 -0.59200001 -0.57599998 150 16 0
1.862 -0.58999997 -0.57499999 150 16 0
1.867 -0.58600003 -0.57300001 150 16 0
1.874 -0.583 -0.57200003 150 16 0
1.876 -0.579 -0.56900001 150 16 0
1.883 -0.57499999 -0.56699997 150 16 0
1.899 -0.57499999 -0.56800002 150 16 0
1.902 -0.56999999 -0.565 150 16 0
1.911 -0.56800002 -0.56400001 150 16 0
1.9220001 -0.56599998 -0.56400001 150 16 0
1.929 -0.56199998 -0.56199998 150 16 0
1.938 -0.56 -0.56 150 16 0
1.9450001 -0.55599999 -0.55900002 150 16 0
1.9529999 -0.55299997 -0.55699998 150 16 0
1.957 -0.54900002 -0.55400002 150 16 0
1.965 -0.546 -0.55299997 150 16 0
1.972 -0.54299998 -0.55000001 127 16 0
1.985 -0.54100001 -0.55000001 135 16 0
1.992 -0.537 -0.54799998 131 16 0
2.0009999 -0.53399998 -0.546 114 16 0
2.0079999 -0.53100002 -0.54400003 120 16 0
2.0139999 -0.52700001 -0.54100001 116 16 0
2.0250001 -0.52399999 -0.54000002 126 16 0
2.0350001 -0.52100003 -0.53799999 118 16 0
2.039 -0.51700002 -0.53500003 118 16 0
2.049 -0.514 -0.53299999 104 16 0
2.0580001 -0.51099998 -0.53100002 106 16 0
2.062 -0.50599998 -0.528 105 16 0
2.0780001 -0.505 -0.528 119 16 0
2.0869999 -0.50099999 -0.52499998 113 16 0
2.095 -0.498 -0.523 104 16 0
2.0999999 -0.49399999 -0.51999998 103 16 0
2.1070001 -0.49000001 -0.51700002 107 16 0
2.1140001 -0.486 -0.514 97 16 0
2.1370001 -0.486 -0.51499999 108 19 0
2.142 -0.48100001 -0.51099998 97 16 0
2.154 -0.47799999 -0.509 91 16 0
2.1619999 -0.47400001 -0.50599998 83 16 0
2.1689999 -0.47 -0.50300002 81 16 0
2.177 -0.46700001 -0.5 82 16 0
2.1860001 -0.463 -0.498 68 16 0
2.1960001 -0.46000001 -0.495 68 16 0
2.2060001 -0.456 -0.49200001 67 16 0
2.2179999 -0.45300001 -0.49000001 81 16 0
2.23 -0.44999999 -0.48800001 82 16 0
2.2349999 -0.44499999 -0.484 74 16 0
2.2420001 -0.44100001 -0.47999999 70 16 0
2.2509999 -0.43700001 -0.477 73 16 0
2.2650001 -0.43399999 -0.47499999 70 16 0
2.2739999 -0.43000001 -0.472 69 16 0
2.28 -0.426 -0.46799999 68 16 0
2.2950001 -0.42300001 -0.465 63 16 0
2.299 -0.41800001 -0.461 62 16 0
2.3169999 -0.41499999 -0.45899999 62 16 0
2.3269999 -0.41100001 -0.456 58 16 0
2.3399999 -0.40799999 -0.45300001 51 16 0
2.345 -0.403 -0.449 47 16 0
2.3540001 -0.39899999 -0.44499999 64 16 0
2.3670001 -0.396 -0.442 59 16 0
2.375 -0.391 -0.43799999 62 16 0
2.3859999 -0.38699999 -0.435 51 16 0
2.4000001 -0.384 -0.43099999 58 16 0
2.4089999 -0.37900001 -0.428 47 16 0
2.4230001 -0.37599999 -0.42399999 48 16 0
2.431 -0.37099999 -0.41999999 46 16 0
2.441 -0.36700001 -0.41600001 41 16 0
2.45 -0.36199999 -0.412 44 16 0
2.467 -0.359 -0.40900001 43 16 0
2.474 -0.354 -0.40400001 40 16 0
2.48 -0.34900001 -0.39899999 40 16 0
2.497 -0.34599999 -0.396 39 16 0
2.506 -0.34099999 -0.39199999 33 16 0
2.516 -0.33700001 -0.38699999 33 16 0
2.526 -0.33199999 -0.38299999 41 16 0
2.5369999 -0.32800001 -0.37900001 29 16 0
2.5550001 -0.324 -0.375 33 16 0
2.562 -0.31900001 -0.37 34 16 0
2.576 -0.315 -0.366 34 16 0
2.586 -0.31099999 -0.361 34 16 0
2.598 -0.30599999 -0.35699999 34 16 0
2.6129999 -0.30199999 -0.35299999 32 16 0
2.6229999 -0.29699999 -0.34799999 32 16 0
2.6329999 -0.292 -0.34299999 31 16 0
2.6470001 -0.28799999 -0.338 32 16 0
2.661 -0.28299999 -0.33399999 30 16 0
2.668 -0.278 -0.32800001 31 16 0
2.684 -0.27399999 -0.324 32 16 0
2.701 -0.27000001 -0.31900001 31 16 0
2.7090001 -0.264 -0.31400001 31 16 0
2.721 -0.259 -0.308 30 16 0
2.7279999 -0.25400001 -0.30199999 32 16 0
2.7420001 -0.249 -0.29699999 31 16 0
2.757 -0.245 -0.292 30 16 0
2.7720001 -0.23999999 -0.287 30 16 0
2.783 -0.235 -0.28200001 30 16 0
2.7950001 -0.23 -0.27599999 31 16 0
2.812 -0.22499999 -0.271 31 16 0
2.8269999 -0.22 -0.26499999 31 16 0
2.8380001 -0.215 -0.259 30 16 0
2.846 -0.20900001 -0.25299999 31 16 0
2.862 -0.204 -0.248 30 16 0
2.8770001 -0.199 -0.242 29 16 0
2.8889999 -0.19400001 -0.236 31 16 0
2.9059999 -0.189 -0.23 31 16 0
2.921 -0.183 -0.22400001 30 16 0
2.9349999 -0.178 -0.21799999 29 16 0
2.9530001 -0.17299999 -0.212 28 16 0
2.9660001 -0.167 -0.206 27 16 0
2.9760001 -0.162 -0.199 27 16 0
2.9960001 -0.156 -0.193 27 16 0
3.0039999 -0.15000001 -0.186 28 16 0
3.029 -0.145 -0.18000001 28 16 0
3.0420001 -0.14 -0.17299999 27 16 0
3.0610001 -0.134 -0.167 28 16 0
3.0780001 -0.12800001 -0.16 28 16 0
3.089 -0.122 -0.153 28 16 0
3.108 -0.117 -0.146 27 16 0
3.122 -0.111 -0.139 28 16 0
3.135 -0.105 -0.131 28 16 0
3.154 -0.098999999 -0.124 29 16 0
3.177 -0.093000002 -0.117 30 16 0
3.188 -0.086999997 -0.11 28 16 0
3.204 -0.081 -0.102 30 16 0
3.224 -0.075000003 -0.094999999 41 16 0
3.233 -0.068000004 -0.086999997 136 16 0
3.2379999 -0.061999999 -0.079000004 150 16 0
3.2409999 -0.055 -0.071000002 150 16 0
3.24 -0.048999999 -0.061999999 150 16 0
3.2379999 -0.041999999 -0.054000001 150 16 0
3.237 -0.035999998 -0.046 150 16 0
3.2409999 -0.028999999 -0.037999999 150 16 0
3.243 -0.023 -0.028999999 150 16 0
3.2379999 -0.016000001 -0.021 41 16 0
3.244 -0.0099999998 -0.013 22 16 0
3.2650001 -0.003 -0.0049999999 18 16 0
3.286 0.0020000001 0.003 19 16 0
3.3010001 0.0089999996 0.011 20 16 0
3.3180001 0.015 0.02 21 16 0
3.336 0.022 0.028999999 26 16 0
3.3499999 0.028999999 0.037 56 16 0
3.3540001 0.035 0.046 103 16 0
3.346 0.041999999 0.054000001 25 16 0
3.3329999 0.048 0.063000001 5 16 0
3.296 0.054000001 0.071000002 12 19 0
3.309 0.061000001 0.079999998 18 16 0
3.329 0.067000002 0.089000002 24 16 0
3.319 0.074000001 0.097000003 35 16 0
3.306 0.079999998 0.105 33 16 0
3.2780001 0.085000001 0.113 32 16 0
3.2650001 0.090999998 0.121 39 16 0
3.2509999 0.097000003 0.12899999 92 16 0
3.2479999 0.103 0.13699999 150 16 0
3.2490001 0.11 0.146 150 16 0
3.2490001 0.116 0.154 150 16 0
3.25 0.122 0.163 150 16 0
3.2509999 0.12800001 0.17200001 150 16 0
3.253 0.134 0.18000001 150 16 0
3.2520001 0.141 0.189 150 16 0
3.2520001 0.147 0.198 150 16 0
3.2509999 0.153 0.206 150 16 0
3.2539999 0.15899999 0.215 150 16 0
3.194 0.162 0.219 150 18 0
3.095 0.163 0.221 46 19 0
3 0.163 0.222 27 19 0
3.135 0.177 0.23999999 150 17 0
3.237 0.18799999 0.257 150 19 0
3.2539999 0.19499999 0.26699999 150 16 0
3.253 0.20100001 0.27599999 150 16 0
3.26 0.208 0.285 150 16 0
3.2609999 0.214 0.294 150 16 0
3.26 0.22 0.303 150 16 0
3.26 0.226 0.31099999 150 16 0
3.2620001 0.23199999 0.31999999 150 16 0
3.257 0.237 0.329 150 16 0
3.2590001 0.244 0.338 150 16 0
3.2639999 0.25 0.347 150 16 0
3.263 0.25600001 0.35600001 150 16 0
3.2650001 0.26199999 0.36500001 150 16 0
3.26 0.26699999 0.37400001 150 16 0
3.2620001 0.273 0.38299999 150 16 0
3.26 0.27900001 0.391 150 16 0
3.247 0.28400001 0.39899999 46 16 0
3.233 0.28799999 0.40599999 44 16 0
3.2179999 0.29300001 0.41299999 44 16 0
3.197 0.296 0.419 44 16 0
3.184 0.301 0.426 45 16 0
3.1689999 0.30500001 0.433 45 16 0
3.1530001 0.30899999 0.44 41 16 0
3.1329999 0.31299999 0.44600001 42 16 0
3.122 0.317 0.45300001 45 16 0
3.1059999 0.32100001 0.45899999 42 16 0
3.0869999 0.324 0.465 41 16 0
3.079 0.329 0.472 42 16 0
3.059 0.33199999 0.47799999 42 16 0
3.05 0.336 0.48500001 42 16 0
3.0320001 0.33899999 0.491 44 16 0
3.0209999 0.34299999 0.49700001 44 16 0
3.0050001 0.347 0.50300002 44 16 0
2.9920001 0.34999999 0.50999999 44 16 0
2.973 0.35299999 0.51499999 58 16 0
2.964 0.35699999 0.52200001 57 16 0
2.9489999 0.36000001 0.52700001 54 16 0
2.9260001 0.36199999 0.53200001 55 16 0
2.9189999 0.366 0.53899997 61 16 0
2.9100001 0.37 0.54500002 74 16 0
2.895 0.373 0.551 64 16 0
2.878 0.37599999 0.55599999 70 16 0
2.8640001 0.37900001 0.56199998 71 16 0
2.858 0.38299999 0.56900001 67 16 0
2.8410001 0.38499999 0.574 60 16 0
2.826 0.38800001 0.579 74 16 0
2.8169999 0.391 0.58499998 70 16 0
2.8010001 0.39300001 0.58999997 75 16 0
2.79 0.396 0.59600002 70 16 0
2.7739999 0.39899999 0.60100001 75 16 0
2.7620001 0.40099999 0.60600001 75 16 0
2.7479999 0.40400001 0.611 74 16 0
2.7379999 0.40700001 0.61699998 75 16 0
2.7320001 0.41 0.62400001 90 16 0
2.721 0.41299999 0.62900001 91 16 0
2.7090001 0.41499999 0.634 86 16 0
2.6949999 0.417 0.639 84 16 0
2.6830001 0.41999999 0.64399999 92 16 0
2.671 0.42199999 0.64999998 89 16 0
2.655 0.42399999 0.65399998 86 16 0
2.648 0.42699999 0.66000003 94 16 0
2.6359999 0.42899999 0.66500002 84 16 0
2.628 0.43200001 0.671 100 16 0
2.615 0.433 0.67500001 95 16 0
2.6029999 0.435 0.68000001 89 16 0
2.5940001 0.43799999 0.685 99 16 0
2.586 0.44 0.69099998 105 16 0
2.569 0.44100001 0.69400001 103 16 0
2.556 0.44299999 0.69800001 99 16 0
2.5480001 0.44499999 0.704 100 16 0
2.5369999 0.447 0.70899999 97 16 0
2.5280001 0.449 0.71399999 101 16 0
2.5150001 0.45100001 0.71799999 105 16 0
2.5090001 0.45300001 0.72399998 105 16 0
2.4909999 0.454 0.727 102 16 0
2.4860001 0.456 0.73299998 105 16 0
2.471 0.45699999 0.736 105 16 0
2.4649999 0.45899999 0.74199998 109 16 0
2.4560001 0.461 0.74699998 106 16 0
2.4430001 0.46200001 0.75 150 16 0
2.4319999 0.46399999 0.755 143 16 0
2.424 0.465 0.75999999 150 16 0
2.411 0.46599999 0.76300001 147 16 0
2.402 0.46799999 0.76800001 142 16 0
2.391 0.46900001 0.77200001 138 16 0
2.385 0.47099999 0.77700001 150 16 0
2.3740001 0.472 0.78100002 150 16 0
2.3629999 0.47299999 0.78500003 150 16 0
2.3559999 0.47400001 0.79000002 150 16 0
2.345 0.47499999 0.79400003 150 16 0
2.335 0.47600001 0.79799998 150 16 0
2.3269999 0.47799999 0.80199999 150 16 0
2.319 0.479 0.80699998 150 16 0
2.309 0.47999999 0.81099999 150 16 0
2.3010001 0.48100001 0.815 150 16 0
2.2909999 0.48199999 0.81900001 150 16 0
2.2809999 0.48300001 0.82300001 150 16 0
2.273 0.484 0.82700002 150 16 0
2.2639999 0.484 0.83099997 150 16 0
2.257 0.486 0.83499998 150 16 0
2.2460001 0.486 0.83899999 150 16 0
2.2349999 0.486 0.84200001 150 16 0
2.227 0.48699999 0.84600002 150 16 0
2.22 0.48800001 0.85000002 150 16 0
2.2090001 0.48800001 0.85299999 150 16 0
2.201 0.48899999 0.85699999 150 16 0
2.1930001 0.48899999 0.861 150 16 0
2.1800001 0.48899999 0.86299998 150 16 0
2.1730001 0.49000001 0.86699998 150 16 0
2.1670001 0.491 0.87099999 150 16 0
2.154 0.49000001 0.87300003 150 16 0
2.1489999 0.491 0.87800002 150 16 0
2.1440001 0.49200001 0.88300002 150 16 0
2.1359999 0.49200001 0.88599998 150 16 0
2.1229999 0.49200001 0.88800001 150 16 0
2.1110001 0.491 0.88999999 150 16 0
2.105 0.491 0.89399999 150 16 0
2.098 0.49200001 0.898 150 16 0
2.0940001 0.493 0.903 150 16 0
2.086 0.493 0.90600002 150 16 0
2.0780001 0.493 0.90899998 150 16 0
2.066 0.49200001 0.91100001 150 16 0
2.0610001 0.49200001 0.91500002 150 16 0
2.053 0.49200001 0.91799998 150 16 0
2.0480001 0.493 0.92199999 150 16 0
2.039 0.49200001 0.92500001 150 16 0
2.036 0.493 0.93000001 150 16 0
2.023 0.49200001 0.93000001 150 16 0
2.0190001 0.49200001 0.935 150 16 0
2.01 0.491 0.93699998 150 16 0
2.0039999 0.49200001 0.94099998 150 16 0
1.994 0.49000001 0.94199997 150 16 0
1.99 0.491 0.94700003 150 16 0
1.984 0.491 0.94999999 150 16 0
1.976 0.49000001 0.95300001 150 16 0
1.972 0.49000001 0.95700002 150 16 0
1.962 0.48899999 0.958 150 16 0
1.955 0.48800001 0.96100003 150 16 0
1.948 0.48800001 0.96399999 150 16 0
1.936 0.486 0.96399999 150 16 0
1.931 0.486 0.96700001 150 16 0
1.926 0.48500001 0.97100002 150 16 0
1.921 0.48500001 0.97399998 150 16 0
1.915 0.484 0.977 150 16 0
1.908 0.48300001 0.97899997 150 16 0
1.9 0.48199999 0.98100001 150 16 0
1.8940001 0.48199999 0.98400003 150 16 0
1.891 0.48199999 0.98799998 150 16 0
1.8839999 0.48100001 0.99000001 150 16 0
1.876 0.479 0.991 150 16 0
1.869 0.47799999 0.99299997 150 16 0
1.867 0.47799999 0.99800003 150 16 0
1.862 0.477 1.001 150 16 0
1.854 0.47499999 1.002 150 16 0
1.85 0.47499999 1.005 150 16 0
1.8430001 0.47400001 1.007 150 16 0
1.839 0.47299999 1.01 150 16 0
1.8329999 0.472 1.012 150 16 0
1.826 0.47 1.013 150 16 0
1.824 0.47 1.017 150 16 0
1.812 0.46700001 1.016 150 16 0
1.8099999 0.46700001 1.02 150 16 0
1.806 0.46599999 1.022 150 16 0
1.798 0.46399999 1.023 150 16 0
1.795 0.463 1.026 150 16 0
1.788 0.461 1.027 150 16 0
1.783 0.45899999 1.029 150 16 0
1.779 0.458 1.031 150 16 0
1.779 0.458 1.036 150 16 0
1.771 0.456 1.036 150 16 0
1.772 0.456 1.041 150 16 0
1.762 0.45300001 1.039 150 16 0
1.758 0.45199999 1.0420001 150 16 0
1.7589999 0.45100001 1.0470001 150 16 0
1.752 0.449 1.0470001 150 16 0
1.747 0.447 1.048 150 16 0
1.7460001 0.447 1.051 150 16 0
1.7359999 0.44400001 1.05 150 16 0
1.733 0.442 1.052 150 16 0
1.7309999 0.44100001 1.0549999 150 16 0
1.727 0.43900001 1.056 150 16 0
1.725 0.43799999 1.059 150 16 0
1.72 0.43599999 1.0599999 150 16 0
1.716 0.43399999 1.061 150 16 0
1.7029999 0.43000001 1.056 150 18 0
1.7 0.428 1.059 150 16 0
1.697 0.42699999 1.0599999 150 16 0
1.696 0.42500001 1.063 150 16 0
1.693 0.42300001 1.064 150 16 0
1.6900001 0.42199999 1.066 150 16 0
1.688 0.41999999 1.068 150 16 0
1.688 0.419 1.071 150 16 0
1.684 0.417 1.072 150 16 0
1.683 0.41499999 1.074 150 16 0
1.6799999 0.41299999 1.075 150 16 0
1.676 0.41100001 1.075 150 16 0
1.6720001 0.40799999 1.075 150 16 0
1.67 0.40599999 1.077 150 16 0
1.669 0.405 1.079 150 16 0
1.665 0.40200001 1.079 150 16 0
1.6670001 0.40099999 1.082 150 16 0
1.665 0.39899999 1.084 150 16 0
1.659 0.396 1.082 150 16 0
1.663 0.396 1.087 150 16 0
1.6569999 0.39300001 1.085 150 16 0
1.655 0.38999999 1.086 150 16 0
1.656 0.389 1.0880001 150 16 0
1.647 0.38499999 1.085 150 18 0
1.646 0.38299999 1.086 150 16 0
1.648 0.38100001 1.089 150 16 0
1.647 0.38 1.09 150 16 0
1.647 0.37799999 1.091 150 16 0
1.643 0.375 1.09 150 16 0
1.643 0.373 1.092 150 16 0
1.642 0.37099999 1.0930001 150 16 0
1.642 0.36899999 1.094 150 16 0
1.637 0.36500001 1.091 150 16 0
1.6339999 0.36300001 1.09 150 16 0
1.6339999 0.361 1.092 150 16 0
1.6339999 0.35800001 1.092 150 16 0
1.633 0.35600001 1.092 150 16 0
1.6339999 0.354 1.094 150 16 0
1.636 0.352 1.096 150 16 0
1.636 0.34999999 1.096 150 16 0
1.635 0.347 1.096 150 16 0
1.631 0.34400001 1.094 150 16 0
1.635 0.34299999 1.097 150 16 0
1.633 0.34 1.096 150 16 0
1.633 0.338 1.096 150 16 0
1.632 0.33500001 1.095 150 16 0
1.63 0.33199999 1.0930001 150 16 0
1.632 0.33000001 1.095 150 16 0
1.63 0.32699999 1.0930001 150 16 0
1.631 0.32499999 1.0930001 150 16 0
1.632 0.32300001 1.094 150 16 0
1.6339999 0.32100001 1.095 150 16 0
1.637 0.31900001 1.096 150 16 0
1.638 0.31600001 1.096 150 16 0
1.6339999 0.31299999 1.0930001 150 16 0
1.6390001 0.31099999 1.095 150 16 0
1.638 0.308 1.0930001 150 16 0
1.6390001 0.30599999 1.0930001 150 16 0
1.642 0.30399999 1.094 150 16 0
1.638 0.30000001 1.09 150 16 0
1.6440001 0.29899999 1.0930001 150 16 0
1.643 0.296 1.091 150 16 0
1.641 0.29300001 1.0880001 150 16 0
1.642 0.29100001 1.0880001 150 16 0
1.646 0.289 1.0880001 150 16 0
1.649 0.28600001 1.089 150 16 0
1.65 0.28400001 1.087 150 16 0
1.653 0.28099999 1.087 150 16 0
1.655 0.27900001 1.087 150 16 0
1.656 0.27700001 1.086 150 16 0
1.6569999 0.27399999 1.084 150 16 0
1.66 0.27200001 1.084 150 16 0
1.661 0.26899999 1.0829999 150 16 0
1.665 0.26699999 1.0829999 150 16 0
1.664 0.264 1.08 150 16 0
1.671 0.26199999 1.082 150 16 0
1.674 0.25999999 1.081 150 16 0
1.675 0.257 1.079 150 16 0
1.676 0.25400001 1.077 150 16 0
1.681 0.25299999 1.0779999 150 16 0
1.681 0.25 1.075 150 16 0
1.6849999 0.24699999 1.074 150 16 0
1.687 0.245 1.073 150 16 0
1.6900001 0.243 1.071 150 16 0
1.698 0.241 1.074 150 16 0
1.698 0.23800001 1.0700001 150 16 0
1.701 0.236 1.069 150 16 0
1.7029999 0.233 1.067 150 16 0
1.706 0.23100001 1.0650001 150 16 0
1.71 0.229 1.064 150 16 0
1.715 0.226 1.064 150 16 0
1.7180001 0.22400001 1.062 150 16 0
1.719 0.221 1.059 150 16 0
1.723 0.219 1.058 150 16 0
1.725 0.21600001 1.0549999 150 16 0
1.733 0.215 1.056 150 16 0
1.734 0.212 1.053 150 16 0
1.74 0.20999999 1.052 150 16 0
1.74 0.207 1.049 150 16 0
1.744 0.205 1.0470001 150 16 0
1.747 0.20299999 1.044 150 16 0
1.751 0.2 1.0420001 150 16 0
1.753 0.198 1.039 150 16 0
1.755 0.19499999 1.036 150 16 0
1.761 0.193 1.035 150 16 0
1.763 0.191 1.0319999 150 16 0
1.779 0.19 1.0369999 150 19 0
1.7819999 0.18799999 1.034 150 16 0
1.79 0.186 1.034 150 16 0
1.7920001 0.183 1.03 150 16 0
1.8 0.18099999 1.03 150 16 0
1.802 0.17900001 1.026 150 16 0
1.811 0.177 1.027 150 16 0
1.8150001 0.175 1.024 150 16 0
1.823 0.17299999 1.024 150 16 0
1.822 0.17 1.018 150 16 0
1.8329999 0.169 1.0190001 150 16 0
1.835 0.16599999 1.015 150 16 0
1.842 0.16500001 1.0140001 150 16 0
1.847 0.162 1.011 150 16 0
1.849 0.16 1.007 150 16 0
1.855 0.15800001 1.005 150 16 0
1.859 0.156 1.001 150 16 0
1.8660001 0.154 1 150 16 0
1.875 0.152 0.99900001 150 16 0
1.88 0.15000001 0.99599999 150 16 0
1.883 0.148 0.99199998 150 16 0
1.897 0.147 0.99400002 150 16 0
1.901 0.14399999 0.99000001 150 16 0
1.904 0.142 0.986 150 16 0
1.91 0.14 0.98400003 150 16 0
1.918 0.139 0.98199999 150 16 0
1.924 0.13699999 0.97899997 150 16 0
1.928 0.13500001 0.97500002 150 16 0
1.9400001 0.133 0.97500002 150 16 0
1.943 0.131 0.97000003 150 16 0
1.954 0.12899999 0.97000003 150 16 0
1.9579999 0.127 0.96600002 150 16 0
1.964 0.125 0.963 150 16 0
1.972 0.124 0.96100003 150 16 0
1.976 0.122 0.95599997 150 16 0
1.9859999 0.12 0.954 150 16 0
1.993 0.118 0.95200002 150 16 0
1.997 0.116 0.94700003 141 16 0
2.003 0.114 0.94400001 150 16 0
2.0190001 0.113 0.94499999 150 16 0
2.0250001 0.111 0.94099998 150 16 0
2.0320001 0.11 0.93800002 150 16 0
2.04 0.108 0.935 147 16 0
2.0480001 0.106 0.93199998 150 16 0
2.0539999 0.104 0.92799997 142 16 0
2.059 0.103 0.92400002 150 16 0
2.0699999 0.101 0.92199999 150 16 0
2.075 0.098999999 0.91799998 146 16 0
2.0829999 0.097999997 0.91399997 149 16 0
2.0910001 0.096000001 0.91100001 150 16 0
2.1010001 0.094999999 0.90899998 150 16 0
2.1070001 0.093000002 0.90399998 143 16 0
2.115 0.090999998 0.89999998 136 16 0
2.1259999 0.090000004 0.898 147 16 0
2.132 0.088 0.89399999 137 16 0
2.142 0.086999997 0.89099997 133 16 0
2.145 0.085000001 0.88499999 133 16 0
2.158 0.083999999 0.88300002 132 16 0
2.164 0.082000002 0.87900001 130 16 0
2.171 0.079999998 0.87400001 136 16 0
2.1800001 0.079000004 0.87099999 150 16 0
2.187 0.077 0.866 138 16 0
2.2 0.075999998 0.86400002 137 16 0
2.2090001 0.075000003 0.86000001 123 16 0
2.2149999 0.072999999 0.85500002 132 16 0
2.2279999 0.071999997 0.85299999 115 16 0
2.2349999 0.07 0.84799999 118 16 0
2.2460001 0.068999998 0.84500003 109 16 0
2.256 0.068000004 0.84100002 121 16 0
2.2639999 0.066 0.83700001 117 16 0
2.276 0.064999998 0.833 123 16 0
2.2809999 0.063000001 0.82800001 130 16 0
2.2939999 0.061999999 0.82499999 134 16 0
2.3039999 0.061000001 0.82099998 129 16 0
2.309 0.059999999 0.815 111 16 0
2.323 0.057999998 0.81199998 113 16 0
2.335 0.057 0.80800003 117 16 0
2.346 0.056000002 0.80400002 107 16 0
2.3540001 0.055 0.79900002 110 16 0
2.3629999 0.052999999 0.79400003 128 16 0
2.3710001 0.052000001 0.78899997 121 16 0
2.3770001 0.050999999 0.78299999 102 16 0
2.3889999 0.048999999 0.77899998 96 16 0
2.4000001 0.048 0.77499998 91 16 0
2.4100001 0.046999998 0.76999998 90 16 0
2.4159999 0.046 0.764 95 16 0
2.4300001 0.045000002 0.75999999 89 16 0
2.4389999 0.044 0.755 77 16 0
2.447 0.041999999 0.74900001 82 16 0
2.46 0.041000001 0.745 86 16 0
2.473 0.039999999 0.74000001 87 16 0
2.4849999 0.039000001 0.736 89 16 0
2.4920001 0.037999999 0.73000002 85 16 0
2.5090001 0.037 0.72600001 88 16 0
2.5150001 0.035999998 0.72000003 89 16 0
2.53 0.035 0.71499997 83 16 0
2.5409999 0.034000002 0.70999998 88 16 0
2.5569999 0.033 0.70599997 81 16 0
2.5680001 0.032000002 0.69999999 80 16 0
2.5799999 0.030999999 0.69499999 69 16 0
2.592 0.029999999 0.69 70 16 0
2.6059999 0.028999999 0.685 70 16 0
2.622 0.028000001 0.68000001 63 16 0
2.632 0.027000001 0.67400002 60 16 0
2.645 0.026000001 0.66900003 54 16 0
2.6530001 0.025 0.662 66 16 0
2.664 0.024 0.65600002 67 16 0
2.677 0.023 0.64999998 57 16 0
2.687 0.023 0.64399999 58 16 0
2.698 0.022 0.63700002 36 16 0
2.7179999 0.021 0.63300002 33 16 0
2.73 0.02 0.62699997 33 16 0
2.744 0.018999999 0.62099999 35 16 0
2.7579999 0.017999999 0.61500001 32 16 0
2.77 0.017999999 0.60799998 32 16 0
2.78 0.017000001 0.60100001 32 16 0
2.7939999 0.016000001 0.59500003 32 16 0
2.8110001 0.015 0.58999997 31 16 0
2.8299999 0.014 0.58399999 34 16 0
2.8369999 0.014 0.57599998 37 16 0
2.846 0.013 0.56900001 37 16 0
2.869 0.012 0.56400001 34 16 0
2.8789999 0.012 0.55599999 32 16 0
2.9000001 0.011 0.551 31 16 0
2.915 0.0099999998 0.54400003 32 16 0
2.934 0.0099999998 0.53799999 32 16 0
2.948 0.0089999996 0.53100002 31 16 0
2.9679999 0.0080000004 0.52499998 31 16 0
2.9790001 0.0080000004 0.51700002 31 16 0
2.9990001 0.0070000002 0.50999999 33 16 0
3.017 0.0070000002 0.50300002 31 16 0
3.0280001 0.0060000001 0.495 31 16 0
3.04 0.0049999999 0.48699999 32 16 0
3.063 0.0049999999 0.48100001 32 16 0
3.0769999 0.0040000002 0.47299999 32 16 0
3.0940001 0.0040000002 0.465 32 16 0
3.1170001 0.003 0.45899999 32 16 0
3.132 0.003 0.45100001 32 16 0
3.152 0.0020000001 0.44299999 33 16 0
3.175 0.0020000001 0.43599999 33 16 0
3.1889999 0.0020000001 0.428 34 16 0
3.2060001 0.001 0.41999999 34 16 0
3.223 0.001 0.41100001 32 16 0
3.2460001 0 0.40400001 34 16 0
3.263 0 0.39500001 32 16 0
3.28 0 0.38600001 33 16 0
3.3 0 0.37799999 32 16 0
3.3199999 0 0.36899999 33 16 0
3.346 0 0.361 32 16 0
3.3570001 -0.001 0.352 34 16 0
3.3770001 -0.001 0.34299999 92 16 0
3.3789999 -0.001 0.33199999 150 16 0
3.3740001 -0.001 0.31999999 127 16 0
3.3670001 -0.0020000001 0.30899999 86 16 0
3.3629999 -0.0020000001 0.29699999 81 16 0
3.3629999 -0.0020000001 0.28600001 94 16 0
3.3540001 -0.0020000001 0.27500001 86 16 0
3.3510001 -0.0020000001 0.264 94 16 0
3.345 -0.0020000001 0.252 88 16 0
3.3440001 -0.0020000001 0.241 109 16 0
3.3369999 -0.0020000001 0.23 89 16 0
3.3280001 -0.003 0.219 93 16 0
3.326 -0.003 0.208 103 16 0
3.3169999 -0.003 0.19599999 98 16 0
3.3169999 -0.003 0.186 120 16 0
3.3050001 -0.003 0.17399999 85 16 0
3.303 -0.0020000001 0.163 113 16 0
3.299 -0.0020000001 0.152 109 16 0
3.296 -0.0020000001 0.142 92 16 0
3.29 -0.0020000001 0.131 118 16 0
3.289 -0.0020000001 0.12 120 16 0
3.2920001 -0.0020000001 0.109 40 16 0
3.3069999 -0.0020000001 0.098999999 28 16 0
3.3069999 -0.0020000001 0.089000002 17 16 0
3.3139999 -0.001 0.078000002 17 16 0
3.309 -0.001 0.067000002 17 16 0
3.3 -0.001 0.056000002 16 16 0
3.2980001 -0.001 0.046 16 16 0
3.296 -0.001 0.035 16 16 0
3.286 0 0.024 16 16 0
3.286 0 0.014 16 16 0
3.283 0 0.003 16 16 0
3.2739999 0 -0.0070000002 16 16 0
3.2750001 0 -0.017000001 16 16 0
3.2739999 0 -0.028000001 16 16 0
3.2690001 0.001 -0.037999999 16 16 0
3.2620001 0.001 -0.048999999 16 16 0
3.2620001 0.0020000001 -0.059 16 16 0
3.2579999 0.0020000001 -0.07 16 16 0
3.2520001 0.003 -0.079999998 16 16 0
3.247 0.003 -0.090999998 16 16 0
3.2460001 0.0040000002 -0.101 16 16 0
3.243 0.0040000002 -0.112 16 16 0
3.24 0.0049999999 -0.122 16 16 0
3.2390001 0.0049999999 -0.132 16 16 0
3.237 0.0060000001 -0.14300001 16 16 0
3.2349999 0.0060000001 -0.153 16 16 0
3.2290001 0.0070000002 -0.163 17 16 0
3.2279999 0.0070000002 -0.17399999 17 16 0
3.224 0.0080000004 -0.184 16 16 0
3.2219999 0.0089999996 -0.19400001 16 16 0
3.223 0.0089999996 -0.205 18 16 0
3.2190001 0.0099999998 -0.215 18 16 0
3.2179999 0.011 -0.22499999 18 16 0
3.214 0.012 -0.235 18 16 0
3.211 0.012 -0.24600001 19 16 0
3.21 0.013 -0.25600001 20 16 0
3.2049999 0.014 -0.266 21 16 0
3.2049999 0.015 -0.27599999 23 16 0
3.201 0.015 -0.28600001 25 16 0
3.204 0.016000001 -0.29699999 29 16 0
3.2049999 0.017000001 -0.308 32 16 0
3.1919999 0.017999999 -0.317 34 16 0
3.188 0.018999999 -0.32699999 38 16 0
3.1849999 0.02 -0.33700001 41 16 0
3.1830001 0.021 -0.347 40 16 0
3.1760001 0.022 -0.35699999 42 16 0
3.1689999 0.022 -0.366 49 16 0
3.1659999 0.023 -0.37599999 46 16 0
3.1559999 0.024 -0.38499999 50 16 0
3.151 0.025 -0.39500001 52 16 0
3.1440001 0.026000001 -0.40400001 51 16 0
3.1400001 0.027000001 -0.414 64 16 0
3.1340001 0.028000001 -0.42300001 50 16 0
3.128 0.028999999 -0.43200001 57 16 0
3.1210001 0.029999999 -0.442 58 16 0
3.118 0.030999999 -0.45100001 60 16 0
3.1129999 0.033 -0.461 64 16 0
3.1059999 0.034000002 -0.47 65 16 0
3.1040001 0.035 -0.47999999 69 16 0
3.095 0.035999998 -0.48800001 72 16 0
3.0899999 0.037 -0.498 53 16 0
3.0910001 0.037999999 -0.50800002 49 16 0
3.086 0.039999999 -0.51700002 46 16 0
3.079 0.041000001 -0.52600002 42 16 0
3.0769999 0.041999999 -0.53600001 40 16 0
3.075 0.043000001 -0.546 38 16 0
3.069 0.045000002 -0.55500001 37 16 0
3.0680001 0.046 -0.56400001 38 16 0
3.0569999 0.046999998 -0.57200003 38 16 0
3.0539999 0.048 -0.58200002 38 16 0
3.049 0.050000001 -0.59100002 41 16 0
3.0469999 0.050999999 -0.60000002 46 16 0
3.04 0.052000001 -0.60900003 50 16 0
3.0309999 0.054000001 -0.61699998 59 16 0
3.029 0.055 -0.62599999 64 16 0
3.023 0.057 -0.63499999 98 16 0
3.0190001 0.057999998 -0.64399999 108 16 0
3.013 0.059999999 -0.653 98 16 0
3.0090001 0.061000001 -0.662 104 16 0
3.007 0.063000001 -0.671 114 16 0
3.0039999 0.064000003 -0.68000001 106 16 0
2.9949999 0.066 -0.68800002 93 16 0
2.9920001 0.067000002 -0.69700003 107 16 0
2.9879999 0.068999998 -0.70599997 91 16 0
2.9790001 0.07 -0.71399999 90 16 0
2.9790001 0.071999997 -0.72399998 110 16 0
2.9719999 0.074000001 -0.73199999 106 16 0
2.9619999 0.075000003 -0.73900002 100 16 0
2.961 0.077 -0.74900001 109 16 0
2.957 0.079000004 -0.75700003 108 16 0
2.951 0.079999998 -0.76499999 143 16 0
2.948 0.082000002 -0.77399999 141 16 0
2.944 0.083999999 -0.78299999 139 16 0
2.9400001 0.086000003 -0.792 110 16 0
2.9330001 0.086999997 -0.79900002 117 16 0
2.9330001 0.089000002 -0.80900002 103 16 0
2.9289999 0.090999998 -0.81800002 89 16 0
2.9230001 0.093000002 -0.82599998 99 16 0
2.9159999 0.094999999 -0.833 88 16 0
2.914 0.096000001 -0.84200001 100 16 0
2.9100001 0.097999997 -0.85100001 97 16 0
2.902 0.1 -0.85799998 105 16 0
2.8989999 0.102 -0.86699998 91 16 0
2.8929999 0.104 -0.875 97 16 0
2.8870001 0.106 -0.88200003 103 16 0
2.882 0.108 -0.88999999 95 16 0
2.8789999 0.11 -0.89899999 97 16 0
2.8759999 0.112 -0.90700001 109 16 0
2.8640001 0.114 -0.91299999 101 16 0
2.865 0.116 -0.92299998 109 16 0
2.859 0.118 -0.93000001 111 16 0
2.8559999 0.12 -0.93900001 103 16 0
2.8529999 0.123 -0.94700003 104 16 0
2.845 0.125 -0.954 117 16 0
2.8410001 0.127 -0.96200001 111 16 0
2.839 0.12899999 -0.97000003 118 16 0
2.836 0.131 -0.97899997 105 16 0
2.8299999 0.134 -0.986 101 16 0
2.8150001 0.13500001 -0.99000001 83 16 0
2.8239999 0.138 -1.003 16 16 0
3.4460001 0.17200001 -1.235 3 17 0
3.549 0.18000001 -1.283 1 18 0
2.924 0.15099999 -1.067 0 17 0
2.983 0.15700001 -1.098 0 16 0
3.017 0.162 -1.12 0 16 0
2.9879999 0.163 -1.12 0 16 0
3.595 0.2 -1.359 1 18 0
2.8110001 0.15899999 -1.072 0 17 0
3.596 0.207 -1.383 0 17 0
3.5769999 0.20900001 -1.387 2 16 0
2.793 0.16599999 -1.092 19 17 0
2.77 0.167 -1.092 96 16 0
2.7590001 0.17 -1.096 150 16 0
2.7539999 0.17200001 -1.104 150 16 0
2.7460001 0.175 -1.109 150 16 0
2.7409999 0.177 -1.1160001 150 16 0
2.7360001 0.18000001 -1.123 150 16 0
2.7309999 0.182 -1.13 150 16 0
2.73 0.185 -1.138 150 16 0
2.7219999 0.18799999 -1.143 150 16 0
2.7179999 0.191 -1.15 150 16 0
2.7179999 0.19400001 -1.159 150 16 0
2.711 0.19599999 -1.165 150 16 0
2.7049999 0.199 -1.171 150 16 0
2.704 0.20200001 -1.179 150 16 0
2.698 0.205 -1.1849999 150 16 0
2.694 0.207 -1.192 150 16 0
2.6919999 0.211 -1.2 150 16 0
2.6789999 0.213 -1.2029999 150 16 0
2.6760001 0.21600001 -1.209 150 16 0
2.674 0.219 -1.217 150 16 0
2.6689999 0.222 -1.223 150 16 0
2.6700001 0.22499999 -1.232 150 16 0
2.6619999 0.228 -1.237 150 16 0
2.658 0.23100001 -1.243 150 16 0
2.6489999 0.234 -1.247 148 16 0
2.648 0.237 -1.255 150 16 0
2.6440001 0.23999999 -1.261 150 16 0
2.6389999 0.243 -1.267 150 16 0
2.6359999 0.24600001 -1.273 150 16 0
2.6289999 0.249 -1.278 150 16 0
2.6229999 0.252 -1.283 150 16 0
2.6199999 0.255 -1.29 144 16 0
2.6170001 0.259 -1.296 150 16 0
2.6099999 0.26199999 -1.301 150 16 0
2.6099999 0.26499999 -1.308 148 16 0
2.6040001 0.26800001 -1.313 150 16 0
2.599 0.27200001 -1.318 150 16 0
2.5999999 0.27500001 -1.326 150 16 0
2.5929999 0.278 -1.33 150 16 0
2.589 0.28200001 -1.336 150 16 0
2.5829999 0.285 -1.341 150 16 0
2.5799999 0.28799999 -1.346 150 16 0
2.575 0.292 -1.351 148 16 0
2.5710001 0.29499999 -1.357 150 16 0
2.5669999 0.29800001 -1.362 150 16 0
2.5639999 0.30199999 -1.367 141 16 0
2.5610001 0.30599999 -1.373 137 16 0
2.5569999 0.30899999 -1.378 146 16 0
2.5510001 0.31200001 -1.382 150 16 0
2.5480001 0.31600001 -1.387 140 16 0
2.5469999 0.31999999 -1.3940001 150 16 0
2.5380001 0.32300001 -1.396 124 16 0
2.5350001 0.32600001 -1.401 131 16 0
2.5350001 0.33000001 -1.4069999 146 16 0
2.527 0.333 -1.41 147 16 0
2.5250001 0.33700001 -1.415 133 16 0
2.52 0.34 -1.419 141 16 0
2.5150001 0.34400001 -1.423 131 16 0
2.516 0.34799999 -1.429 137 16 0
2.506 0.35100001 -1.4299999 137 16 0
2.5020001 0.354 -1.434 126 16 0
2.5009999 0.359 -1.4400001 134 16 0
2.493 0.36199999 -1.441 117 16 0
2.49 0.36500001 -1.446 128 16 0
2.487 0.36899999 -1.45 127 16 0
2.484 0.373 -1.454 145 16 0
2.4809999 0.377 -1.4579999 144 16 0
2.4779999 0.38 -1.462 140 16 0
2.474 0.384 -1.466 141 16 0
2.4719999 0.38800001 -1.47 134 16 0
2.4679999 0.39199999 -1.473 142 16 0
2.464 0.39500001 -1.476 129 16 0
2.461 0.39899999 -1.48 126 16 0
2.457 0.403 -1.482 122 16 0
2.4560001 0.40700001 -1.487 127 16 0
2.451 0.41 -1.489 119 16 0
2.447 0.414 -1.4910001 125 16 0
2.444 0.41800001 -1.495 135 16 0
2.4419999 0.42199999 -1.498 128 16 0
2.4389999 0.426 -1.501 140 16 0
2.438 0.43000001 -1.505 126 16 0
2.431 0.433 -1.505 135 16 0
2.428 0.43599999 -1.508 140 16 0
2.4260001 0.44 -1.51 143 16 0
2.4189999 0.44299999 -1.511 133 16 0
2.4170001 0.447 -1.513 121 16 0
2.414 0.45100001 -1.516 136 16 0
2.4119999 0.45500001 -1.518 131 16 0
2.4100001 0.45899999 -1.521 131 16 0
2.4070001 0.463 -1.522 132 16 0
2.405 0.46599999 -1.525 133 16 0
2.4030001 0.47 -1.527 125 16 0
2.401 0.47400001 -1.529 140 16 0
2.3940001 0.477 -1.528 127 16 0
2.3929999 0.48100001 -1.531 115 16 0
2.3900001 0.48500001 -1.5319999 129 16 0
2.385 0.48800001 -1.531 127 16 0
2.3829999 0.491 -1.533 113 16 0
2.382 0.495 -1.535 126 16 0
2.3789999 0.49900001 -1.536 124 16 0
2.3770001 0.50300002 -1.5369999 131 16 0
2.3759999 0.50599998 -1.538 120 16 0
2.3729999 0.50999999 -1.538 121 16 0
2.3729999 0.514 -1.541 124 16 0
2.3710001 0.51800001 -1.5420001 125 16 0
2.362 0.51999998 -1.538 109 16 0
2.368 0.52499998 -1.544 134 16 0
2.362 0.528 -1.541 128 16 0
2.3610001 0.53100002 -1.5420001 128 16 0
2.3599999 0.53500003 -1.543 119 16 0
2.3559999 0.53799999 -1.541 126 16 0
2.355 0.54100001 -1.5420001 128 16 0
2.3540001 0.54500002 -1.5420001 125 16 0
2.3529999 0.54900002 -1.5420001 132 16 0
2.352 0.55199999 -1.543 126 16 0
2.3510001 0.55599999 -1.543 129 16 0
2.345 0.55800003 -1.54 134 16 0
2.348 0.56199998 -1.5420001 121 16 0
2.3440001 0.565 -1.539 123 16 0
2.3399999 0.56699997 -1.5369999 130 16 0
2.339 0.57099998 -1.5369999 122 16 0
2.3380001 0.574 -1.536 122 16 0
2.336 0.57700002 -1.535 127 16 0
2.3369999 0.58099997 -1.535 126 16 0
2.3369999 0.58399999 -1.535 120 16 0
2.3340001 0.58700001 -1.5319999 122 16 0
2.3299999 0.58899999 -1.529 116 16 0
2.332 0.59299999 -1.529 136 16 0
2.3299999 0.59600002 -1.527 141 16 0
2.3280001 0.59799999 -1.525 148 16 0
2.329 0.60100001 -1.524 142 16 0
2.326 0.60399997 -1.521 148 16 0
2.326 0.60699999 -1.52 133 16 0
2.3299999 0.611 -1.521 147 16 0
2.329 0.61400002 -1.5190001 136 16 0
2.3269999 0.616 -1.515 138 16 0
2.3269999 0.61900002 -1.5140001 149 16 0
2.326 0.62099999 -1.511 150 16 0
2.325 0.62400001 -1.5089999 150 16 0
2.323 0.62599999 -1.505 150 16 0
2.3239999 0.62800002 -1.503 150 16 0
2.323 0.63099998 -1.5 150 16 0
2.325 0.634 -1.499 150 16 0
2.326 0.63599998 -1.497 150 16 0
2.325 0.63800001 -1.494 150 16 0
2.325 0.64099997 -1.4910001 150 16 0
2.3269999 0.64399999 -1.489 150 16 0
2.3269999 0.64600003 -1.4859999 150 16 0
2.3280001 0.648 -1.483 150 16 0
2.329 0.64999998 -1.4809999 150 16 0
2.325 0.65100002 -1.475 150 16 0
2.3280001 0.65399998 -1.474 150 16 0
2.3299999 0.65700001 -1.471 150 16 0
2.3269999 0.65799999 -1.465 150 16 0
2.3299999 0.66000003 -1.4630001 150 16 0
2.3310001 0.662 -1.46 150 16 0
2.3280001 0.66299999 -1.454 150 16 0
2.332 0.66600001 -1.4529999 150 16 0
2.3329999 0.667 -1.449 150 16 0
2.335 0.67000002 -1.446 150 16 0
2.3369999 0.671 -1.443 150 16 0
2.3380001 0.67299998 -1.439 150 16 0
2.3340001 0.67299998 -1.432 150 16 0
2.3410001 0.676 -1.431 150 16 0
2.3399999 0.67699999 -1.426 150 16 0
2.339 0.67799997 -1.42 150 16 0
2.3410001 0.68000001 -1.4170001 150 16 0
2.3429999 0.68099999 -1.413 150 16 0
2.345 0.68199998 -1.409 150 16 0
2.345 0.68300003 -1.404 150 16 0
2.3469999 0.685 -1.4 150 16 0
2.345 0.685 -1.393 150 16 0
2.349 0.68699998 -1.39 150 16 0
2.349 0.68699998 -1.385 150 16 0
2.3510001 0.68800002 -1.38 150 16 0
2.3510001 0.68900001 -1.375 150 16 0
2.3559999 0.69 -1.372 150 16 0
2.352 0.69 -1.364 150 16 0
2.358 0.69099998 -1.3609999 150 16 0
2.362 0.69300002 -1.358 150 16 0
2.359 0.69199997 -1.35 150 16 0
2.3640001 0.69400001 -1.347 150 16 0
2.3699999 0.69499999 -1.344 150 16 0
2.369 0.69499999 -1.337 150 16 0
2.372 0.69599998 -1.3329999 150 16 0
2.3710001 0.69499999 -1.326 150 16 0
2.378 0.69700003 -1.323 150 16 0
2.3759999 0.69599998 -1.316 150 16 0
2.3829999 0.69700003 -1.313 150 16 0
2.381 0.69700003 -1.3049999 150 16 0
2.381 0.69599998 -1.299 150 16 0
2.3870001 0.69700003 -1.296 150 16 0
2.3870001 0.69599998 -1.288 150 16 0
2.3929999 0.69800001 -1.285 150 16 0
2.392 0.69700003 -1.278 150 16 0
2.395 0.69700003 -1.272 150 16 0
2.4030001 0.69800001 -1.27 150 16 0
2.404 0.69700003 -1.263 150 16 0
2.404 0.69599998 -1.256 150 16 0
2.4100001 0.69700003 -1.252 150 16 0
2.4100001 0.69599998 -1.245 150 16 0
2.4130001 0.69499999 -1.24 150 16 0
2.4189999 0.69599998 -1.2359999 150 16 0
2.4219999 0.69599998 -1.23 150 16 0
2.4189999 0.69300002 -1.221 150 16 0
2.427 0.69400001 -1.2180001 150 16 0
2.424 0.69199997 -1.209 150 16 0
2.4360001 0.69400001 -1.2079999 150 16 0
2.4389999 0.69300002 -1.202 150 16 0
2.4449999 0.69300002 -1.197 150 16 0
2.437 0.68900001 -1.186 150 16 0
2.4430001 0.68900001 -1.181 150 16 0
2.4389999 0.68599999 -1.1720001 150 16 0
2.4489999 0.68699998 -1.169 150 16 0
2.454 0.68699998 -1.164 150 16 0
2.457 0.68599999 -1.158 150 16 0
2.46 0.68400002 -1.151 150 16 0
2.4630001 0.68300003 -1.145 150 16 0
2.4679999 0.68199998 -1.14 150 16 0
2.471 0.68099999 -1.133 150 16 0
2.473 0.67900002 -1.127 150 16 0
2.4790001 0.67900002 -1.122 150 16 0
2.4719999 0.67400002 -1.1109999 150 16 0
2.487 0.676 -1.11 150 16 0
2.4890001 0.67400002 -1.103 150 16 0
2.4949999 0.67400002 -1.098 150 16 0
2.4920001 0.67000002 -1.089 150 16 0
2.5 0.67000002 -1.084 150 16 0
2.506 0.66900003 -1.079 150 16 0
2.5050001 0.66600001 -1.071 150 16 0
2.51 0.66500002 -1.0650001 150 16 0
2.5190001 0.66399997 -1.0599999 150 16 0
2.516 0.66100001 -1.052 150 16 0
2.5250001 0.66000003 -1.0470001 150 16 0
2.5250001 0.65700001 -1.039 150 16 0
2.5320001 0.65700001 -1.034 150 16 0
2.536 0.65399998 -1.028 150 16 0
2.5380001 0.65200001 -1.021 150 16 0
2.5420001 0.64999998 -1.0140001 150 16 0
2.549 0.64899999 -1.0089999 150 16 0
2.5550001 0.64700001 -1.003 21 16 0
2.5439999 0.64099997 -0.991 0 16 0
0 0 0 0 16 0
2.631 0.65700001 -1.0089999 0 16 0
2.6340001 0.65399998 -1.001 0 16 0
2.592 0.63999999 -0.977 0 18 0
0 0 0 0 16 0
2.658 0.64899999 -0.986 0 16 0
2.6630001 0.64700001 -0.97899997 0 16 0
2.652 0.64099997 -0.96700001 0 16 0
2.6819999 0.64399999 -0.96899998 0 16 0
2.6719999 0.63800001 -0.95700002 0 16 0
2.6129999 0.62099999 -0.92799997 2 17 0
2.612 0.61699998 -0.92000002 32 16 0
2.6070001 0.61199999 -0.91000003 150 16 0
2.6099999 0.60900003 -0.903 150 16 0
2.6129999 0.60600001 -0.89600003 150 16 0
2.6159999 0.60299999 -0.889 150 16 0
2.6240001 0.60100001 -0.88300002 150 16 0
2.631 0.59899998 -0.87699997 150 16 0
