# .PCD v0.7 - Point Cloud Data file format
VERSION 0.7
FIELDS x y z intensity tag line
SIZE 4 4 4 4 1 1
TYPE F F F F U U
COUNT 1 1 1 1 1 1
WIDTH 1381
HEIGHT 1
VIEWPOINT 0 0 0 1 0 0 0
POINTS 1381
DATA ascii
3.198 -0.066 -0.161 150 16 0
3.1989999 -0.061999999 -0.15099999 150 16 0
3.207 -0.057999998 -0.142 150 16 0
3.207 -0.054000001 -0.132 150 16 0
3.21 -0.050000001 -0.123 150 16 0
3.2149999 -0.046 -0.114 150 16 0
3.2179999 -0.041999999 -0.104 150 16 0
3.2179999 -0.037999999 -0.093999997 150 16 0
3.2179999 -0.034000002 -0.085000001 150 16 0
3.22 -0.029999999 -0.075000003 150 16 0
3.2190001 -0.026000001 -0.064999998 150 16 0
3.2219999 -0.022 -0.056000002 131 16 0
3.233 -0.017999999 -0.046 70 16 0
3.2320001 -0.014 -0.037 37 16 0
3.2409999 -0.0099999998 -0.027000001 26 16 0
3.253 -0.0070000002 -0.017000001 20 16 0
3.2650001 -0.003 -0.0080000004 19 16 0
3.2820001 0 0.001 19 16 0
3.2920001 0.0040000002 0.011 20 16 0
3.303 0.0080000004 0.021 19 16 0
3.3150001 0.012 0.030999999 20 16 0
3.3299999 0.016000001 0.041999999 21 16 0
3.346 0.02 0.052000001 23 16 0
3.3510001 0.024 0.061999999 29 16 0
3.3629999 0.028000001 0.072999999 50 16 0
3.3559999 0.032000002 0.082999997 51 16 0
3.335 0.035 0.092 34 16 0
3.3099999 0.039000001 0.102 33 16 0
3.29 0.041999999 0.111 37 16 0
3.27 0.046 0.12 91 16 0
3.2679999 0.048999999 0.13 150 16 0
3.2709999 0.052999999 0.14 150 16 0
3.2709999 0.056000002 0.15000001 150 16 0
3.2780001 0.059999999 0.16 150 16 0
3.28 0.064000003 0.171 150 16 0
3.277 0.067000002 0.18000001 150 16 0
3.289 0.071000002 0.191 150 16 0
3.2839999 0.075000003 0.20100001 150 16 0
3.2880001 0.078000002 0.211 150 16 0
3.2920001 0.082000002 0.221 150 16 0
3.2950001 0.086000003 0.23199999 150 16 0
3.2939999 0.089000002 0.242 150 16 0
3.3010001 0.093000002 0.252 150 16 0
3.3050001 0.096000001 0.26300001 150 16 0
3.306 0.1 0.273 150 16 0
3.3139999 0.104 0.28400001 150 16 0
3.313 0.107 0.294 150 16 0
3.3169999 0.11 0.30500001 150 16 0
3.316 0.114 0.315 150 16 0
3.322 0.118 0.32600001 150 16 0
3.3210001 0.121 0.336 150 16 0
3.3269999 0.124 0.347 150 16 0
3.3280001 0.12800001 0.35699999 150 16 0
3.3239999 0.131 0.36700001 101 16 0
3.3069999 0.134 0.37599999 45 16 0
3.286 0.13600001 0.384 44 16 0
3.2720001 0.139 0.39199999 42 16 0
3.2520001 0.141 0.40000001 43 16 0
3.237 0.14300001 0.40799999 45 16 0
3.2119999 0.146 0.41499999 43 16 0
3.1949999 0.148 0.42300001 46 16 0
3.184 0.15000001 0.43099999 46 16 0
3.1619999 0.152 0.43799999 47 16 0
3.1489999 0.155 0.44600001 43 16 0
3.1300001 0.15700001 0.45300001 44 16 0
3.1059999 0.15800001 0.46000001 40 16 0
3.0929999 0.161 0.46799999 42 16 0
3.073 0.162 0.47400001 41 16 0
3.0580001 0.164 0.48199999 42 16 0
3.039 0.16599999 0.48800001 42 16 0
3.0239999 0.168 0.495 46 16 0
3.007 0.17 0.50199997 43 16 0
2.9909999 0.17200001 0.509 43 16 0
2.9790001 0.17399999 0.51599997 44 16 0
2.9630001 0.175 0.523 43 16 0
2.951 0.177 0.52999997 43 16 0
2.9360001 0.17900001 0.537 45 16 0
2.9159999 0.18000001 0.54299998 44 16 0
2.904 0.182 0.55000001 44 16 0
2.8870001 0.183 0.55599999 43 16 0
2.872 0.185 0.56199998 42 16 0
2.8610001 0.186 0.56900001 46 16 0
2.845 0.18799999 0.57499999 51 16 0
2.832 0.189 0.58099997 52 16 0
2.8180001 0.191 0.588 55 16 0
2.802 0.192 0.59299999 56 16 0
2.7880001 0.193 0.59899998 62 16 0
2.7739999 0.19400001 0.60500002 97 16 0
2.763 0.19599999 0.61199999 72 16 0
2.75 0.197 0.61799997 94 16 0
2.7360001 0.198 0.62400001 100 16 0
2.7219999 0.199 0.62900001 89 16 0
2.711 0.2 0.63499999 104 16 0
2.6919999 0.20100001 0.63999999 101 16 0
2.6819999 0.20200001 0.64600003 105 16 0
2.674 0.204 0.653 98 16 0
2.6600001 0.205 0.65799999 113 16 0
2.648 0.206 0.66399997 107 16 0
2.632 0.206 0.66900003 105 16 0
2.6229999 0.207 0.67500001 110 16 0
2.618 0.20900001 0.68199998 120 16 0
2.596 0.20900001 0.685 117 16 0
2.5840001 0.20999999 0.69 128 16 0
2.573 0.211 0.69599998 121 16 0
2.5650001 0.212 0.70200002 132 16 0
2.55 0.212 0.70599997 120 16 0
2.539 0.213 0.71200001 117 16 0
2.526 0.213 0.71700001 121 16 0
2.5150001 0.214 0.722 112 16 0
2.5039999 0.215 0.727 115 16 0
2.4949999 0.21600001 0.73299998 118 16 0
2.48 0.21600001 0.73699999 123 16 0
2.471 0.21699999 0.74199998 119 16 0
2.4590001 0.21699999 0.74699998 127 16 0
2.448 0.21799999 0.75099999 136 16 0
2.438 0.21799999 0.75700003 120 16 0
2.4260001 0.21799999 0.76099998 91 16 0
2.414 0.219 0.76499999 55 16 0
2.405 0.219 0.77100003 82 16 0
2.3989999 0.22 0.77700001 149 16 0
2.3840001 0.22 0.77899998 150 16 0
2.3759999 0.22 0.78500003 150 16 0
2.365 0.221 0.78899997 150 16 0
2.3570001 0.221 0.79500002 150 16 0
2.349 0.221 0.80000001 150 16 0
2.3369999 0.221 0.80400002 150 16 0
2.326 0.221 0.80800003 150 16 0
2.3180001 0.222 0.81300002 150 16 0
2.309 0.222 0.81699997 150 16 0
2.2950001 0.222 0.81999999 150 16 0
2.2880001 0.222 0.82499999 150 16 0
2.2739999 0.222 0.82800001 150 16 0
2.2650001 0.222 0.83200002 150 16 0
2.256 0.222 0.83700001 150 16 0
2.247 0.222 0.84100002 150 16 0
2.2360001 0.221 0.84399998 150 16 0
2.2249999 0.221 0.84799999 150 16 0
2.2219999 0.222 0.85399997 150 16 0
2.21 0.221 0.85699999 150 16 0
2.201 0.221 0.861 150 16 0
2.1919999 0.221 0.86500001 150 16 0
2.1819999 0.221 0.86799997 150 16 0
2.1730001 0.22 0.87199998 150 16 0
2.1619999 0.22 0.875 150 16 0
2.158 0.22 0.88099998 150 16 0
2.1500001 0.22 0.88499999 150 16 0
2.135 0.219 0.88599998 150 16 0
2.1259999 0.21799999 0.88999999 150 16 0
2.1229999 0.219 0.89499998 150 16 0
2.1159999 0.21799999 0.89999998 150 16 0
2.1070001 0.21799999 0.903 150 16 0
2.098 0.21699999 0.90600002 150 16 0
2.0910001 0.21699999 0.91000003 150 16 0
2.082 0.21600001 0.91299999 150 16 0
2.076 0.21600001 0.91799998 150 16 0
2.0669999 0.215 0.921 150 16 0
2.063 0.215 0.926 150 16 0
2.053 0.214 0.92799997 150 16 0
2.0450001 0.214 0.93199998 150 16 0
2.0369999 0.213 0.935 150 16 0
2.0320001 0.213 0.94 150 16 0
2.0220001 0.212 0.94199997 150 16 0
2.0120001 0.211 0.94400001 150 16 0
2.0079999 0.20999999 0.949 150 16 0
1.9910001 0.20900001 0.94700003 150 16 0
1.9859999 0.208 0.95200002 150 16 0
1.978 0.207 0.95499998 150 16 0
1.976 0.207 0.95999998 150 16 0
1.965 0.206 0.96100003 150 16 0
1.9579999 0.205 0.96399999 150 16 0
1.955 0.204 0.96899998 150 16 0
1.949 0.204 0.97299999 150 16 0
1.941 0.20299999 0.97500002 150 16 0
1.932 0.20100001 0.977 150 16 0
1.924 0.2 0.97899997 150 16 0
1.918 0.199 0.98299998 150 16 0
1.913 0.198 0.986 150 16 0
1.909 0.198 0.99000001 150 16 0
1.9 0.19599999 0.99199998 150 16 0
1.8940001 0.19499999 0.995 150 16 0
1.888 0.19400001 0.99800003 150 16 0
1.875 0.192 0.99699998 150 16 0
1.8710001 0.191 1.001 150 16 0
1.8609999 0.19 1.002 150 16 0
1.857 0.189 1.005 150 16 0
1.85 0.18799999 1.008 150 16 0
1.845 0.186 1.01 150 16 0
1.84 0.185 1.013 150 16 0
1.836 0.184 1.017 150 16 0
1.827 0.183 1.018 150 16 0
1.824 0.182 1.021 150 16 0
1.8150001 0.18000001 1.022 150 16 0
1.813 0.17900001 1.027 150 16 0
1.8049999 0.177 1.027 150 16 0
1.801 0.176 1.03 150 16 0
1.793 0.17399999 1.031 150 16 0
1.789 0.17299999 1.035 150 16 0
1.7690001 0.17 1.028 150 18 0
1.767 0.169 1.0319999 150 16 0
1.763 0.168 1.035 150 16 0
1.761 0.167 1.039 150 16 0
1.7539999 0.16500001 1.04 150 16 0
1.751 0.163 1.043 150 16 0
1.749 0.162 1.0470001 150 16 0
1.7460001 0.161 1.05 150 16 0
1.7410001 0.15899999 1.052 150 16 0
1.733 0.15700001 1.052 150 16 0
1.7309999 0.156 1.0549999 150 16 0
1.728 0.154 1.058 150 16 0
1.725 0.153 1.061 150 16 0
1.719 0.15099999 1.062 150 16 0
1.715 0.149 1.064 150 16 0
1.7079999 0.147 1.064 150 16 0
1.702 0.146 1.0650001 150 16 0
1.701 0.14399999 1.069 150 16 0
1.697 0.142 1.0700001 150 16 0
1.6900001 0.14 1.0700001 150 16 0
1.688 0.139 1.072 150 16 0
1.683 0.13699999 1.074 150 16 0
1.682 0.13500001 1.077 150 16 0
1.674 0.133 1.076 150 16 0
1.671 0.131 1.0779999 150 16 0
1.67 0.12899999 1.081 150 16 0
1.668 0.12800001 1.084 150 16 0
1.665 0.126 1.085 150 16 0
1.6619999 0.124 1.087 150 16 0
1.659 0.122 1.089 150 16 0
1.6569999 0.12 1.09 150 16 0
1.656 0.118 1.0930001 150 16 0
1.655 0.116 1.096 150 16 0
1.64 0.114 1.089 150 18 0
1.64 0.112 1.092 150 16 0
1.638 0.11 1.094 150 16 0
1.637 0.108 1.096 150 16 0
1.632 0.106 1.096 150 16 0
1.627 0.104 1.096 150 16 0
1.625 0.102 1.097 150 16 0
1.624 0.1 1.099 150 16 0
1.6210001 0.097999997 1.1 150 16 0
1.622 0.096000001 1.103 150 16 0
1.617 0.093000002 1.102 150 16 0
1.618 0.092 1.105 150 16 0
1.615 0.089000002 1.105 150 16 0
1.615 0.086999997 1.107 150 16 0
1.607 0.085000001 1.104 150 19 0
1.6059999 0.082999997 1.105 150 16 0
1.605 0.081 1.107 150 16 0
1.603 0.079000004 1.108 150 16 0
1.603 0.077 1.109 150 16 0
1.603 0.074000001 1.1109999 150 16 0
1.601 0.071999997 1.1109999 150 16 0
1.6 0.07 1.112 150 16 0
1.597 0.068000004 1.1109999 150 16 0
1.598 0.066 1.114 150 16 0
1.592 0.063000001 1.1109999 150 19 0
1.595 0.061000001 1.114 150 16 0
1.594 0.059 1.115 150 16 0
1.594 0.057 1.115 150 16 0
1.594 0.055 1.1160001 150 16 0
1.589 0.052000001 1.114 150 16 0
1.59 0.050000001 1.115 150 16 0
1.5930001 0.048 1.118 150 16 0
1.592 0.046 1.118 150 16 0
1.591 0.043000001 1.117 150 16 0
1.591 0.041000001 1.118 150 16 0
1.5880001 0.039000001 1.1160001 150 16 0
1.5880001 0.037 1.1160001 150 16 0
1.5880001 0.034000002 1.117 150 16 0
1.587 0.032000002 1.1160001 150 16 0
1.59 0.029999999 1.118 150 16 0
1.59 0.028000001 1.118 150 16 0
1.591 0.026000001 1.119 150 16 0
1.592 0.023 1.119 150 16 0
1.5930001 0.021 1.12 150 16 0
1.59 0.018999999 1.117 150 16 0
1.59 0.017000001 1.117 150 16 0
1.594 0.014 1.119 150 16 0
1.596 0.012 1.119 150 16 0
1.591 0.0099999998 1.115 150 16 0
1.594 0.0070000002 1.1160001 150 16 0
1.597 0.0049999999 1.118 150 16 0
1.598 0.003 1.117 150 16 0
1.598 0.001 1.1160001 150 16 0
1.599 0 1.115 150 16 0
1.602 -0.003 1.1160001 150 16 0
1.603 -0.0049999999 1.115 150 16 0
1.603 -0.0070000002 1.114 150 16 0
1.603 -0.0089999996 1.112 150 16 0
1.6059999 -0.012 1.112 150 16 0
1.604 -0.014 1.11 150 16 0
1.6059999 -0.016000001 1.109 150 16 0
1.609 -0.017999999 1.109 150 16 0
1.608 -0.02 1.107 150 16 0
1.61 -0.022 1.1059999 150 16 0
1.614 -0.025 1.107 150 16 0
1.618 -0.027000001 1.107 150 16 0
1.6160001 -0.028999999 1.104 150 16 0
1.6210001 -0.030999999 1.104 150 16 0
1.622 -0.033 1.102 150 16 0
1.625 -0.035 1.102 150 16 0
1.628 -0.037 1.102 150 16 0
1.627 -0.039000001 1.098 150 16 0
1.628 -0.041000001 1.096 150 16 0
1.635 -0.044 1.098 150 16 0
1.6390001 -0.046 1.098 150 16 0
1.6390001 -0.048 1.094 150 16 0
1.642 -0.050000001 1.0930001 150 16 0
1.645 -0.052000001 1.092 150 16 0
1.651 -0.054000001 1.0930001 150 16 0
1.659 -0.056000002 1.095 150 16 0
1.66 -0.057999998 1.092 150 16 0
1.6619999 -0.059999999 1.09 150 16 0
1.665 -0.061999999 1.089 150 16 0
1.6670001 -0.064000003 1.087 150 16 0
1.668 -0.066 1.0829999 150 16 0
1.671 -0.068000004 1.081 150 16 0
1.674 -0.07 1.08 150 16 0
1.6799999 -0.071999997 1.08 150 16 0
1.6849999 -0.074000001 1.079 150 16 0
1.689 -0.075999998 1.0779999 150 16 0
1.689 -0.077 1.074 150 16 0
1.696 -0.079000004 1.073 150 16 0
1.7 -0.081 1.072 150 16 0
1.7029999 -0.082999997 1.0700001 150 16 0
1.7079999 -0.085000001 1.068 150 16 0
1.709 -0.086000003 1.0650001 150 16 0
1.719 -0.088 1.066 150 16 0
1.726 -0.090000004 1.066 150 16 0
1.728 -0.092 1.063 150 16 0
1.7309999 -0.093999997 1.0599999 150 16 0
1.734 -0.094999999 1.057 150 16 0
1.74 -0.097000003 1.056 150 16 0
1.744 -0.098999999 1.054 150 16 0
1.75 -0.1 1.052 150 16 0
1.75 -0.102 1.048 150 16 0
1.7539999 -0.104 1.045 150 16 0
1.758 -0.105 1.0420001 150 16 0
1.763 -0.107 1.04 150 16 0
1.766 -0.108 1.0369999 150 16 0
1.783 -0.11 1.0420001 150 19 0
1.789 -0.112 1.04 150 16 0
1.791 -0.113 1.036 150 16 0
1.798 -0.115 1.034 150 16 0
1.802 -0.116 1.031 150 16 0
1.806 -0.118 1.028 150 16 0
1.817 -0.12 1.029 150 16 0
1.8200001 -0.121 1.025 150 16 0
1.826 -0.122 1.023 150 16 0
1.8329999 -0.124 1.021 150 16 0
1.84 -0.125 1.0190001 150 16 0
1.8430001 -0.127 1.015 150 16 0
1.852 -0.12800001 1.0140001 150 16 0
1.859 -0.12899999 1.012 150 16 0
1.863 -0.131 1.008 150 16 0
1.8710001 -0.132 1.007 150 16 0
1.877 -0.133 1.0039999 150 16 0
1.885 -0.13500001 1.002 150 16 0
1.8940001 -0.13600001 1.001 150 16 0
1.9 -0.13699999 0.99800003 150 16 0
1.903 -0.138 0.99400002 150 16 0
1.91 -0.14 0.991 150 16 0
1.9170001 -0.141 0.98799998 150 16 0
1.925 -0.142 0.986 150 16 0
1.931 -0.14300001 0.98299998 150 16 0
1.9400001 -0.14399999 0.98100001 150 16 0
1.947 -0.145 0.97799999 150 16 0
1.951 -0.146 0.97399998 150 16 0
1.956 -0.147 0.97000003 150 16 0
1.966 -0.149 0.96799999 150 16 0
1.974 -0.15000001 0.96499997 150 16 0
1.984 -0.15099999 0.96399999 150 16 0
1.989 -0.152 0.95999998 150 16 0
1.994 -0.152 0.95499998 150 16 0
1.999 -0.153 0.95099998 150 16 0
2.0139999 -0.155 0.95099998 150 16 0
2.029 -0.156 0.95200002 150 16 0
2.0309999 -0.15700001 0.94599998 150 16 0
2.0350001 -0.15700001 0.94099998 144 16 0
2.046 -0.15800001 0.93900001 149 16 0
2.0539999 -0.15899999 0.93599999 142 16 0
2.062 -0.16 0.93199998 150 16 0
2.0639999 -0.16 0.926 141 16 0
2.073 -0.161 0.92299998 149 16 0
2.085 -0.162 0.92199999 144 16 0
2.0899999 -0.162 0.917 138 16 0
2.0969999 -0.163 0.912 140 16 0
2.108 -0.164 0.91000003 141 16 0
2.1170001 -0.16500001 0.90700001 145 16 0
2.122 -0.16500001 0.90200001 134 16 0
2.1340001 -0.16599999 0.89899999 144 16 0
2.141 -0.16599999 0.89499998 136 16 0
2.1500001 -0.167 0.89200002 142 16 0
2.152 -0.167 0.88599998 129 16 0
2.165 -0.168 0.88300002 138 16 0
2.1700001 -0.168 0.87800002 137 16 0
2.1819999 -0.169 0.87599999 134 16 0
2.1989999 -0.17 0.875 143 16 0
2.198 -0.169 0.86699998 125 16 0
2.2130001 -0.17 0.86500001 139 16 0
2.223 -0.17 0.86199999 129 16 0
2.2309999 -0.171 0.85699999 118 16 0
2.234 -0.171 0.85000002 119 16 0
2.2520001 -0.17200001 0.85000002 137 16 0
2.2579999 -0.17200001 0.84500003 140 16 0
2.2690001 -0.17200001 0.84100002 127 16 0
2.276 -0.17200001 0.83499998 114 16 0
2.29 -0.17200001 0.833 108 16 0
2.2950001 -0.17200001 0.82700002 102 16 0
2.3039999 -0.17200001 0.82200003 98 16 0
2.3199999 -0.17299999 0.81999999 70 16 0
2.325 -0.17299999 0.81400001 56 16 0
2.3410001 -0.17299999 0.81099999 65 16 0
2.348 -0.17299999 0.80599999 70 16 0
2.3599999 -0.17299999 0.80199999 66 16 0
2.368 -0.17299999 0.79699999 66 16 0
2.3770001 -0.17299999 0.792 66 16 0
2.3859999 -0.17299999 0.787 65 16 0
2.3989999 -0.17299999 0.78299999 67 16 0
2.4059999 -0.17299999 0.77700001 62 16 0
2.4189999 -0.17299999 0.773 66 16 0
2.427 -0.17200001 0.76800001 53 16 0
2.437 -0.17200001 0.76200002 62 16 0
2.448 -0.17200001 0.75800002 57 16 0
2.4549999 -0.171 0.75199997 54 16 0
2.471 -0.17200001 0.74800003 67 16 0
2.483 -0.171 0.74400002 63 16 0
2.4920001 -0.171 0.73799998 56 16 0
2.5020001 -0.171 0.73199999 57 16 0
2.51 -0.17 0.72600001 59 16 0
2.5250001 -0.17 0.722 51 16 0
2.5339999 -0.169 0.71600002 57 16 0
2.549 -0.169 0.71200001 59 16 0
2.5599999 -0.169 0.70700002 52 16 0
2.573 -0.168 0.70200002 54 16 0
2.5810001 -0.168 0.69499999 50 16 0
2.595 -0.167 0.69 53 16 0
2.6110001 -0.167 0.68599999 63 16 0
2.618 -0.16599999 0.67900002 35 16 0
2.631 -0.16500001 0.67400002 29 16 0
2.6489999 -0.16500001 0.67000002 29 16 0
2.6600001 -0.164 0.66399997 33 16 0
2.6719999 -0.164 0.65799999 36 16 0
2.684 -0.163 0.65200001 35 16 0
2.6960001 -0.162 0.64600003 36 16 0
2.711 -0.161 0.64099997 36 16 0
2.723 -0.161 0.634 35 16 0
2.734 -0.16 0.62800002 37 16 0
2.7520001 -0.15899999 0.62300003 37 16 0
2.767 -0.15800001 0.61699998 36 16 0
2.7780001 -0.15700001 0.611 36 16 0
2.793 -0.156 0.60500002 35 16 0
2.8050001 -0.155 0.59799999 35 16 0
2.8169999 -0.154 0.59200001 35 16 0
2.8329999 -0.153 0.58600003 35 16 0
2.846 -0.152 0.579 35 16 0
2.8559999 -0.15099999 0.57200003 30 16 0
2.8789999 -0.15000001 0.56699997 31 16 0
2.8889999 -0.149 0.56 29 16 0
2.9070001 -0.148 0.55400002 29 16 0
2.9230001 -0.147 0.54699999 28 16 0
2.934 -0.145 0.54000002 28 16 0
2.944 -0.14399999 0.53200001 29 16 0
2.9649999 -0.14300001 0.52700001 29 16 0
2.9790001 -0.141 0.51999998 30 16 0
2.994 -0.14 0.51200002 30 16 0
3.0079999 -0.139 0.505 30 16 0
3.026 -0.13699999 0.498 29 16 0
3.0420001 -0.13600001 0.491 29 16 0
3.059 -0.134 0.484 29 16 0
3.0769999 -0.133 0.477 29 16 0
3.0899999 -0.131 0.46900001 28 16 0
3.1140001 -0.13 0.463 31 16 0
3.1340001 -0.12800001 0.456 31 16 0
3.145 -0.126 0.44800001 30 16 0
3.165 -0.125 0.44 30 16 0
3.1900001 -0.123 0.43399999 32 16 0
3.2 -0.121 0.42500001 32 16 0
3.2190001 -0.119 0.417 28 16 0
3.2379999 -0.117 0.40900001 29 16 0
3.257 -0.116 0.40099999 28 16 0
3.2750001 -0.114 0.39300001 29 16 0
3.2920001 -0.112 0.38499999 29 16 0
3.313 -0.11 0.377 33 16 0
3.3210001 -0.107 0.36700001 35 16 0
3.3299999 -0.105 0.35800001 28 16 0
3.3369999 -0.102 0.34799999 24 16 0
3.3380001 -0.098999999 0.33700001 24 16 0
3.339 -0.097000003 0.32699999 23 16 0
3.3399999 -0.093999997 0.317 24 16 0
3.3469999 -0.090999998 0.30700001 24 16 0
3.3440001 -0.088 0.296 24 16 0
3.3469999 -0.086000003 0.28600001 24 16 0
3.3510001 -0.082999997 0.27500001 24 16 0
3.352 -0.079999998 0.26499999 24 16 0
3.352 -0.077 0.255 24 16 0
3.365 -0.074000001 0.245 25 16 0
3.3670001 -0.071000002 0.235 31 16 0
3.3629999 -0.068000004 0.22400001 42 16 0
3.3599999 -0.064999998 0.213 58 16 0
3.3610001 -0.061999999 0.20299999 111 16 0
3.349 -0.059 0.192 106 16 0
3.342 -0.056000002 0.18099999 92 16 0
3.3380001 -0.052999999 0.17 77 16 0
3.3269999 -0.048999999 0.15899999 86 16 0
3.3210001 -0.046 0.149 77 16 0
3.3199999 -0.043000001 0.138 77 16 0
3.3039999 -0.039999999 0.127 65 16 0
3.3039999 -0.037 0.117 68 16 0
3.2980001 -0.033 0.107 65 16 0
3.29 -0.029999999 0.096000001 81 16 0
3.2820001 -0.027000001 0.086000003 96 16 0
3.2820001 -0.024 0.075999998 93 16 0
3.2750001 -0.021 0.064999998 50 16 0
3.2679999 -0.017000001 0.055 33 16 0
3.2650001 -0.014 0.045000002 23 16 0
3.267 -0.011 0.035 17 16 0
3.276 -0.0080000004 0.025 15 16 0
3.2809999 -0.0040000002 0.015 16 16 0
3.2809999 -0.001 0.0049999999 16 16 0
3.2809999 0.001 -0.0040000002 16 16 0
3.2869999 0.0040000002 -0.015 16 16 0
3.286 0.0080000004 -0.025 16 16 0
3.2869999 0.011 -0.035 16 16 0
3.296 0.015 -0.045000002 17 16 0
3.3010001 0.017999999 -0.055 20 16 0
3.302 0.021 -0.064999998 27 16 0
3.3010001 0.025 -0.075000003 37 16 0
3.2909999 0.028000001 -0.085000001 43 16 0
3.2839999 0.032000002 -0.094999999 48 16 0
3.277 0.035 -0.105 48 16 0
3.27 0.037999999 -0.115 50 16 0
3.2639999 0.041999999 -0.124 49 16 0
3.256 0.045000002 -0.134 40 16 0
3.2509999 0.048999999 -0.14399999 37 16 0
3.2479999 0.052000001 -0.154 34 16 0
3.244 0.056000002 -0.163 38 16 0
3.2379999 0.059 -0.17299999 43 16 0
3.2279999 0.061999999 -0.182 50 16 0
3.2279999 0.066 -0.192 53 16 0
3.214 0.068999998 -0.20100001 48 16 0
3.2130001 0.072999999 -0.211 50 16 0
3.207 0.075999998 -0.22 49 16 0
3.2 0.079999998 -0.229 49 16 0
3.1930001 0.082999997 -0.23899999 48 16 0
3.1889999 0.086999997 -0.248 49 16 0
3.1789999 0.090000004 -0.257 47 16 0
3.171 0.093999997 -0.266 65 16 0
3.1659999 0.097000003 -0.27500001 51 16 0
3.161 0.101 -0.28400001 88 16 0
3.1559999 0.104 -0.29300001 88 16 0
3.151 0.108 -0.303 85 16 0
3.141 0.111 -0.31099999 64 16 0
3.1389999 0.115 -0.32100001 67 16 0
3.1300001 0.118 -0.329 73 16 0
3.1210001 0.122 -0.338 76 16 0
3.1199999 0.125 -0.347 75 16 0
3.1110001 0.12899999 -0.35499999 76 16 0
3.105 0.132 -0.36399999 82 16 0
3.102 0.13600001 -0.373 74 16 0
3.0999999 0.14 -0.382 85 16 0
3.089 0.14300001 -0.38999999 85 16 0
3.0840001 0.147 -0.39899999 84 16 0
3.0780001 0.15000001 -0.40799999 103 16 0
3.0710001 0.154 -0.41600001 85 16 0
3.063 0.15700001 -0.42399999 89 16 0
3.062 0.161 -0.433 88 16 0
3.0510001 0.16500001 -0.44100001 88 16 0
3.049 0.168 -0.44999999 85 16 0
3.0409999 0.17200001 -0.458 87 16 0
3.0369999 0.176 -0.46599999 88 16 0
3.0309999 0.17900001 -0.47499999 85 16 0
3.0280001 0.183 -0.48300001 92 16 0
3.0179999 0.186 -0.491 87 16 0
3.0139999 0.19 -0.49900001 81 16 0
3.007 0.19400001 -0.50700003 90 16 0
3.003 0.197 -0.51599997 73 16 0
3 0.20100001 -0.52399999 75 16 0
2.993 0.205 -0.53200001 76 16 0
2.9879999 0.208 -0.54000002 77 16 0
2.983 0.212 -0.54799998 82 16 0
2.9790001 0.21600001 -0.55599999 87 16 0
2.9660001 0.219 -0.56300002 89 16 0
2.967 0.223 -0.57200003 88 16 0
2.96 0.227 -0.579 91 16 0
2.9519999 0.23100001 -0.58700001 87 16 0
2.947 0.234 -0.59500003 81 16 0
2.9430001 0.23800001 -0.60299999 91 16 0
2.9389999 0.242 -0.611 96 16 0
2.937 0.24600001 -0.61900002 85 16 0
2.924 0.249 -0.625 103 16 0
2.9219999 0.25299999 -0.63300002 92 16 0
2.918 0.257 -0.64099997 106 16 0
2.914 0.26100001 -0.64899999 131 16 0
2.905 0.26499999 -0.65600002 129 16 0
2.8940001 0.26800001 -0.662 127 16 0
2.8859999 0.27200001 -0.66900003 133 16 0
2.881 0.27500001 -0.676 114 16 0
2.8789999 0.28 -0.68400002 109 16 0
2.8699999 0.28299999 -0.69099998 117 16 0
2.869 0.287 -0.699 116 16 0
2.8629999 0.29100001 -0.70599997 124 16 0
2.8570001 0.29499999 -0.713 139 16 0
2.8540001 0.29899999 -0.72100002 122 16 0
2.8510001 0.303 -0.72899997 137 16 0
2.8440001 0.30700001 -0.73500001 132 16 0
2.8369999 0.31099999 -0.74199998 122 16 0
2.8340001 0.315 -0.75 127 16 0
2.825 0.31799999 -0.75599998 113 16 0
2.8180001 0.322 -0.76200002 122 16 0
2.816 0.32600001 -0.76999998 132 16 0
2.813 0.33000001 -0.778 143 16 0
2.8069999 0.33399999 -0.78399998 127 16 0
2.8 0.338 -0.79100001 137 16 0
2.796 0.34200001 -0.79699999 146 16 0
2.7920001 0.34599999 -0.80500001 138 16 0
2.7869999 0.34999999 -0.81199998 129 16 0
2.783 0.354 -0.81800002 134 16 0
2.7750001 0.35800001 -0.824 135 16 0
2.773 0.36199999 -0.83200002 140 16 0
2.766 0.366 -0.838 150 16 0
2.766 0.37099999 -0.84600002 150 16 0
2.756 0.37400001 -0.85100001 150 16 0
2.753 0.37900001 -0.85799998 150 16 0
2.747 0.38299999 -0.86400002 150 16 0
2.7449999 0.38699999 -0.87199998 150 16 0
2.7420001 0.39199999 -0.87900001 150 16 0
2.7290001 0.39500001 -0.88300002 150 16 0
2.724 0.39899999 -0.889 150 16 0
2.7190001 0.403 -0.89499998 150 16 0
2.711 0.40599999 -0.89999998 150 16 0
2.7079999 0.41100001 -0.90700001 150 16 0
2.7049999 0.41499999 -0.91399997 150 16 0
2.7019999 0.41999999 -0.921 150 16 0
2.697 0.42399999 -0.92699999 150 16 0
2.6960001 0.42899999 -0.93400002 150 16 0
2.6889999 0.433 -0.94 140 16 0
2.684 0.43700001 -0.94599998 25 16 0
2.687 0.442 -0.954 4 16 0
0 0 0 0 16 0
0 0 0 0 16 0
0 0 0 0 16 0
0 0 0 0 16 0
0 0 0 0 16 0
0 0 0 0 16 0
0 0 0 0 16 0
0 0 0 0 16 0
0 0 0 0 16 0
0 0 0 0 16 0
0 0 0 0 16 0
2.609 0.49000001 -1.015 0 16 0
2.6210001 0.49700001 -1.026 14 16 0
2.6099999 0.5 -1.029 58 16 0
2.6059999 0.505 -1.035 150 16 0
2.5969999 0.50800002 -1.038 150 16 0
2.595 0.51300001 -1.045 150 16 0
2.5880001 0.51700002 -1.049 150 16 0
2.585 0.52200001 -1.0549999 150 16 0
2.5810001 0.52600002 -1.0599999 150 16 0
2.5780001 0.53100002 -1.0650001 150 16 0
2.575 0.53600001 -1.071 150 16 0
2.569 0.54000002 -1.076 150 16 0
2.562 0.54400003 -1.079 150 16 0
2.5580001 0.54799998 -1.085 150 16 0
2.553 0.55199999 -1.089 150 16 0
2.552 0.55800003 -1.095 150 16 0
2.5469999 0.56199998 -1.1 150 16 0
2.539 0.56599998 -1.103 150 16 0
2.539 0.57099998 -1.109 150 16 0
2.529 0.574 -1.1109999 150 16 0
2.5250001 0.579 -1.1160001 150 16 0
2.52 0.583 -1.12 150 16 0
2.5150001 0.58700001 -1.125 150 16 0
2.5150001 0.59299999 -1.131 150 16 0
2.5079999 0.597 -1.1339999 150 16 0
2.506 0.602 -1.1390001 150 16 0
2.503 0.60600001 -1.1440001 150 16 0
2.4979999 0.611 -1.148 150 16 0
2.494 0.61500001 -1.152 150 16 0
2.4909999 0.62 -1.156 150 16 0
2.4820001 0.62300003 -1.158 150 16 0
2.484 0.62900001 -1.165 150 16 0
2.4790001 0.634 -1.169 150 16 0
2.473 0.63700002 -1.171 150 16 0
2.4690001 0.64200002 -1.175 150 16 0
2.4649999 0.64700001 -1.179 150 16 0
2.4630001 0.65200001 -1.184 150 16 0
2.457 0.65600002 -1.186 150 16 0
2.454 0.66000003 -1.1900001 150 16 0
2.451 0.66500002 -1.194 150 16 0
2.4460001 0.66900003 -1.197 150 16 0
2.4449999 0.67400002 -1.202 150 16 0
2.437 0.67799997 -1.2029999 150 16 0
2.4300001 0.68199998 -1.205 150 16 0
2.427 0.68599999 -1.2079999 150 16 0
2.425 0.69099998 -1.2130001 150 16 0
2.4200001 0.69599998 -1.215 150 16 0
2.4219999 0.70099998 -1.221 150 16 0
2.4159999 0.70499998 -1.223 150 16 0
2.411 0.70899999 -1.225 150 16 0
2.401 0.71200001 -1.224 150 16 0
2.398 0.71600002 -1.227 150 16 0
2.395 0.72100002 -1.23 150 16 0
2.392 0.72600001 -1.233 150 16 0
2.3889999 0.73000002 -1.2359999 150 16 0
2.3840001 0.73400003 -1.238 150 16 0
2.3829999 0.73900002 -1.242 150 16 0
2.3800001 0.74400002 -1.244 150 16 0
2.3759999 0.74800003 -1.2460001 150 16 0
2.3729999 0.75300002 -1.249 150 16 0
2.368 0.75599998 -1.25 150 16 0
2.365 0.76099998 -1.252 150 16 0
2.362 0.76499999 -1.255 150 16 0
2.359 0.76999998 -1.257 150 16 0
2.3559999 0.77399999 -1.2589999 150 16 0
2.3540001 0.77899998 -1.261 150 16 0
2.352 0.78299999 -1.263 150 16 0
2.348 0.787 -1.265 150 16 0
2.346 0.792 -1.267 150 16 0
2.3440001 0.79699999 -1.2690001 150 16 0
2.3410001 0.801 -1.27 150 16 0
2.336 0.80400002 -1.271 150 16 0
2.3340001 0.80900002 -1.273 150 16 0
2.329 0.81199998 -1.273 150 16 0
2.329 0.81699997 -1.275 150 16 0
2.3269999 0.82099998 -1.277 150 16 0
2.322 0.82499999 -1.277 150 16 0
2.323 0.82999998 -1.28 150 16 0
2.3180001 0.833 -1.279 150 16 0
2.316 0.83700001 -1.28 150 16 0
2.313 0.84100002 -1.281 150 16 0
2.3139999 0.84600002 -1.284 150 16 0
2.309 0.84899998 -1.283 150 16 0
2.3069999 0.85399997 -1.284 150 16 0
2.306 0.85799998 -1.285 150 16 0
2.3 0.86000001 -1.284 150 16 0
2.302 0.866 -1.286 150 16 0
2.3 0.87 -1.286 150 16 0
2.2950001 0.87199998 -1.285 150 16 0
2.293 0.87599999 -1.285 150 16 0
2.293 0.88 -1.286 150 16 0
2.29 0.884 -1.286 150 16 0
2.2880001 0.88700002 -1.286 150 16 0
2.289 0.89200002 -1.2869999 150 16 0
2.283 0.89399999 -1.285 150 16 0
2.2850001 0.89899999 -1.286 150 16 0
2.2820001 0.90200001 -1.285 150 16 0
2.2809999 0.90600002 -1.285 150 16 0
2.28 0.90899998 -1.285 150 16 0
2.28 0.91399997 -1.285 150 16 0
2.277 0.917 -1.284 150 16 0
2.2720001 0.91799998 -1.281 150 16 0
2.2720001 0.92199999 -1.281 150 16 0
2.27 0.92500001 -1.28 150 16 0
2.27 0.92900002 -1.279 150 16 0
2.2679999 0.93199998 -1.278 150 16 0
2.267 0.935 -1.277 150 16 0
2.267 0.93800002 -1.276 150 16 0
2.2650001 0.94099998 -1.275 150 16 0
2.266 0.94499999 -1.275 120 16 0
2.28 0.954 -1.2819999 150 18 0
2.283 0.95899999 -1.2819999 150 16 0
2.286 0.963 -1.283 150 16 0
2.28 0.96399999 -1.278 150 16 0
2.2750001 0.96499997 -1.274 150 16 0
2.2620001 0.96200001 -1.265 150 16 0
2.26 0.96399999 -1.263 150 16 0
2.26 0.96700001 -1.262 150 16 0
2.2590001 0.96899998 -1.2589999 150 16 0
2.2590001 0.972 -1.258 150 16 0
2.2590001 0.97500002 -1.256 150 16 0
2.26 0.977 -1.2539999 150 16 0
2.2590001 0.98000002 -1.252 150 16 0
2.2579999 0.98100001 -1.249 150 16 0
2.2590001 0.98400003 -1.247 150 16 0
2.257 0.986 -1.244 150 16 0
2.2609999 0.98900002 -1.243 150 16 0
2.2609999 0.991 -1.2410001 150 16 0
2.2579999 0.99199998 -1.237 150 16 0
2.2590001 0.995 -1.235 150 16 0
2.257 0.995 -1.23 150 16 0
2.2609999 0.99900001 -1.229 150 16 0
2.2609999 1.001 -1.227 150 16 0
2.2609999 1.002 -1.224 150 16 0
2.2620001 1.0039999 -1.221 150 16 0
2.2620001 1.006 -1.2180001 150 16 0
2.263 1.007 -1.215 150 16 0
2.2639999 1.0089999 -1.212 150 16 0
2.2620001 1.0089999 -1.207 150 16 0
2.26 1.0089999 -1.2029999 150 16 0
2.2609999 1.011 -1.2 150 16 0
2.263 1.012 -1.197 150 16 0
2.2639999 1.013 -1.193 150 16 0
2.266 1.015 -1.1900001 150 16 0
2.2639999 1.015 -1.1849999 150 16 0
2.266 1.016 -1.182 150 16 0
2.27 1.0190001 -1.1799999 150 16 0
2.2709999 1.0190001 -1.176 150 16 0
2.2720001 1.02 -1.173 150 16 0
2.2720001 1.02 -1.168 150 16 0
2.2750001 1.022 -1.165 150 16 0
2.277 1.023 -1.1619999 150 16 0
2.2820001 1.025 -1.16 150 16 0
2.279 1.023 -1.153 150 16 0
2.276 1.022 -1.147 150 16 0
2.2839999 1.025 -1.146 150 16 0
2.2839999 1.025 -1.141 150 16 0
2.2839999 1.024 -1.137 150 16 0
2.2880001 1.025 -1.133 150 16 0
2.2909999 1.026 -1.13 150 16 0
2.2920001 1.026 -1.125 150 16 0
2.29 1.024 -1.119 150 16 0
2.296 1.026 -1.117 150 16 0
2.2950001 1.024 -1.1109999 150 16 0
2.2969999 1.024 -1.1059999 150 16 0
2.2969999 1.023 -1.101 150 16 0
2.3010001 1.024 -1.098 150 16 0
2.303 1.023 -1.0930001 150 16 0
2.3039999 1.022 -1.0880001 150 16 0
2.3080001 1.022 -1.084 150 16 0
2.3110001 1.022 -1.08 150 16 0
2.313 1.022 -1.075 150 16 0
2.313 1.02 -1.069 150 16 0
2.3180001 1.02 -1.066 150 16 0
2.323 1.021 -1.062 150 16 0
2.323 1.0190001 -1.056 150 16 0
2.3269999 1.018 -1.052 150 16 0
2.3310001 1.018 -1.048 150 16 0
2.3299999 1.016 -1.0420001 150 16 0
2.3299999 1.013 -1.036 150 16 0
2.339 1.015 -1.034 150 16 0
2.3380001 1.012 -1.027 150 16 0
2.3429999 1.012 -1.023 150 16 0
2.3469999 1.011 -1.0190001 150 16 0
2.3499999 1.01 -1.0140001 150 16 0
2.3529999 1.008 -1.0089999 150 16 0
2.3559999 1.007 -1.003 150 16 0
2.358 1.005 -0.99900001 150 16 0
2.3599999 1.003 -0.99299997 150 16 0
2.3640001 1.002 -0.98799998 150 16 0
2.365 0.99900001 -0.98199999 150 16 0
2.3670001 0.99699998 -0.97600001 150 16 0
2.3729999 0.99599999 -0.97299999 150 16 0
2.378 0.995 -0.96799999 150 16 0
2.381 0.99299997 -0.963 150 16 0
2.382 0.99000001 -0.95700002 150 16 0
2.3889999 0.99000001 -0.95300001 150 16 0
2.3940001 0.98799998 -0.949 150 16 0
2.3970001 0.986 -0.94300002 150 16 0
2.4000001 0.98400003 -0.93800002 150 16 0
2.4030001 0.98100001 -0.93300003 150 16 0
2.4089999 0.98000002 -0.92799997 150 16 0
2.4089999 0.97600001 -0.92199999 150 16 0
2.414 0.97399998 -0.917 150 16 0
2.4159999 0.97100002 -0.91100001 150 16 0
2.427 0.972 -0.90799999 150 16 0
2.441 0.97299999 -0.90700001 151 16 0
2.4489999 0.972 -0.903 151 16 0
2.46 0.97299999 -0.90100002 152 16 0
2.4590001 0.96799999 -0.89300001 151 16 0
2.4549999 0.96200001 -0.88499999 150 16 0
2.448 0.95499998 -0.87599999 150 16 0
2.4489999 0.95099998 -0.87 150 16 0
2.4519999 0.94800001 -0.86400002 150 16 0
2.4549999 0.94499999 -0.85799998 150 16 0
2.4579999 0.94199997 -0.85299999 150 16 0
2.467 0.94 -0.84899998 150 16 0
2.47 0.93699998 -0.84299999 150 16 0
2.473 0.93400002 -0.838 150 16 0
2.477 0.93000001 -0.83200002 150 16 0
2.48 0.92699999 -0.82599998 150 16 0
2.4820001 0.92299998 -0.81999999 150 16 0
2.4860001 0.91900003 -0.815 150 16 0
2.493 0.917 -0.81 150 16 0
2.4960001 0.91299999 -0.80500001 150 16 0
2.5 0.91000003 -0.79900002 150 16 0
2.5039999 0.90600002 -0.79400003 150 16 0
2.507 0.90200001 -0.78799999 150 16 0
2.5139999 0.89999998 -0.78399998 150 16 0
2.517 0.89499998 -0.778 150 16 0
2.5239999 0.89300001 -0.773 150 16 0
2.5239999 0.88800001 -0.76599997 150 16 0
2.53 0.884 -0.76099998 150 16 0
2.533 0.88 -0.75599998 150 16 0
2.54 0.87699997 -0.75099999 150 16 0
2.5450001 0.87400001 -0.74599999 150 16 0
2.5480001 0.86900002 -0.74000001 150 16 0
2.5510001 0.86500001 -0.73400003 150 16 0
2.556 0.861 -0.72899997 150 16 0
2.5599999 0.85699999 -0.72299999 150 16 0
2.5650001 0.85299999 -0.71799999 150 16 0
2.5680001 0.84799999 -0.71200001 150 16 0
2.572 0.84399998 -0.70599997 150 16 0
2.575 0.83899999 -0.69999999 150 16 0
2.579 0.83499998 -0.69499999 150 16 0
2.582 0.82999998 -0.68900001 150 16 0
2.585 0.82499999 -0.68300003 150 16 0
2.5999999 0.824 -0.68099999 150 16 0
2.5910001 0.815 -0.67199999 150 16 0
2.6059999 0.81400001 -0.66900003 150 16 0
2.6159999 0.81099999 -0.66500002 150 16 0
2.619 0.80599999 -0.65899998 150 16 0
2.622 0.801 -0.653 150 16 0
2.625 0.796 -0.64700001 150 16 0
2.628 0.79100001 -0.64099997 150 16 0
2.6370001 0.787 -0.63700002 150 16 0
2.6400001 0.78200001 -0.63099998 150 16 0
2.642 0.77700001 -0.625 150 16 0
2.6489999 0.773 -0.62 150 16 0
2.6570001 0.76899999 -0.61500001 150 16 0
2.658 0.76300001 -0.60900003 150 16 0
2.6700001 0.75999999 -0.60500002 150 16 0
2.675 0.755 -0.60000002 150 16 0
2.678 0.74900001 -0.59399998 150 16 0
2.681 0.74400002 -0.588 150 16 0
2.6830001 0.73799998 -0.58200002 150 16 0
2.694 0.73500001 -0.57800001 150 16 0
2.698 0.72899997 -0.57200003 150 16 0
2.7030001 0.72399998 -0.56699997 150 16 0
2.7049999 0.71799999 -0.56099999 150 16 0
2.7090001 0.713 -0.55500001 150 16 0
2.717 0.708 -0.55000001 150 16 0
2.7219999 0.70300001 -0.54500002 150 16 0
2.7249999 0.69700003 -0.53899997 150 16 0
2.7309999 0.69199997 -0.53399998 150 16 0
2.7349999 0.68599999 -0.528 150 16 0
2.74 0.68099999 -0.523 150 16 0
2.7460001 0.67500001 -0.51700002 150 16 0
2.7490001 0.67000002 -0.51200002 150 16 0
2.756 0.66399997 -0.50700003 150 16 0
2.76 0.65899998 -0.50099999 150 16 0
2.7690001 0.65399998 -0.49599999 150 16 0
2.7780001 0.64899999 -0.491 150 16 0
2.7809999 0.64300001 -0.486 150 16 0
2.7869999 0.63700002 -0.47999999 150 16 0
2.7920001 0.63099998 -0.47499999 150 16 0
2.796 0.625 -0.46900001 150 16 0
2.8 0.61900002 -0.46399999 150 16 0
2.8050001 0.61299998 -0.458 150 16 0
2.812 0.60799998 -0.45300001 150 16 0
2.8180001 0.602 -0.44800001 150 16 0
2.826 0.597 -0.44299999 150 16 0
2.829 0.58999997 -0.43700001 150 16 0
2.8329999 0.58399999 -0.43099999 150 16 0
2.8399999 0.57800001 -0.426 150 16 0
2.8469999 0.57200003 -0.421 150 16 0
2.8510001 0.56599998 -0.41499999 150 16 0
2.8529999 0.55900002 -0.40900001 150 16 0
2.865 0.55400002 -0.405 150 16 0
2.869 0.54799998 -0.39899999 150 16 0
2.8729999 0.54100001 -0.39399999 150 16 0
2.8789999 0.53500003 -0.38800001 150 16 0
2.8840001 0.528 -0.38299999 150 16 0
2.892 0.52200001 -0.37799999 150 16 0
2.8940001 0.51499999 -0.37200001 150 16 0
2.8959999 0.50800002 -0.366 150 16 0
2.9100001 0.50300002 -0.36199999 150 16 0
2.918 0.49700001 -0.35600001 150 16 0
2.9289999 0.491 -0.352 150 16 0
2.931 0.484 -0.34599999 150 16 0
2.937 0.47799999 -0.34 150 16 0
2.9430001 0.47099999 -0.33500001 150 16 0
2.9460001 0.46399999 -0.329 150 16 0
2.9530001 0.45699999 -0.324 150 16 0
2.961 0.45100001 -0.31900001 150 16 0
2.9630001 0.44400001 -0.31299999 150 16 0
2.9679999 0.43700001 -0.30700001 150 16 0
2.9760001 0.43000001 -0.30199999 150 16 0
2.984 0.42300001 -0.29699999 150 16 0
2.9879999 0.41600001 -0.29100001 150 16 0
2.9909999 0.40900001 -0.285 150 16 0
2.9990001 0.40200001 -0.28 150 16 0
3.0039999 0.39500001 -0.27500001 150 16 0
3.0079999 0.38800001 -0.26899999 150 16 0
3.02 0.38100001 -0.264 150 16 0
3.0209999 0.37400001 -0.25799999 150 16 0
3.03 0.36700001 -0.25299999 150 16 0
3.0339999 0.359 -0.24699999 150 16 0
3.0450001 0.35299999 -0.242 150 16 0
3.046 0.345 -0.236 150 16 0
3.053 0.338 -0.23100001 150 16 0
3.0580001 0.33000001 -0.22499999 150 16 0
3.0639999 0.32300001 -0.22 150 16 0
3.069 0.315 -0.214 150 16 0
3.0799999 0.308 -0.20900001 150 16 0
3.0810001 0.30000001 -0.20299999 150 16 0
3.095 0.29300001 -0.198 150 16 0
3.0999999 0.28600001 -0.193 150 16 0
3.1070001 0.278 -0.18700001 150 16 0
3.1159999 0.27000001 -0.182 149 16 0
3.119 0.26199999 -0.176 133 16 0
3.1289999 0.255 -0.171 135 16 0
3.1289999 0.24699999 -0.16500001 129 16 0
3.141 0.23899999 -0.16 143 16 0
3.145 0.23100001 -0.154 132 16 0
3.1530001 0.223 -0.148 145 16 0
3.1559999 0.215 -0.14300001 150 16 0
3.1719999 0.208 -0.13699999 143 16 0
3.1789999 0.2 -0.132 142 16 0
3.1830001 0.192 -0.126 127 16 0
3.191 0.183 -0.121 132 16 0
3.198 0.175 -0.115 133 16 0
3.2 0.167 -0.109 120 16 0
3.21 0.15899999 -0.104 118 16 0
3.221 0.15099999 -0.097999997 115 16 0
3.227 0.142 -0.093000002 108 16 0
3.234 0.134 -0.086999997 125 16 0
3.243 0.125 -0.081 110 16 0
3.2460001 0.117 -0.075999998 111 16 0
3.2550001 0.108 -0.07 113 16 0
3.2579999 0.1 -0.064000003 109 16 0
3.2679999 0.090999998 -0.059 103 16 0
3.277 0.082000002 -0.052999999 85 16 0
3.286 0.074000001 -0.046999998 99 16 0
3.2939999 0.064999998 -0.041000001 64 16 0
3.3010001 0.056000002 -0.035999998 49 16 0
3.3010001 0.046999998 -0.029999999 113 16 0
3.3099999 0.037999999 -0.024 95 16 0
3.3210001 0.028999999 -0.017999999 48 16 0
3.3150001 0.02 -0.013 24 16 0
3.2980001 0.011 -0.0070000002 20 16 0
3.2780001 0.0020000001 -0.001 18 16 0
3.2620001 -0.0060000001 0.0040000002 19 16 0
3.2490001 -0.015 0.0089999996 41 16 0
3.2550001 -0.024 0.015 150 16 0
3.2650001 -0.033 0.02 150 16 0
3.266 -0.041999999 0.026000001 150 16 0
3.277 -0.050999999 0.032000002 150 16 0
3.2880001 -0.059999999 0.037 150 16 0
3.2850001 -0.068999998 0.043000001 59 16 0
3.2690001 -0.078000002 0.048 31 16 0
3.253 -0.086000003 0.054000001 30 16 0
3.2360001 -0.094999999 0.059 30 16 0
3.2190001 -0.103 0.064000003 30 16 0
3.2030001 -0.112 0.068999998 29 16 0
3.1849999 -0.12 0.074000001 30 16 0
3.1689999 -0.12800001 0.079000004 29 16 0
3.1489999 -0.13600001 0.082999997 29 16 0
3.1329999 -0.14399999 0.088 29 16 0
3.118 -0.152 0.093000002 28 16 0
3.1010001 -0.16 0.097000003 27 16 0
3.0880001 -0.168 0.102 28 16 0
3.073 -0.176 0.107 29 16 0
3.053 -0.183 0.111 29 16 0
3.0350001 -0.191 0.115 30 16 0
3.0220001 -0.198 0.12 29 16 0
3.003 -0.205 0.124 29 16 0
2.987 -0.213 0.12800001 28 16 0
2.9790001 -0.221 0.132 29 16 0
2.96 -0.228 0.13600001 31 16 0
2.9460001 -0.235 0.14 33 16 0
2.9300001 -0.242 0.14399999 34 16 0
2.9159999 -0.249 0.148 35 16 0
2.902 -0.25600001 0.152 35 16 0
2.882 -0.26300001 0.156 35 16 0
2.8710001 -0.27000001 0.16 33 16 0
2.858 -0.27700001 0.163 33 16 0
2.8440001 -0.28400001 0.167 33 16 0
2.8299999 -0.28999999 0.171 34 16 0
2.8139999 -0.29699999 0.17399999 33 16 0
2.802 -0.303 0.178 34 16 0
2.7920001 -0.31 0.18099999 36 16 0
2.779 -0.317 0.185 37 16 0
2.763 -0.32300001 0.18799999 36 16 0
2.7550001 -0.33000001 0.192 37 16 0
2.7379999 -0.336 0.19499999 36 16 0
2.7279999 -0.34299999 0.198 38 16 0
2.72 -0.34900001 0.20200001 37 16 0
2.7060001 -0.35600001 0.205 38 16 0
2.6949999 -0.36199999 0.208 36 16 0
2.6819999 -0.368 0.211 44 16 0
2.6689999 -0.37400001 0.214 44 16 0
2.652 -0.37900001 0.21699999 44 16 0
2.641 -0.38600001 0.22 44 16 0
2.6289999 -0.39199999 0.223 52 16 0
2.619 -0.398 0.226 52 16 0
2.6040001 -0.403 0.228 53 16 0
2.5940001 -0.40900001 0.23100001 59 16 0
2.5829999 -0.41499999 0.234 53 16 0
2.5699999 -0.421 0.237 59 16 0
2.5610001 -0.42699999 0.23899999 59 16 0
2.5550001 -0.433 0.243 64 16 0
2.5369999 -0.43799999 0.245 68 16 0
2.5209999 -0.44299999 0.24699999 58 16 0
2.5120001 -0.449 0.249 65 16 0
2.506 -0.45500001 0.252 70 16 0
2.49 -0.45899999 0.25400001 71 16 0
2.4790001 -0.465 0.257 64 16 0
2.47 -0.47099999 0.259 77 16 0
2.454 -0.47499999 0.26100001 72 16 0
2.448 -0.48100001 0.264 71 16 0
2.437 -0.486 0.266 74 16 0
2.428 -0.49200001 0.26800001 77 16 0
2.4200001 -0.498 0.271 82 16 0
2.4100001 -0.50300002 0.273 73 16 0
2.398 -0.50800002 0.27500001 73 16 0
2.3840001 -0.51200002 0.27700001 79 16 0
2.368 -0.51599997 0.278 85 16 0
2.362 -0.52200001 0.28099999 94 16 0
2.352 -0.52700001 0.28299999 79 16 0
2.3469999 -0.53299999 0.285 94 16 0
2.3329999 -0.537 0.28600001 103 16 0
2.322 -0.54100001 0.28799999 77 16 0
2.312 -0.546 0.28999999 81 16 0
2.3010001 -0.551 0.292 94 16 0
2.29 -0.55500001 0.29300001 97 16 0
2.2839999 -0.56099999 0.29499999 91 16 0
2.2720001 -0.565 0.29699999 103 16 0
2.263 -0.56999999 0.29899999 94 16 0
2.2520001 -0.574 0.30000001 101 16 0
2.243 -0.579 0.30199999 94 16 0
2.237 -0.58399999 0.30399999 99 16 0
2.2260001 -0.588 0.30500001 98 16 0
2.2130001 -0.59200001 0.30599999 100 16 0
2.2019999 -0.59600002 0.30700001 99 16 0
2.2 -0.602 0.31 110 16 0
2.184 -0.60500002 0.31 95 16 0
2.177 -0.60900003 0.31200001 105 16 0
2.168 -0.61400002 0.31299999 103 16 0
2.1600001 -0.61799997 0.31400001 109 16 0
2.1489999 -0.62199998 0.315 110 16 0
2.1440001 -0.62699997 0.317 128 16 0
2.1329999 -0.63099998 0.31799999 124 16 0
2.125 -0.63499999 0.31900001 133 16 0
2.115 -0.639 0.31999999 133 16 0
2.098 -0.64099997 0.31999999 137 16 0
2.092 -0.64600003 0.322 143 16 0
2.086 -0.64999998 0.32300001 149 16 0
2.0780001 -0.65399998 0.324 143 16 0
2.0680001 -0.65799999 0.32499999 148 16 0
2.0550001 -0.66100001 0.32499999 142 16 0
2.053 -0.667 0.32699999 147 16 0
2.04 -0.66900003 0.32699999 150 16 0
2.0339999 -0.67299998 0.329 150 16 0
2.026 -0.67699999 0.329 150 16 0
2.016 -0.68099999 0.33000001 150 16 0
2.0090001 -0.685 0.331 142 16 0
2.003 -0.68900001 0.33199999 150 16 0
1.9910001 -0.69099998 0.33199999 143 16 0
1.983 -0.69499999 0.333 150 16 0
1.976 -0.699 0.33399999 150 16 0
1.967 -0.70200002 0.33399999 150 16 0
1.961 -0.70700002 0.33500001 150 16 0
1.9529999 -0.70999998 0.33500001 150 16 0
1.944 -0.713 0.336 150 16 0
1.9400001 -0.71799999 0.33700001 150 16 0
1.933 -0.722 0.338 150 16 0
1.9220001 -0.72399998 0.33700001 150 16 0
1.911 -0.72600001 0.33700001 150 16 0
1.903 -0.73000002 0.338 150 16 0
1.899 -0.73400003 0.33899999 150 16 0
1.883 -0.73400003 0.33700001 150 16 0
1.8789999 -0.73900002 0.338 150 16 0
1.874 -0.74299997 0.33899999 150 16 0
1.87 -0.74699998 0.34 150 16 0
1.8660001 -0.75199997 0.34099999 150 16 0
1.857 -0.755 0.34 150 16 0
1.849 -0.75700003 0.34099999 150 16 0
1.842 -0.75999999 0.34099999 150 16 0
1.832 -0.76200002 0.34 150 16 0
1.8279999 -0.76700002 0.34099999 150 16 0
1.816 -0.76800001 0.34 150 16 0
1.812 -0.77200001 0.34099999 150 16 0
1.806 -0.77600002 0.34099999 2 0 0
1.799 -0.778 0.34099999 3 0 0
1.791 -0.78100002 0.34 2 0 0
1.785 -0.78399998 0.34 2 0 0
1.772 -0.78399998 0.33899999 3 0 0
1.7690001 -0.78899997 0.34 150 16 0
1.761 -0.79100001 0.33899999 3 0 0
1.756 -0.79500002 0.33899999 3 0 0
1.749 -0.79699999 0.33899999 2 0 0
1.7460001 -0.80199999 0.34 99 0 0
1.739 -0.80400002 0.33899999 106 0 0
1.7309999 -0.80599999 0.33899999 91 0 0
1.725 -0.80900002 0.338 3 0 0
1.716 -0.81 0.33700001 87 0 0
1.712 -0.81400001 0.338 121 0 0
1.707 -0.81699997 0.33700001 97 0 0
1.7029999 -0.82099998 0.33700001 150 16 0
1.6950001 -0.82200003 0.33700001 88 0 0
1.684 -0.82300001 0.33500001 104 0 0
1.686 -0.829 0.336 150 16 0
1.675 -0.829 0.33500001 111 0 0
1.669 -0.83099997 0.33399999 118 0 0
1.6670001 -0.83499998 0.33399999 132 0 0
1.656 -0.83499998 0.333 128 0 0
1.6569999 -0.84100002 0.33399999 145 0 0
1.645 -0.84100002 0.33199999 150 16 0
1.645 -0.84600002 0.33199999 150 0 0
1.635 -0.84600002 0.331 150 16 0
1.63 -0.84799999 0.33000001 150 16 0
1.619 -0.847 0.32800001 150 16 0
1.617 -0.85100001 0.32800001 150 16 0
1.613 -0.85399997 0.32699999 150 16 0
1.6109999 -0.85799998 0.32699999 150 0 0
1.604 -0.85900003 0.32600001 150 16 0
1.596 -0.86000001 0.32499999 150 16 0
1.596 -0.86500001 0.32499999 150 16 0
1.586 -0.86500001 0.32300001 150 0 0
1.582 -0.86699998 0.322 150 16 0
1.576 -0.86900002 0.32100001 112 0 0
1.571 -0.87 0.31999999 3 0 0
1.5650001 -0.87199998 0.31900001 3 0 0
1.564 -0.87599999 0.31900001 4 0 0
1.5599999 -0.87800002 0.31799999 4 0 0
1.554 -0.87900001 0.317 133 0 0
1.55 -0.88200003 0.31600001 150 16 0
1.538 -0.87900001 0.31299999 5 3 0
1.535 -0.88200003 0.31200001 142 0 0
1.5319999 -0.88499999 0.31099999 116 0 0
1.528 -0.88700002 0.31 136 0 0
1.523 -0.88800001 0.30899999 136 0 0
1.522 -0.89200002 0.30899999 150 0 0
1.515 -0.89200002 0.30700001 150 0 0
1.513 -0.89499998 0.30599999 146 0 0
1.511 -0.898 0.30500001 150 0 0
1.5039999 -0.898 0.303 150 0 0
1.503 -0.90100002 0.303 150 0 0
1.499 -0.90200001 0.301 146 0 0
1.494 -0.903 0.30000001 150 0 0
1.49 -0.90499997 0.29899999 150 0 0
1.4859999 -0.90600002 0.29699999 104 0 0
1.482 -0.90700001 0.296 140 0 0
1.479 -0.91000003 0.294 147 0 0
1.476 -0.91100001 0.29300001 149 0 0
1.471 -0.912 0.29100001 144 0 0
1.47 -0.91500002 0.28999999 150 0 0
1.4630001 -0.91399997 0.28799999 146 0 0
1.457 -0.91299999 0.28600001 125 0 0
1.457 -0.917 0.28600001 148 0 0
1.454 -0.91799998 0.28400001 138 0 0
1.45 -0.91900003 0.28200001 150 0 0
1.449 -0.92199999 0.28099999 150 0 0
1.4450001 -0.92199999 0.27900001 150 0 0
1.442 -0.92299998 0.278 150 0 0
1.436 -0.92299998 0.27599999 150 0 0
1.434 -0.92400002 0.27399999 150 0 0
1.432 -0.92500001 0.273 143 0 0
1.429 -0.926 0.271 135 0 0
1.427 -0.92799997 0.26899999 143 0 0
1.426 -0.93000001 0.26800001 150 0 0
1.421 -0.92900002 0.266 132 0 0
1.421 -0.93199998 0.26499999 119 0 0
1.416 -0.93099999 0.26300001 128 0 0
1.41 -0.92900002 0.25999999 96 0 0
1.411 -0.93300003 0.259 127 0 0
1.408 -0.93300003 0.257 114 0 0
1.405 -0.93300003 0.255 112 0 0
1.405 -0.935 0.25400001 138 0 0
1.405 -0.93699998 0.252 123 0 0
1.404 -0.93800002 0.25099999 99 0 0
1.398 -0.93699998 0.248 149 0 0
1.395 -0.93599999 0.24600001 145 0 0
1.393 -0.93699998 0.244 105 0 0
1.3940001 -0.93900001 0.243 117 0 0
1.392 -0.93900001 0.241 120 0 0
1.391 -0.94 0.23899999 150 0 0
1.388 -0.94 0.237 132 0 0
1.382 -0.93699998 0.234 142 3 0
1.3890001 -0.94300002 0.234 127 0 0
1.3890001 -0.94400001 0.23199999 125 0 0
1.381 -0.94 0.229 115 2 0
1.38 -0.94099998 0.227 98 0 0
1.3789999 -0.94099998 0.22499999 150 0 0
1.377 -0.94099998 0.223 91 0 0
1.3789999 -0.94300002 0.222 150 0 0
1.377 -0.94300002 0.22 140 0 0
1.377 -0.94300002 0.21799999 108 0 0
1.374 -0.94199997 0.21600001 120 0 0
1.3710001 -0.94099998 0.213 112 0 0
1.3710001 -0.94099998 0.211 99 0 0
1.3710001 -0.94199997 0.20999999 147 0 0
1.373 -0.94400001 0.208 92 0 0
1.3710001 -0.94199997 0.206 102 0 0
1.369 -0.94099998 0.204 125 0 0
1.3710001 -0.94300002 0.20200001 100 0 0
1.369 -0.94099998 0.2 113 0 0
1.37 -0.94199997 0.198 124 0 0
1.372 -0.94300002 0.19599999 144 0 0
1.367 -0.94 0.193 83 3 0
1.368 -0.94099998 0.191 150 0 0
1.3710001 -0.94199997 0.19 108 0 0
1.365 -0.93800002 0.18700001 100 2 0
1.365 -0.93699998 0.185 136 0 0
1.365 -0.93699998 0.183 137 0 0
1.3660001 -0.93699998 0.18099999 110 0 0
1.365 -0.93599999 0.17900001 141 0 0
1.37 -0.93900001 0.177 134 3 0
1.367 -0.93599999 0.175 141 0 0
1.368 -0.935 0.17299999 100 0 0
1.3710001 -0.93699998 0.171 112 0 0
1.369 -0.93400002 0.169 144 0 0
1.37 -0.93400002 0.167 118 0 0
1.373 -0.935 0.16500001 150 0 0
1.3710001 -0.93199998 0.163 128 0 0
1.372 -0.93199998 0.161 106 0 0
1.373 -0.93099999 0.15899999 128 0 0
1.372 -0.92900002 0.15700001 149 0 0
1.375 -0.92900002 0.155 123 0 0
1.377 -0.92900002 0.153 93 0 0
1.375 -0.926 0.15000001 107 0 0
1.38 -0.92799997 0.149 129 0 0
1.3839999 -0.92900002 0.147 120 0 0
1.3789999 -0.92400002 0.145 136 0 0
1.386 -0.926 0.14300001 121 0 0
1.388 -0.926 0.141 134 0 0
1.387 -0.92299998 0.139 115 0 0
1.39 -0.92299998 0.13699999 100 0 0
1.391 -0.92199999 0.13500001 141 0 0
1.3890001 -0.91799998 0.133 87 0 0
1.3940001 -0.91900003 0.131 100 0 0
1.395 -0.917 0.12899999 124 0 0
1.398 -0.917 0.127 122 0 0
1.399 -0.91500002 0.125 120 0 0
1.399 -0.912 0.123 133 0 0
1.402 -0.91100001 0.121 114 0 0
1.406 -0.912 0.119 91 0 0
1.409 -0.91100001 0.118 100 0 0
1.411 -0.90899998 0.116 114 0 0
1.41 -0.90600002 0.114 118 0 0
1.414 -0.90600002 0.112 137 0 0
1.416 -0.90399998 0.11 118 0 0
1.4170001 -0.90200001 0.108 115 0 0
1.42 -0.90100002 0.106 115 0 0
1.4220001 -0.898 0.104 121 0 0
1.424 -0.89700001 0.102 93 0 0
1.432 -0.898 0.101 81 0 0
1.431 -0.89399999 0.098999999 89 0 0
1.4349999 -0.89399999 0.097000003 115 0 0
1.437 -0.89099997 0.094999999 103 0 0
1.442 -0.89099997 0.093000002 96 0 0
1.442 -0.88800001 0.090999998 87 0 0
1.448 -0.88800001 0.090000004 82 0 0
1.45 -0.88499999 0.088 87 0 0
1.4529999 -0.88300002 0.086000003 89 0 0
1.457 -0.88200003 0.085000001 117 0 0
1.46 -0.88099998 0.082999997 108 0 0
1.4630001 -0.87800002 0.081 92 0 0
1.465 -0.87599999 0.079000004 89 0 0
1.466 -0.87300003 0.077 77 0 0
1.473 -0.87300003 0.075999998 69 0 0
1.474 -0.86900002 0.074000001 132 0 0
1.4809999 -0.86900002 0.072999999 125 0 0
1.484 -0.86699998 0.071000002 104 0 0
1.4809999 -0.861 0.068999998 68 0 0
1.49 -0.86299998 0.068000004 82 0 0
1.495 -0.861 0.066 100 0 0
1.498 -0.85799998 0.064000003 93 0 0
1.5 -0.85500002 0.063000001 86 0 0
1.505 -0.85399997 0.061000001 77 0 0
1.5089999 -0.85100001 0.059999999 93 0 0
1.518 -0.85299999 0.057999998 95 0 0
1.52 -0.84899998 0.057 110 0 0
1.525 -0.847 0.055 77 0 0
1.527 -0.84399998 0.052999999 110 0 0
1.531 -0.84200001 0.052000001 103 0 0
1.535 -0.83899999 0.050000001 110 0 0
1.5369999 -0.83600003 0.048999999 76 0 0
1.5420001 -0.833 0.046999998 92 0 0
1.5549999 -0.83600003 0.046 81 3 0
1.556 -0.83200002 0.045000002 57 0 0
1.554 -0.82599998 0.043000001 44 0 0
1.563 -0.82599998 0.041999999 66 0 0
1.569 -0.824 0.039999999 73 0 0
1.573 -0.82099998 0.039000001 71 0 0
1.5779999 -0.81900001 0.037 93 0 0
1.582 -0.81599998 0.035999998 67 0 0
1.587 -0.81300002 0.035 84 0 0
1.59 -0.81 0.033 73 0 0
1.594 -0.80699998 0.032000002 67 0 0
1.6 -0.80500001 0.030999999 72 0 0
1.61 -0.80500001 0.028999999 54 0 0
1.614 -0.801 0.028000001 53 0 0
1.619 -0.79900002 0.027000001 57 0 0
1.625 -0.796 0.026000001 62 0 0
1.6289999 -0.79299998 0.024 51 0 0
1.631 -0.78899997 0.023 49 0 0
1.64 -0.78799999 0.022 58 0 0
1.645 -0.78500003 0.021 55 0 0
1.653 -0.78299999 0.018999999 49 0 0
1.66 -0.78100002 0.017999999 66 0 0
