# .PCD v0.7 - Point Cloud Data file format
VERSION 0.7
FIELDS x y z intensity tag line
SIZE 4 4 4 4 1 1
TYPE F F F F U U
COUNT 1 1 1 1 1 1
WIDTH 1340
HEIGHT 1
VIEWPOINT 0 0 0 1 0 0 0
POINTS 1340
DATA ascii
1.8 -0.87199998 0.89999998 146 16 0
1.801 -0.87300003 0.898 144 16 0
1.799 -0.87300003 0.89399999 150 16 0
1.798 -0.87300003 0.88999999 147 16 0
1.796 -0.87199998 0.88599998 150 16 0
1.793 -0.87099999 0.88200003 150 16 0
1.793 -0.87099999 0.87800002 150 16 0
1.793 -0.87199998 0.875 150 16 0
1.794 -0.87199998 0.87199998 150 16 0
1.7920001 -0.87199998 0.86799997 147 16 0
1.793 -0.87199998 0.86500001 150 16 0
1.788 -0.87 0.85900003 146 16 0
1.793 -0.87199998 0.85900003 150 16 0
1.79 -0.87 0.85299999 150 16 0
1.791 -0.87 0.85000002 148 16 0
1.789 -0.86900002 0.84600002 150 16 0
1.789 -0.86900002 0.84200001 150 16 0
1.7869999 -0.86699998 0.83700001 147 16 0
1.786 -0.866 0.833 150 16 0
1.784 -0.86500001 0.829 138 16 0
1.788 -0.866 0.82700002 150 16 0
1.79 -0.866 0.82300001 150 16 0
1.788 -0.86500001 0.81900001 150 16 0
1.783 -0.861 0.81199998 150 16 0
1.789 -0.86299998 0.81099999 149 16 0
1.785 -0.86000001 0.80500001 150 16 0
1.788 -0.86000001 0.80199999 150 16 0
1.789 -0.86000001 0.79900002 150 16 0
1.79 -0.85900003 0.79500002 150 16 0
1.7920001 -0.85900003 0.792 150 16 0
1.794 -0.85799998 0.78799999 150 16 0
1.793 -0.85699999 0.78399998 150 16 0
1.7970001 -0.85699999 0.78100002 150 16 0
1.7970001 -0.85500002 0.77700001 150 16 0
1.795 -0.85299999 0.77200001 144 16 0
1.7970001 -0.852 0.76800001 150 16 0
1.799 -0.85100001 0.76499999 150 16 0
1.801 -0.85000002 0.76099998 150 16 0
1.803 -0.85000002 0.75800002 150 16 0
1.8049999 -0.84899998 0.75400001 150 16 0
1.807 -0.84799999 0.75 150 16 0
1.806 -0.84500003 0.74599999 150 16 0
1.804 -0.84200001 0.74000001 150 16 0
1.811 -0.84299999 0.73799998 150 16 0
1.813 -0.84200001 0.73400003 150 16 0
1.816 -0.84100002 0.73100001 150 16 0
1.811 -0.83600003 0.72500002 150 16 0
1.8150001 -0.83600003 0.72100002 150 16 0
1.821 -0.83600003 0.71899998 150 16 0
1.819 -0.833 0.71399999 150 16 0
1.821 -0.83099997 0.70999998 150 16 0
1.823 -0.82999998 0.70599997 150 16 0
1.826 -0.82800001 0.70200002 150 16 0
1.8279999 -0.82599998 0.69800001 150 16 0
1.831 -0.82499999 0.69499999 150 16 0
1.8329999 -0.82300001 0.69099998 150 16 0
1.835 -0.82099998 0.68699998 150 16 0
1.844 -0.82200003 0.685 150 16 0
1.842 -0.81900001 0.68000001 150 16 0
1.8380001 -0.81400001 0.67400002 149 16 0
1.847 -0.815 0.67199999 141 16 0
1.851 -0.81300002 0.66799998 150 16 0
1.853 -0.81099999 0.66399997 140 16 0
1.8559999 -0.80900002 0.66100001 117 16 0
1.858 -0.80699998 0.65600002 125 16 0
1.86 -0.80500001 0.65200001 121 16 0
1.865 -0.80299997 0.64899999 133 16 0
1.868 -0.801 0.64499998 129 16 0
1.87 -0.79900002 0.64099997 133 16 0
1.873 -0.79699999 0.63700002 125 16 0
1.876 -0.79400003 0.63300002 115 16 0
1.88 -0.792 0.63 107 16 0
1.883 -0.79000002 0.62599999 98 16 0
1.8890001 -0.78899997 0.62300003 108 16 0
1.891 -0.78600001 0.61900002 98 16 0
1.8940001 -0.78399998 0.61500001 108 16 0
1.899 -0.78200001 0.611 108 16 0
1.901 -0.77899998 0.60699999 104 16 0
1.906 -0.77700001 0.60399997 97 16 0
1.91 -0.77499998 0.60000002 110 16 0
1.913 -0.77200001 0.59600002 103 16 0
1.923 -0.77200001 0.59399998 110 16 0
1.9220001 -0.76700002 0.58899999 106 16 0
1.927 -0.76499999 0.58600003 109 16 0
1.9299999 -0.76300001 0.58200002 109 16 0
1.934 -0.75999999 0.57800001 102 16 0
1.9400001 -0.75800002 0.57499999 110 16 0
1.947 -0.75700003 0.57200003 104 16 0
1.949 -0.75300002 0.56699997 100 16 0
1.952 -0.75 0.56300002 107 16 0
1.959 -0.74900001 0.56099999 99 16 0
1.961 -0.745 0.55599999 100 16 0
1.966 -0.74299997 0.55299997 100 16 0
1.972 -0.74000001 0.54900002 97 16 0
1.974 -0.73699999 0.54500002 96 16 0
1.978 -0.73400003 0.54100001 99 16 0
1.983 -0.73100001 0.537 100 16 0
1.987 -0.72799999 0.53399998 105 16 0
1.995 -0.72600001 0.53100002 95 16 0
1.9960001 -0.722 0.52600002 93 16 0
2.007 -0.72100002 0.52399999 97 16 0
2.0120001 -0.71799999 0.51999998 92 16 0
2.02 -0.71600002 0.51700002 102 16 0
2.0190001 -0.71100003 0.51200002 88 16 0
2.0220001 -0.70700002 0.50800002 91 16 0
2.0309999 -0.70499998 0.505 88 16 0
2.0350001 -0.70200002 0.50099999 89 16 0
2.0409999 -0.699 0.498 88 16 0
2.05 -0.69700003 0.495 92 16 0
2.052 -0.69300002 0.491 94 16 0
2.062 -0.69199997 0.48800001 92 16 0
2.0650001 -0.68699998 0.484 88 16 0
2.0680001 -0.68300003 0.47999999 88 16 0
2.0780001 -0.68099999 0.477 96 16 0
2.0799999 -0.67699999 0.47299999 88 16 0
2.0829999 -0.67299998 0.46900001 88 16 0
2.0999999 -0.67299998 0.46799999 59 16 0
2.102 -0.66900003 0.463 58 16 0
2.112 -0.667 0.461 65 16 0
2.1170001 -0.66299999 0.45699999 58 16 0
2.1240001 -0.65899998 0.45300001 68 16 0
2.131 -0.65600002 0.44999999 64 16 0
2.1329999 -0.65200001 0.44499999 60 16 0
2.142 -0.64899999 0.442 57 16 0
2.1500001 -0.64600003 0.43900001 53 16 0
2.152 -0.64099997 0.435 61 16 0
2.165 -0.639 0.43200001 51 16 0
2.171 -0.63599998 0.42899999 50 16 0
2.1760001 -0.63099998 0.42500001 49 16 0
2.1849999 -0.62800002 0.42199999 53 16 0
2.1849999 -0.62300003 0.417 50 16 0
2.194 -0.62 0.414 50 16 0
2.2060001 -0.61699998 0.41100001 53 16 0
2.2079999 -0.61199999 0.40700001 48 16 0
2.22 -0.61000001 0.40400001 52 16 0
2.23 -0.60699999 0.40099999 28 16 0
2.2320001 -0.60100001 0.39700001 34 16 0
2.24 -0.59799999 0.39300001 31 16 0
2.25 -0.59399998 0.38999999 30 16 0
2.2520001 -0.58899999 0.38600001 28 16 0
2.2620001 -0.58600003 0.382 28 16 0
2.27 -0.58200002 0.37900001 28 16 0
2.2750001 -0.57700002 0.375 28 16 0
2.2869999 -0.574 0.37200001 28 16 0
2.2939999 -0.56999999 0.368 27 16 0
2.303 -0.56599998 0.36500001 27 16 0
2.3139999 -0.56300002 0.36199999 28 16 0
2.319 -0.55800003 0.35800001 28 16 0
2.3269999 -0.55400002 0.35499999 28 16 0
2.3310001 -0.54799998 0.34999999 26 16 0
2.3440001 -0.54500002 0.347 26 16 0
2.3540001 -0.54100001 0.34400001 29 16 0
2.358 -0.53600001 0.34 29 16 0
2.3729999 -0.53299999 0.33700001 30 16 0
2.381 -0.528 0.333 30 16 0
2.3900001 -0.52399999 0.33000001 28 16 0
2.395 -0.51899999 0.32600001 29 16 0
2.405 -0.514 0.322 30 16 0
2.411 -0.509 0.31799999 28 16 0
2.424 -0.505 0.315 29 16 0
2.4319999 -0.5 0.31099999 29 16 0
2.441 -0.49599999 0.308 30 16 0
2.4489999 -0.491 0.30399999 26 16 0
2.4560001 -0.48500001 0.30000001 26 16 0
2.4679999 -0.48100001 0.29699999 27 16 0
2.4749999 -0.47600001 0.29300001 26 16 0
2.49 -0.472 0.28999999 26 16 0
2.497 -0.46599999 0.28600001 26 16 0
2.506 -0.461 0.28200001 27 16 0
2.517 -0.45699999 0.278 27 16 0
2.529 -0.45199999 0.27500001 26 16 0
2.533 -0.44600001 0.271 25 16 0
2.543 -0.44 0.26699999 27 16 0
2.5599999 -0.43599999 0.264 25 16 0
2.5680001 -0.43099999 0.25999999 26 16 0
2.576 -0.42500001 0.25600001 26 16 0
2.589 -0.41999999 0.252 26 16 0
2.598 -0.414 0.248 27 16 0
2.609 -0.40900001 0.245 26 16 0
2.619 -0.403 0.241 26 16 0
2.6270001 -0.398 0.237 27 16 0
2.6440001 -0.39300001 0.233 25 16 0
2.655 -0.38699999 0.229 25 16 0
2.6659999 -0.38100001 0.226 26 16 0
2.6789999 -0.37599999 0.222 25 16 0
2.688 -0.37 0.21799999 23 16 0
2.698 -0.36399999 0.214 25 16 0
2.7090001 -0.35800001 0.20999999 26 16 0
2.7160001 -0.35100001 0.206 25 16 0
2.7260001 -0.345 0.20200001 26 16 0
2.743 -0.34 0.198 26 16 0
2.7539999 -0.333 0.19400001 25 16 0
2.76 -0.32699999 0.189 25 16 0
2.773 -0.31999999 0.185 26 16 0
2.789 -0.31400001 0.182 25 16 0
2.7980001 -0.308 0.177 25 16 0
2.812 -0.301 0.17299999 25 16 0
2.8269999 -0.29499999 0.169 25 16 0
2.8380001 -0.289 0.16500001 25 16 0
2.855 -0.28200001 0.161 25 16 0
2.869 -0.27599999 0.15700001 24 16 0
2.8770001 -0.26800001 0.153 25 16 0
2.892 -0.26199999 0.149 26 16 0
2.9059999 -0.255 0.14399999 25 16 0
2.9170001 -0.248 0.14 25 16 0
2.9360001 -0.241 0.13600001 25 16 0
2.9449999 -0.234 0.132 23 16 0
2.96 -0.227 0.127 22 16 0
2.983 -0.22 0.123 23 16 0
2.994 -0.212 0.119 23 16 0
3.0020001 -0.205 0.114 23 16 0
3.0280001 -0.198 0.11 23 16 0
3.0380001 -0.19 0.106 23 16 0
3.0569999 -0.183 0.101 23 16 0
3.073 -0.175 0.097000003 23 16 0
3.085 -0.167 0.092 22 16 0
3.1040001 -0.15899999 0.088 23 16 0
3.1240001 -0.15099999 0.082999997 24 16 0
3.1359999 -0.14300001 0.079000004 24 16 0
3.1559999 -0.13500001 0.074000001 24 16 0
3.1700001 -0.127 0.068999998 24 16 0
3.1889999 -0.119 0.064999998 25 16 0
3.2060001 -0.11 0.059999999 24 16 0
3.223 -0.102 0.055 24 16 0
3.2409999 -0.093000002 0.050000001 24 16 0
3.257 -0.083999999 0.045000002 24 16 0
3.277 -0.075000003 0.041000001 28 16 0
3.283 -0.066 0.035999998 93 16 0
3.283 -0.057 0.030999999 99 16 0
3.2720001 -0.048 0.025 84 16 0
3.263 -0.037999999 0.02 83 16 0
3.257 -0.028999999 0.015 82 16 0
3.2490001 -0.018999999 0.0099999998 37 16 0
3.2550001 -0.0099999998 0.0049999999 17 16 0
3.2780001 -0.001 0 16 16 0
3.2939999 0.0080000004 -0.0040000002 17 16 0
3.3139999 0.017000001 -0.0089999996 19 16 0
3.3269999 0.027000001 -0.014 39 16 0
3.3150001 0.035999998 -0.018999999 48 16 0
3.3039999 0.045000002 -0.024 47 16 0
3.302 0.055 -0.028999999 35 16 0
3.2939999 0.064000003 -0.034000002 46 16 0
3.286 0.074000001 -0.037999999 51 16 0
3.283 0.082999997 -0.043000001 48 16 0
3.276 0.092 -0.048 48 16 0
3.266 0.101 -0.052999999 51 16 0
3.2590001 0.111 -0.057 49 16 0
3.253 0.12 -0.061999999 52 16 0
3.2449999 0.12899999 -0.066 51 16 0
3.243 0.138 -0.071000002 51 16 0
3.2349999 0.147 -0.075999998 55 16 0
3.2309999 0.15700001 -0.079999998 50 16 0
3.2219999 0.16500001 -0.085000001 51 16 0
3.2179999 0.175 -0.089000002 74 16 0
3.2079999 0.183 -0.093000002 58 16 0
3.198 0.192 -0.097999997 66 16 0
3.1919999 0.20100001 -0.102 68 16 0
3.191 0.20999999 -0.106 59 16 0
3.1760001 0.219 -0.11 51 16 0
3.1760001 0.228 -0.115 69 16 0
3.165 0.237 -0.119 68 16 0
3.1600001 0.245 -0.123 71 16 0
3.1559999 0.25400001 -0.127 56 16 0
3.1470001 0.26300001 -0.131 57 16 0
3.1400001 0.27200001 -0.13500001 59 16 0
3.1329999 0.28 -0.139 72 16 0
3.1300001 0.289 -0.14399999 67 16 0
3.118 0.29699999 -0.147 74 16 0
3.115 0.30599999 -0.15099999 71 16 0
3.1099999 0.315 -0.155 70 16 0
3.1059999 0.324 -0.15899999 80 16 0
3.098 0.33199999 -0.163 79 16 0
3.0910001 0.34099999 -0.167 86 16 0
3.0840001 0.34900001 -0.171 77 16 0
3.079 0.35800001 -0.175 80 16 0
3.075 0.366 -0.178 76 16 0
3.0639999 0.37400001 -0.182 82 16 0
3.0580001 0.38299999 -0.185 89 16 0
3.05 0.391 -0.189 84 16 0
3.0450001 0.39899999 -0.193 83 16 0
3.0439999 0.40799999 -0.197 94 16 0
3.036 0.417 -0.2 85 16 0
3.027 0.42399999 -0.20299999 72 16 0
3.026 0.433 -0.207 77 16 0
3.0139999 0.44100001 -0.20999999 77 16 0
3.0079999 0.449 -0.214 70 16 0
3.0039999 0.458 -0.21699999 82 16 0
2.9979999 0.46599999 -0.22 78 16 0
2.9949999 0.47499999 -0.22400001 74 16 0
2.987 0.48199999 -0.227 81 16 0
2.9809999 0.49000001 -0.23 93 16 0
2.974 0.498 -0.234 86 16 0
2.9679999 0.50700003 -0.237 79 16 0
2.9630001 0.51499999 -0.23999999 89 16 0
2.9530001 0.52200001 -0.243 93 16 0
2.954 0.53100002 -0.24600001 94 16 0
2.944 0.53899997 -0.249 93 16 0
2.937 0.546 -0.252 102 16 0
2.937 0.55599999 -0.25600001 113 16 0
2.9260001 0.56199998 -0.25799999 147 16 0
2.927 0.57200003 -0.26199999 150 16 0
2.9200001 0.579 -0.26499999 142 16 0
2.9030001 0.58499998 -0.26699999 150 16 0
2.901 0.59399998 -0.27000001 126 16 0
2.895 0.602 -0.273 150 16 0
2.8929999 0.61000001 -0.27599999 134 16 0
2.885 0.61699998 -0.278 135 16 0
2.878 0.625 -0.28099999 137 16 0
2.8770001 0.634 -0.28400001 134 16 0
2.8740001 0.64200002 -0.287 150 16 0
2.868 0.64999998 -0.28999999 137 16 0
2.8629999 0.65799999 -0.292 146 16 0
2.8570001 0.66500002 -0.29499999 140 16 0
2.8529999 0.67299998 -0.29800001 144 16 0
2.8469999 0.68099999 -0.30000001 141 16 0
2.8399999 0.68800002 -0.303 149 16 0
2.8329999 0.69599998 -0.30500001 150 16 0
2.8269999 0.70300001 -0.30700001 142 16 0
2.823 0.71100003 -0.31 150 16 0
2.819 0.71899998 -0.31299999 150 16 0
2.8150001 0.727 -0.315 150 16 0
2.8110001 0.73500001 -0.31799999 150 16 0
2.803 0.74199998 -0.31999999 150 16 0
2.7980001 0.75 -0.322 150 16 0
2.7939999 0.75800002 -0.324 140 16 0
2.7869999 0.76499999 -0.32600001 150 16 0
2.7820001 0.77200001 -0.329 140 16 0
2.78 0.78100002 -0.331 150 16 0
2.777 0.78899997 -0.33399999 150 16 0
2.7639999 0.79400003 -0.33500001 150 16 0
2.7609999 0.80199999 -0.33700001 150 16 0
2.756 0.80900002 -0.33899999 150 16 0
2.7479999 0.81599998 -0.34099999 150 16 0
2.7449999 0.824 -0.34299999 150 16 0
2.7409999 0.83200002 -0.345 150 16 0
2.7379999 0.83999997 -0.347 150 16 0
2.7360001 0.84799999 -0.34999999 150 16 0
2.7309999 0.85600001 -0.35100001 150 16 0
2.7219999 0.86199999 -0.35299999 150 16 0
2.717 0.86900002 -0.35499999 150 16 0
2.714 0.87699997 -0.35699999 150 16 0
2.7090001 0.884 -0.35800001 150 16 0
2.7049999 0.89200002 -0.36000001 150 16 0
2.697 0.898 -0.361 150 16 0
2.691 0.90499997 -0.36300001 150 16 0
2.688 0.91299999 -0.36500001 150 16 0
2.6819999 0.92000002 -0.366 150 16 0
2.6789999 0.92799997 -0.368 150 16 0
2.677 0.935 -0.37 150 16 0
2.6689999 0.94199997 -0.37099999 150 16 0
2.664 0.949 -0.37200001 150 16 0
2.668 0.95899999 -0.375 85 16 0
2.6760001 0.97100002 -0.37799999 83 16 0
2.655 0.972 -0.377 150 16 0
2.654 0.98000002 -0.37900001 150 16 0
2.6440001 0.986 -0.38 150 16 0
2.6400001 0.99299997 -0.38100001 150 16 0
2.635 1 -0.382 150 16 0
2.635 1.0089999 -0.384 150 16 0
2.625 1.0140001 -0.384 150 16 0
2.6259999 1.023 -0.38600001 150 16 0
2.618 1.028 -0.38699999 150 16 0
2.615 1.036 -0.38800001 150 16 0
2.608 1.0420001 -0.389 150 16 0
2.605 1.049 -0.38999999 150 16 0
2.602 1.057 -0.391 150 16 0
2.599 1.064 -0.39199999 150 16 0
2.595 1.072 -0.39300001 150 16 0
2.589 1.0779999 -0.39399999 150 16 0
2.586 1.085 -0.39500001 150 16 0
2.5829999 1.092 -0.396 150 16 0
2.572 1.096 -0.39500001 150 16 0
2.575 1.1059999 -0.39700001 150 16 0
2.569 1.112 -0.398 150 16 0
2.5639999 1.119 -0.398 150 16 0
2.5599999 1.126 -0.39899999 150 16 0
2.5569999 1.133 -0.40000001 150 16 0
2.5539999 1.14 -0.40000001 150 16 0
2.549 1.146 -0.40099999 150 16 0
2.546 1.153 -0.40099999 150 16 0
2.5439999 1.161 -0.40200001 150 16 0
2.536 1.165 -0.40200001 150 16 0
2.536 1.174 -0.403 150 16 0
2.5309999 1.1799999 -0.403 150 16 0
2.5280001 1.187 -0.403 150 16 0
2.523 1.193 -0.403 150 16 0
2.516 1.198 -0.403 150 16 0
2.513 1.205 -0.403 150 16 0
2.5139999 1.214 -0.40400001 150 16 0
2.507 1.219 -0.40400001 150 16 0
2.503 1.225 -0.40400001 150 16 0
2.5 1.232 -0.40400001 150 16 0
2.497 1.238 -0.40400001 150 16 0
2.494 1.245 -0.40400001 150 16 0
2.49 1.251 -0.40400001 150 16 0
2.487 1.258 -0.40400001 150 16 0
2.484 1.2640001 -0.40400001 150 16 0
2.4779999 1.2690001 -0.403 150 16 0
2.477 1.277 -0.403 150 16 0
2.474 1.283 -0.403 150 16 0
2.471 1.29 -0.403 150 16 0
2.4679999 1.296 -0.40200001 150 16 0
2.4649999 1.302 -0.40200001 150 16 0
2.4619999 1.308 -0.40099999 150 16 0
2.4579999 1.314 -0.40099999 150 16 0
2.46 1.323 -0.40099999 150 16 0
2.4519999 1.326 -0.40000001 150 16 0
2.4489999 1.332 -0.39899999 150 16 0
2.4460001 1.3380001 -0.39899999 150 16 0
2.4449999 1.345 -0.398 150 16 0
2.4400001 1.35 -0.39700001 150 16 0
2.441 1.358 -0.39700001 150 16 0
2.4349999 1.362 -0.396 150 16 0
2.4300001 1.367 -0.39500001 150 16 0
2.4330001 1.375 -0.39500001 150 16 0
2.4289999 1.381 -0.39300001 150 16 0
2.425 1.386 -0.39199999 150 16 0
2.4219999 1.391 -0.391 150 16 0
2.4219999 1.398 -0.391 150 16 0
2.4159999 1.402 -0.389 150 16 0
2.415 1.408 -0.38800001 150 16 0
2.415 1.415 -0.38699999 150 16 0
2.4089999 1.419 -0.38600001 150 16 0
2.411 1.426 -0.38499999 150 16 0
2.4059999 1.4299999 -0.38299999 150 16 0
2.4030001 1.4349999 -0.382 150 16 0
2.404 1.442 -0.38100001 150 16 0
2.398 1.4450001 -0.37900001 150 16 0
2.398 1.452 -0.37799999 150 16 0
2.398 1.459 -0.377 150 16 0
2.3959999 1.4630001 -0.375 150 16 0
2.391 1.467 -0.373 150 16 0
2.3889999 1.472 -0.37200001 150 16 0
2.391 1.479 -0.37099999 150 16 0
2.388 1.483 -0.36899999 150 16 0
2.385 1.487 -0.36700001 150 16 0
2.3859999 1.494 -0.366 150 16 0
2.381 1.4960001 -0.36300001 150 16 0
2.378 1.501 -0.361 150 16 0
2.3800001 1.507 -0.36000001 150 16 0
2.3759999 1.511 -0.35800001 150 16 0
2.3759999 1.516 -0.35600001 150 16 0
2.372 1.5190001 -0.354 150 16 0
2.369 1.522 -0.352 150 16 0
2.3729999 1.53 -0.34999999 150 16 0
2.3710001 1.534 -0.34799999 150 16 0
2.369 1.538 -0.34599999 150 16 0
2.369 1.543 -0.34400001 150 16 0
2.3670001 1.546 -0.34200001 150 16 0
2.3629999 1.548 -0.33899999 150 16 0
2.3640001 1.553 -0.33700001 150 16 0
2.3640001 1.558 -0.33500001 150 16 0
2.362 1.562 -0.33199999 150 16 0
2.3610001 1.5650001 -0.33000001 150 16 0
2.359 1.568 -0.32699999 150 16 0
2.3559999 1.5700001 -0.32499999 150 16 0
2.358 1.575 -0.32300001 150 16 0
2.3570001 1.579 -0.31999999 150 16 0
2.3540001 1.581 -0.317 150 16 0
2.3540001 1.584 -0.315 150 16 0
2.3529999 1.587 -0.31200001 150 16 0
2.352 1.59 -0.30899999 150 16 0
2.352 1.5930001 -0.30700001 150 16 0
2.359 1.601 -0.30500001 150 16 0
2.355 1.602 -0.30199999 150 16 0
2.352 1.603 -0.29899999 150 16 0
2.355 1.608 -0.296 150 16 0
2.3559999 1.6109999 -0.294 150 16 0
2.355 1.613 -0.29100001 150 16 0
2.352 1.614 -0.28799999 150 16 0
2.3529999 1.617 -0.285 150 16 0
2.3559999 1.6210001 -0.28200001 150 16 0
2.3510001 1.62 -0.27900001 150 16 0
2.3510001 1.622 -0.27599999 150 16 0
2.3540001 1.626 -0.273 150 16 0
2.358 1.631 -0.271 150 16 0
2.355 1.63 -0.26699999 150 16 0
2.3559999 1.632 -0.264 150 16 0
2.3570001 1.635 -0.26100001 150 16 0
2.3570001 1.636 -0.25799999 150 16 0
2.3529999 1.635 -0.25400001 150 16 0
2.358 1.6390001 -0.25099999 150 16 0
2.3570001 1.6390001 -0.248 150 16 0
2.3570001 1.64 -0.245 150 16 0
2.359 1.642 -0.242 150 16 0
2.359 1.643 -0.23899999 150 16 0
2.359 1.643 -0.235 150 16 0
2.362 1.646 -0.23199999 150 16 0
2.359 1.6440001 -0.228 150 16 0
2.3610001 1.645 -0.22499999 150 16 0
2.3629999 1.646 -0.222 150 16 0
2.368 1.65 -0.219 150 16 0
2.3699999 1.651 -0.21600001 150 16 0
2.3699999 1.65 -0.213 150 16 0
2.369 1.649 -0.20900001 150 16 0
2.372 1.65 -0.206 150 16 0
2.372 1.649 -0.20200001 150 16 0
2.3729999 1.649 -0.199 150 16 0
2.3759999 1.65 -0.19599999 150 16 0
2.378 1.65 -0.192 150 16 0
2.3829999 1.652 -0.189 150 16 0
2.3829999 1.651 -0.186 150 16 0
2.3900001 1.654 -0.183 150 16 0
2.388 1.65 -0.17900001 150 16 0
2.3870001 1.648 -0.176 150 16 0
2.3900001 1.648 -0.17200001 150 16 0
2.391 1.647 -0.169 150 16 0
2.391 1.6440001 -0.16500001 150 16 0
2.3989999 1.647 -0.162 150 16 0
2.4000001 1.646 -0.15899999 150 16 0
2.4000001 1.643 -0.155 150 16 0
2.4030001 1.642 -0.152 150 16 0
2.4030001 1.6390001 -0.148 150 16 0
2.4100001 1.641 -0.145 150 16 0
2.4119999 1.6390001 -0.142 150 16 0
2.4130001 1.637 -0.138 150 16 0
2.4170001 1.636 -0.13500001 150 16 0
2.418 1.633 -0.132 150 16 0
2.4200001 1.631 -0.12800001 150 16 0
2.4219999 1.628 -0.125 150 16 0
2.425 1.626 -0.122 150 16 0
2.4260001 1.623 -0.118 150 16 0
2.4300001 1.622 -0.115 150 16 0
2.4330001 1.62 -0.112 150 16 0
2.434 1.6160001 -0.108 150 16 0
2.437 1.614 -0.105 150 16 0
2.4400001 1.6109999 -0.102 150 16 0
2.4419999 1.608 -0.098999999 150 16 0
2.447 1.607 -0.096000001 150 16 0
2.4460001 1.601 -0.092 150 16 0
2.451 1.6 -0.089000002 150 16 0
2.454 1.596 -0.086000003 150 16 0
2.457 1.5930001 -0.082999997 150 16 0
2.461 1.59 -0.079999998 150 16 0
2.4630001 1.587 -0.077 150 16 0
2.467 1.584 -0.072999999 150 16 0
2.467 1.5779999 -0.07 150 16 0
2.4719999 1.576 -0.067000002 150 16 0
2.4779999 1.574 -0.064000003 150 16 0
2.477 1.568 -0.061000001 150 16 0
2.48 1.563 -0.057999998 150 16 0
2.483 1.559 -0.055 150 16 0
2.4860001 1.5549999 -0.052000001 150 16 0
2.49 1.552 -0.048999999 150 16 0
2.4949999 1.548 -0.046 150 16 0
2.4990001 1.545 -0.043000001 150 16 0
2.5009999 1.54 -0.039999999 150 16 0
2.5079999 1.538 -0.037999999 150 16 0
2.5109999 1.533 -0.035 150 16 0
2.5139999 1.528 -0.032000002 150 16 0
2.517 1.523 -0.028999999 150 16 0
2.5220001 1.5190001 -0.027000001 150 16 0
2.527 1.515 -0.024 150 16 0
2.53 1.51 -0.021 150 16 0
2.5309999 1.5039999 -0.017999999 150 16 0
2.539 1.501 -0.016000001 150 16 0
2.5469999 1.499 -0.013 150 16 0
2.5409999 1.488 -0.011 150 16 0
2.5469999 1.485 -0.0080000004 150 16 0
2.5510001 1.479 -0.0049999999 150 16 0
2.5539999 1.473 -0.003 150 16 0
2.563 1.471 0 150 16 0
2.5639999 1.464 0.001 150 16 0
2.5639999 1.457 0.003 150 16 0
2.572 1.454 0.0060000001 150 16 0
2.575 1.448 0.0080000004 150 16 0
2.579 1.442 0.011 150 16 0
2.585 1.437 0.013 150 16 0
2.592 1.434 0.015 150 16 0
2.5910001 1.425 0.017000001 150 16 0
2.596 1.42 0.02 150 16 0
2.602 1.415 0.022 150 16 0
2.6010001 1.4069999 0.024 150 16 0
2.609 1.403 0.026000001 150 16 0
2.6129999 1.396 0.028000001 143 16 0
2.6159999 1.39 0.029999999 143 16 0
2.6170001 1.382 0.032000002 137 16 0
2.6229999 1.377 0.034000002 143 16 0
2.6259999 1.37 0.035999998 146 16 0
2.632 1.365 0.037999999 150 16 0
2.6329999 1.357 0.039999999 150 16 0
2.6359999 1.35 0.041999999 150 16 0
2.6440001 1.346 0.044 150 16 0
2.648 1.339 0.046 150 16 0
2.6489999 1.331 0.048 150 16 0
2.655 1.325 0.048999999 150 16 0
2.658 1.318 0.050999999 150 16 0
2.6619999 1.311 0.052999999 150 16 0
2.668 1.3049999 0.055 150 16 0
2.6689999 1.2970001 0.056000002 150 16 0
2.6719999 1.29 0.057999998 150 16 0
2.678 1.284 0.059 150 16 0
2.681 1.276 0.061000001 150 16 0
2.688 1.27 0.061999999 150 16 0
2.691 1.263 0.064000003 150 16 0
2.701 1.2589999 0.064999998 150 16 0
2.7049999 1.252 0.067000002 150 16 0
2.7090001 1.244 0.068000004 150 16 0
2.7119999 1.237 0.07 150 16 0
2.7190001 1.2309999 0.071000002 150 16 0
2.7260001 1.225 0.071999997 150 16 0
2.7309999 1.2180001 0.074000001 150 16 0
2.734 1.21 0.075000003 150 16 0
2.737 1.202 0.075999998 150 16 0
2.7409999 1.1950001 0.077 150 16 0
2.7420001 1.1849999 0.078000002 150 16 0
2.7539999 1.181 0.079000004 150 16 0
2.757 1.173 0.081 150 16 0
2.757 1.164 0.081 150 16 0
2.7639999 1.1569999 0.082999997 150 16 0
2.77 1.151 0.083999999 150 16 0
2.773 1.143 0.085000001 150 16 0
2.7780001 1.135 0.086000003 150 16 0
2.783 1.128 0.086000003 150 16 0
2.7869999 1.12 0.086999997 150 16 0
2.79 1.1109999 0.088 150 16 0
2.796 1.104 0.089000002 150 16 0
2.796 1.095 0.090000004 150 16 0
2.802 1.0880001 0.090000004 150 16 0
2.806 1.08 0.090999998 150 16 0
2.809 1.071 0.092 150 16 0
2.8150001 1.064 0.092 145 16 0
2.8210001 1.057 0.093000002 150 16 0
2.823 1.048 0.093999997 144 16 0
2.8269999 1.04 0.093999997 133 16 0
2.8340001 1.0319999 0.094999999 137 16 0
2.836 1.024 0.094999999 145 16 0
2.8399999 1.015 0.096000001 142 16 0
2.8469999 1.008 0.096000001 145 16 0
2.8499999 0.99900001 0.097000003 150 16 0
2.8540001 0.991 0.097000003 138 16 0
2.8599999 0.98400003 0.097999997 150 16 0
2.8740001 0.97899997 0.097999997 32 16 0
2.8740001 0.96899998 0.097999997 42 16 0
2.872 0.958 0.098999999 150 16 0
2.8770001 0.94999999 0.098999999 150 16 0
2.8840001 0.94300002 0.098999999 150 16 0
2.8889999 0.935 0.098999999 150 16 0
2.8900001 0.92500001 0.098999999 150 16 0
2.895 0.917 0.1 150 16 0
2.902 0.90899998 0.1 150 16 0
2.9070001 0.90100002 0.1 150 16 0
2.9119999 0.89300001 0.1 147 16 0
2.9170001 0.884 0.1 138 16 0
2.9170001 0.875 0.1 150 16 0
2.9219999 0.866 0.1 150 16 0
2.9260001 0.85699999 0.1 150 16 0
2.928 0.84799999 0.1 149 16 0
2.9349999 0.83999997 0.1 150 16 0
2.941 0.83200002 0.1 150 16 0
2.9400001 0.82200003 0.098999999 150 16 0
2.948 0.81400001 0.098999999 150 16 0
2.951 0.80500001 0.098999999 150 16 0
2.9530001 0.796 0.098999999 147 16 0
2.9630001 0.78799999 0.098999999 150 16 0
2.9679999 0.77999997 0.098999999 150 16 0
2.97 0.77100003 0.097999997 150 16 0
2.977 0.76200002 0.097999997 146 16 0
2.9820001 0.75400001 0.097999997 150 16 0
2.984 0.74400002 0.097000003 150 16 0
2.9909999 0.736 0.097000003 150 16 0
2.9960001 0.727 0.096000001 150 16 0
2.9990001 0.71799999 0.096000001 150 16 0
3.0009999 0.708 0.094999999 149 16 0
3.007 0.69999999 0.094999999 132 16 0
3.006 0.69 0.093999997 129 16 0
3.0150001 0.68199998 0.093999997 129 16 0
3.0190001 0.67199999 0.093000002 122 16 0
3.0250001 0.66399997 0.093000002 122 16 0
3.0280001 0.65399998 0.092 120 16 0
3.033 0.64499998 0.092 130 16 0
3.0409999 0.63700002 0.090999998 110 16 0
3.043 0.62699997 0.090000004 117 16 0
3.0550001 0.62 0.090000004 121 16 0
3.0550001 0.61000001 0.089000002 109 16 0
3.062 0.60100001 0.088 128 16 0
3.0639999 0.59100002 0.086999997 111 16 0
3.066 0.58099997 0.086999997 115 16 0
3.0739999 0.57300001 0.086000003 120 16 0
3.076 0.56300002 0.085000001 117 16 0
3.0810001 0.55400002 0.083999999 115 16 0
3.089 0.54500002 0.082999997 109 16 0
3.0929999 0.53600001 0.082000002 103 16 0
3.098 0.52700001 0.081 111 16 0
3.098 0.51599997 0.079999998 88 16 0
3.102 0.50700003 0.079000004 99 16 0
3.109 0.498 0.078000002 85 16 0
3.1129999 0.48899999 0.077 97 16 0
3.119 0.479 0.075999998 109 16 0
3.1240001 0.47 0.075000003 106 16 0
3.1289999 0.46000001 0.074000001 112 16 0
3.1289999 0.44999999 0.072999999 74 16 0
3.1370001 0.44100001 0.071999997 108 16 0
3.1440001 0.43200001 0.071000002 102 16 0
3.145 0.42199999 0.07 105 16 0
3.154 0.41299999 0.068000004 94 16 0
3.158 0.403 0.067000002 112 16 0
3.1659999 0.39399999 0.066 121 16 0
3.1700001 0.384 0.064999998 117 16 0
3.1670001 0.373 0.063000001 51 16 0
3.174 0.36399999 0.061999999 36 16 0
3.174 0.354 0.061000001 36 16 0
3.1760001 0.34400001 0.059 36 16 0
3.1800001 0.33399999 0.057999998 34 16 0
3.1860001 0.324 0.056000002 31 16 0
3.187 0.31400001 0.055 30 16 0
3.191 0.30399999 0.052999999 28 16 0
3.194 0.294 0.052000001 28 16 0
3.1989999 0.28400001 0.050000001 29 16 0
3.204 0.27399999 0.048999999 27 16 0
3.2049999 0.264 0.046999998 28 16 0
3.2090001 0.25400001 0.046 29 16 0
3.207 0.244 0.044 27 16 0
3.1919999 0.23199999 0.041999999 42 16 0
3.187 0.222 0.039999999 63 16 0
3.194 0.212 0.039000001 37 16 0
3.221 0.20299999 0.037 26 16 0
3.2320001 0.19400001 0.035999998 28 16 0
3.2360001 0.184 0.034000002 28 16 0
3.2379999 0.17299999 0.032000002 29 16 0
3.247 0.163 0.030999999 28 16 0
3.2539999 0.153 0.028999999 29 16 0
3.2679999 0.14399999 0.027000001 41 16 0
3.2809999 0.134 0.025 75 16 0
3.286 0.124 0.023 85 16 0
3.2909999 0.113 0.022 75 16 0
3.2920001 0.103 0.02 78 16 0
3.302 0.093000002 0.017999999 79 16 0
3.3010001 0.082000002 0.016000001 76 16 0
3.309 0.071999997 0.014 69 16 0
3.3139999 0.061000001 0.012 49 16 0
3.3210001 0.050999999 0.0099999998 51 16 0
3.319 0.039999999 0.0080000004 64 16 0
3.325 0.029999999 0.0060000001 53 16 0
3.3180001 0.018999999 0.003 23 16 0
3.2909999 0.0089999996 0.001 19 16 0
3.276 -0.001 0 18 16 0
3.2409999 -0.011 -0.0020000001 23 16 0
3.247 -0.021 -0.0040000002 94 16 0
3.2479999 -0.032000002 -0.0060000001 150 16 0
3.253 -0.041999999 -0.0080000004 150 16 0
3.2609999 -0.052000001 -0.011 150 16 0
3.263 -0.063000001 -0.013 150 16 0
3.26 -0.072999999 -0.015 45 16 0
3.233 -0.082999997 -0.017000001 30 16 0
3.2090001 -0.092 -0.018999999 29 16 0
3.1900001 -0.102 -0.021 29 16 0
3.1700001 -0.111 -0.023 29 16 0
3.1440001 -0.12 -0.025 29 16 0
3.1210001 -0.12899999 -0.027000001 27 16 0
3.098 -0.138 -0.029999999 27 16 0
3.089 -0.147 -0.032000002 28 16 0
3.0550001 -0.155 -0.034000002 28 19 0
3.0409999 -0.164 -0.035999998 27 16 0
3.0079999 -0.17200001 -0.037999999 27 19 0
2.9979999 -0.18099999 -0.039999999 26 16 0
2.98 -0.189 -0.041999999 26 16 0
2.9590001 -0.197 -0.044 26 16 0
2.941 -0.205 -0.046 27 16 0
2.9159999 -0.213 -0.046999998 27 16 0
2.9000001 -0.221 -0.048999999 28 16 0
2.8829999 -0.229 -0.050999999 28 16 0
2.865 -0.236 -0.052999999 27 16 0
2.849 -0.244 -0.055 27 16 0
2.829 -0.25099999 -0.057 27 16 0
2.8099999 -0.25799999 -0.059 29 16 0
2.796 -0.266 -0.061000001 28 16 0
2.7739999 -0.27200001 -0.063000001 28 16 0
2.763 -0.28 -0.064999998 27 16 0
2.743 -0.287 -0.067000002 29 16 0
2.7309999 -0.294 -0.068999998 30 16 0
2.72 -0.301 -0.071000002 29 16 0
2.7019999 -0.308 -0.072999999 31 16 0
2.6800001 -0.31400001 -0.074000001 29 16 0
2.6719999 -0.32100001 -0.075999998 31 16 0
2.652 -0.32699999 -0.078000002 31 16 0
2.635 -0.33399999 -0.079999998 28 16 0
2.6259999 -0.34099999 -0.082000002 30 16 0
2.605 -0.34599999 -0.083999999 37 16 0
2.595 -0.35299999 -0.086000003 45 16 0
2.582 -0.359 -0.088 38 16 0
2.5610001 -0.36399999 -0.089000002 38 16 0
2.553 -0.37099999 -0.090999998 36 16 0
2.5369999 -0.377 -0.093000002 40 16 0
2.5209999 -0.382 -0.094999999 47 16 0
2.5079999 -0.38800001 -0.097000003 41 16 0
2.493 -0.39399999 -0.097999997 41 16 0
2.4879999 -0.40099999 -0.101 51 16 0
2.4690001 -0.40599999 -0.102 48 16 0
2.457 -0.41100001 -0.104 50 16 0
2.447 -0.417 -0.106 61 16 0
2.427 -0.42199999 -0.107 50 16 0
2.4159999 -0.42699999 -0.109 53 16 0
2.405 -0.433 -0.111 49 16 0
2.392 -0.43799999 -0.113 52 16 0
2.3789999 -0.44299999 -0.115 53 16 0
2.368 -0.449 -0.117 45 16 0
2.352 -0.45300001 -0.118 53 16 0
2.3369999 -0.458 -0.12 55 16 0
2.3299999 -0.463 -0.122 58 16 0
2.3150001 -0.46799999 -0.124 57 16 0
2.3039999 -0.47299999 -0.125 65 16 0
2.2920001 -0.47799999 -0.127 67 16 0
2.28 -0.48199999 -0.12899999 66 16 0
2.277 -0.48899999 -0.131 67 16 0
2.257 -0.49200001 -0.133 67 16 0
2.2460001 -0.49599999 -0.134 64 16 0
2.2379999 -0.50099999 -0.13600001 65 16 0
2.2249999 -0.50599998 -0.138 74 16 0
2.2179999 -0.51099998 -0.14 67 16 0
2.204 -0.51499999 -0.142 77 16 0
2.197 -0.51999998 -0.14399999 75 16 0
2.187 -0.52399999 -0.145 82 16 0
2.1670001 -0.52700001 -0.147 79 16 0
2.155 -0.52999997 -0.148 70 16 0
2.1489999 -0.53600001 -0.15000001 78 16 0
2.1400001 -0.54000002 -0.152 84 16 0
2.1300001 -0.54400003 -0.154 81 16 0
2.1199999 -0.54799998 -0.156 80 16 0
2.1110001 -0.55299997 -0.15800001 85 16 0
2.099 -0.55599999 -0.15899999 83 16 0
2.0910001 -0.56099999 -0.161 82 16 0
2.082 -0.565 -0.163 88 16 0
2.0699999 -0.56800002 -0.16500001 87 16 0
2.0610001 -0.57200003 -0.167 96 16 0
2.05 -0.57499999 -0.168 84 16 0
2.043 -0.57999998 -0.17 102 16 0
2.0309999 -0.583 -0.17200001 94 16 0
2.023 -0.58700001 -0.17399999 97 16 0
2.0139999 -0.59100002 -0.176 92 16 0
2.007 -0.59399998 -0.177 94 16 0
1.998 -0.59799999 -0.17900001 103 16 0
1.989 -0.602 -0.18099999 104 16 0
1.979 -0.60500002 -0.183 97 16 0
1.969 -0.60799998 -0.184 96 16 0
1.959 -0.611 -0.186 97 16 0
1.957 -0.616 -0.189 96 16 0
1.937 -0.616 -0.189 97 19 0
1.9299999 -0.62 -0.191 106 16 0
1.924 -0.62400001 -0.193 97 16 0
1.92 -0.62800002 -0.19599999 107 16 0
1.91 -0.63099998 -0.197 93 16 0
1.906 -0.63599998 -0.199 106 16 0
1.898 -0.639 -0.20100001 110 16 0
1.888 -0.64099997 -0.20299999 102 16 0
1.8789999 -0.64399999 -0.205 103 16 0
1.8710001 -0.64700001 -0.206 111 16 0
1.862 -0.64999998 -0.208 113 16 0
1.8559999 -0.65399998 -0.20999999 122 16 0
1.854 -0.65899998 -0.213 141 16 0
1.836 -0.65799999 -0.213 135 19 0
1.835 -0.66299999 -0.21600001 143 16 0
1.825 -0.66500002 -0.21799999 137 16 0
1.816 -0.667 -0.219 128 16 0
1.8099999 -0.671 -0.221 141 16 0
1.807 -0.67500001 -0.22400001 143 16 0
1.803 -0.67900002 -0.226 146 16 0
1.79 -0.67900002 -0.227 147 16 0
1.784 -0.68199998 -0.229 147 16 0
1.781 -0.68699998 -0.23199999 145 16 0
1.773 -0.68900001 -0.233 146 16 0
1.766 -0.69199997 -0.235 150 16 0
1.757 -0.69300002 -0.237 150 16 0
1.752 -0.69700003 -0.23899999 146 16 0
1.742 -0.69800001 -0.241 129 16 0
1.737 -0.70099998 -0.243 146 16 0
1.729 -0.70300001 -0.244 1 0 0
1.725 -0.70700002 -0.24699999 148 16 0
1.717 -0.708 -0.248 1 0 0
1.7130001 -0.71200001 -0.25099999 1 0 0
1.709 -0.71499997 -0.25299999 1 0 0
1.698 -0.71600002 -0.25400001 150 16 0
1.694 -0.71899998 -0.257 150 16 0
1.686 -0.72000003 -0.25799999 150 16 0
1.679 -0.722 -0.25999999 150 16 0
1.675 -0.72500002 -0.26199999 3 0 0
1.668 -0.727 -0.264 1 0 0
1.659 -0.72799999 -0.266 1 0 0
1.655 -0.73100001 -0.26800001 1 0 0
1.649 -0.73299998 -0.27000001 60 0 0
1.642 -0.73500001 -0.27200001 45 0 0
1.64 -0.73799998 -0.27399999 1 0 0
1.6339999 -0.74000001 -0.27599999 2 0 0
1.627 -0.74199998 -0.278 150 16 0
1.625 -0.745 -0.28099999 56 0 0
1.617 -0.74599999 -0.28200001 1 0 0
1.6109999 -0.74800003 -0.28400001 150 16 0
1.6059999 -0.75 -0.28600001 150 16 0
1.605 -0.75400001 -0.289 53 0 0
1.594 -0.75300002 -0.28999999 1 0 0
1.589 -0.755 -0.292 2 0 0
1.584 -0.75700003 -0.294 150 16 0
1.5779999 -0.75800002 -0.296 51 0 0
1.575 -0.76099998 -0.29800001 2 0 0
1.571 -0.76300001 -0.301 1 0 0
1.567 -0.76599997 -0.303 150 16 0
1.563 -0.76800001 -0.30500001 76 0 0
1.559 -0.76999998 -0.30700001 70 0 0
1.549 -0.76899999 -0.30899999 63 0 0
1.5470001 -0.77200001 -0.31099999 2 0 0
1.545 -0.77499998 -0.31400001 73 0 0
1.54 -0.77600002 -0.31600001 78 0 0
1.5369999 -0.77899998 -0.31799999 73 0 0
1.5319999 -0.77999997 -0.31999999 79 0 0
1.53 -0.78299999 -0.32300001 70 0 0
1.521 -0.78200001 -0.324 73 0 0
1.521 -0.78600001 -0.32699999 91 0 0
1.511 -0.78399998 -0.32800001 67 0 0
1.5089999 -0.787 -0.331 99 0 0
1.502 -0.78600001 -0.33199999 71 0 0
1.5 -0.78899997 -0.33500001 70 0 0
1.495 -0.79000002 -0.33700001 70 0 0
1.493 -0.79299998 -0.33899999 67 0 0
1.489 -0.79400003 -0.34099999 68 0 0
1.484 -0.79500002 -0.34299999 66 0 0
1.482 -0.79699999 -0.34599999 92 0 0
1.475 -0.796 -0.347 125 0 0
1.476 -0.80000001 -0.35100001 71 0 0
1.4680001 -0.79900002 -0.352 104 0 0
1.466 -0.801 -0.354 81 0 0
1.46 -0.80000001 -0.35600001 81 0 0
1.454 -0.80000001 -0.35699999 110 0 0
1.454 -0.80299997 -0.36000001 109 0 0
1.448 -0.80299997 -0.36199999 91 0 0
1.447 -0.80500001 -0.36500001 97 0 0
1.4450001 -0.80699998 -0.36700001 92 0 0
1.442 -0.80800003 -0.36899999 112 0 0
1.437 -0.80800003 -0.37099999 126 0 0
1.4349999 -0.80900002 -0.373 146 0 0
1.4299999 -0.80900002 -0.375 118 0 0
1.428 -0.81099999 -0.37799999 104 0 0
1.425 -0.81099999 -0.38 128 0 0
1.423 -0.81300002 -0.382 117 0 0
1.4220001 -0.81400001 -0.38499999 117 0 0
1.418 -0.81400001 -0.38699999 137 0 0
1.413 -0.81400001 -0.38800001 114 0 0
1.4119999 -0.815 -0.391 88 0 0
1.413 -0.81800002 -0.39399999 102 0 0
1.409 -0.81800002 -0.396 119 0 0
1.406 -0.81800002 -0.398 150 0 0
1.402 -0.81800002 -0.40000001 150 0 0
1.4 -0.81900001 -0.40200001 137 0 0
1.398 -0.81999999 -0.40400001 140 0 0
1.393 -0.81900001 -0.40599999 136 0 0
1.392 -0.81999999 -0.40799999 142 0 0
1.391 -0.82099998 -0.41100001 139 0 0
1.392 -0.82300001 -0.414 129 0 0
1.387 -0.82099998 -0.41499999 150 0 0
1.387 -0.82300001 -0.41800001 127 0 0
1.381 -0.82099998 -0.419 150 0 0
1.38 -0.82200003 -0.421 150 0 0
1.3789999 -0.82300001 -0.42300001 150 0 0
1.376 -0.82200003 -0.42500001 125 0 0
1.375 -0.82300001 -0.42699999 150 0 0
1.375 -0.824 -0.43000001 150 0 0
1.373 -0.824 -0.43200001 150 0 0
1.3710001 -0.824 -0.43399999 150 0 0
1.3710001 -0.82499999 -0.43700001 150 0 0
1.369 -0.824 -0.43900001 150 0 0
1.364 -0.82200003 -0.43900001 150 0 0
1.367 -0.82499999 -0.44299999 150 0 0
1.364 -0.824 -0.44400001 150 0 0
1.3660001 -0.82499999 -0.447 150 0 0
1.363 -0.82499999 -0.449 146 0 0
1.362 -0.824 -0.45100001 150 0 0
1.362 -0.82499999 -0.45300001 150 0 0
1.363 -0.82599998 -0.456 150 0 0
1.36 -0.82499999 -0.458 150 0 0
1.36 -0.824 -0.46000001 150 0 0
1.357 -0.82300001 -0.461 150 0 0
1.36 -0.82499999 -0.46399999 150 0 0
1.36 -0.82499999 -0.46599999 150 0 0
1.359 -0.82499999 -0.46799999 145 0 0
1.359 -0.82499999 -0.47099999 150 0 0
1.357 -0.82300001 -0.472 150 0 0
1.355 -0.82200003 -0.47299999 150 0 0
1.357 -0.82300001 -0.47600001 150 0 0
1.357 -0.82200003 -0.47799999 150 0 0
1.357 -0.82200003 -0.47999999 150 0 0
1.355 -0.81999999 -0.48100001 150 0 0
1.3559999 -0.81999999 -0.484 150 0 0
1.357 -0.81999999 -0.486 150 0 0
1.358 -0.81999999 -0.48800001 150 0 0
1.3609999 -0.82200003 -0.491 150 0 0
1.358 -0.81900001 -0.49200001 150 0 0
1.3559999 -0.81699997 -0.493 150 0 0
1.36 -0.81800002 -0.49599999 150 0 0
1.3609999 -0.81800002 -0.498 150 0 0
1.358 -0.815 -0.498 150 0 0
1.3609999 -0.81599998 -0.50099999 150 0 0
1.362 -0.815 -0.50300002 150 0 0
1.365 -0.81599998 -0.505 150 0 0
1.365 -0.81400001 -0.50700003 150 0 0
1.364 -0.81300002 -0.50800002 150 0 0
1.367 -0.81300002 -0.50999999 150 0 0
1.367 -0.81099999 -0.51200002 150 0 0
1.37 -0.81099999 -0.514 150 0 0
1.37 -0.81 -0.51599997 150 0 0
1.369 -0.80800003 -0.51599997 150 0 0
1.3710001 -0.80699998 -0.51800001 150 0 0
1.372 -0.80599999 -0.51999998 150 0 0
1.374 -0.80500001 -0.52200001 150 0 0
1.377 -0.80500001 -0.52399999 150 0 0
1.375 -0.80199999 -0.52399999 150 0 0
1.3789999 -0.80199999 -0.52700001 150 0 0
1.385 -0.80299997 -0.52999997 150 0 0
1.382 -0.80000001 -0.52899998 5 0 0
1.3839999 -0.79900002 -0.53100002 150 0 0
1.387 -0.79799998 -0.53299999 150 0 0
1.387 -0.796 -0.53399998 150 0 0
1.3940001 -0.79699999 -0.537 150 3 0
1.396 -0.796 -0.53899997 150 0 0
1.396 -0.79299998 -0.53899997 150 0 0
1.396 -0.79100001 -0.54000002 150 0 0
1.4 -0.79000002 -0.542 150 0 0
1.408 -0.792 -0.54500002 150 3 0
1.406 -0.78799999 -0.54500002 150 0 0
1.41 -0.78799999 -0.54699999 150 0 0
1.413 -0.787 -0.54799998 150 0 0
1.414 -0.78500003 -0.54900002 150 0 0
1.416 -0.78200001 -0.55000001 150 0 0
1.419 -0.78100002 -0.551 150 0 0
1.42 -0.77899998 -0.55199999 150 0 0
1.426 -0.77899998 -0.55400002 150 0 0
1.428 -0.77700001 -0.55500001 150 0 0
1.432 -0.77600002 -0.55599999 150 0 0
1.439 -0.77700001 -0.55900002 150 0 0
1.4400001 -0.77399999 -0.55900002 150 0 0
1.444 -0.773 -0.56099999 150 0 0
1.446 -0.76999998 -0.56099999 150 0 0
1.451 -0.76899999 -0.56300002 150 0 0
1.452 -0.76700002 -0.56300002 150 0 0
1.455 -0.764 -0.56400001 150 0 0
1.4579999 -0.76200002 -0.56400001 150 0 0
1.464 -0.76200002 -0.56599998 150 0 0
1.469 -0.76099998 -0.56800002 150 0 0
1.471 -0.75800002 -0.56800002 150 0 0
1.473 -0.75599998 -0.56800002 150 0 0
1.4809999 -0.75599998 -0.57099998 150 0 0
1.484 -0.75400001 -0.57099998 150 0 0
1.485 -0.75099999 -0.57099998 150 0 0
1.494 -0.75099999 -0.574 150 0 0
1.497 -0.74900001 -0.574 150 0 0
1.501 -0.74699998 -0.574 150 0 0
1.5039999 -0.74400002 -0.57499999 150 0 0
1.511 -0.74400002 -0.57599998 150 0 0
1.511 -0.74000001 -0.57499999 150 0 0
1.518 -0.73900002 -0.57700002 150 0 0
1.52 -0.736 -0.57599998 150 0 0
1.525 -0.73400003 -0.57700002 150 0 0
1.528 -0.73199999 -0.57700002 150 0 0
1.531 -0.72899997 -0.57700002 150 0 0
1.535 -0.72600001 -0.57700002 150 0 0
1.5369999 -0.72299999 -0.57700002 150 0 0
1.544 -0.722 -0.57800001 150 0 0
1.545 -0.71799999 -0.57700002 150 0 0
1.5549999 -0.71799999 -0.579 132 0 0
1.5599999 -0.71600002 -0.57999998 150 0 0
1.568 -0.71499997 -0.58099997 115 0 0
1.572 -0.713 -0.58099997 150 16 0
1.577 -0.70999998 -0.58099997 150 16 0
1.585 -0.70899999 -0.58200002 150 16 0
1.589 -0.70700002 -0.58200002 131 0 0
1.595 -0.70499998 -0.58200002 2 0 0
1.597 -0.70099998 -0.58099997 149 0 0
1.604 -0.69999999 -0.58200002 150 0 0
1.61 -0.69700003 -0.58200002 150 16 0
1.615 -0.69499999 -0.58200002 150 16 0
1.618 -0.69199997 -0.58099997 143 0 0
1.623 -0.68900001 -0.58099997 150 16 0
1.628 -0.68699998 -0.58099997 150 0 0
1.635 -0.68400002 -0.58099997 143 0 0
1.637 -0.68099999 -0.57999998 150 0 0
1.6440001 -0.67900002 -0.57999998 117 0 0
1.658 -0.68000001 -0.583 150 0 0
1.664 -0.67699999 -0.58200002 106 0 0
1.668 -0.67400002 -0.58200002 150 0 0
1.673 -0.671 -0.58099997 137 0 0
1.676 -0.66799998 -0.57999998 142 0 0
1.686 -0.66600001 -0.57999998 83 0 0
1.689 -0.66299999 -0.579 123 0 0
1.699 -0.662 -0.57999998 117 0 0
1.702 -0.65799999 -0.57800001 135 0 0
1.707 -0.65499997 -0.57700002 84 0 0
1.716 -0.653 -0.57800001 2 0 0
1.722 -0.64999998 -0.57700002 2 0 0
1.724 -0.64600003 -0.57499999 2 0 0
1.732 -0.64399999 -0.57499999 2 0 0
1.738 -0.64099997 -0.574 2 0 0
1.745 -0.639 -0.574 2 0 0
1.75 -0.63599998 -0.57300001 2 0 0
1.761 -0.634 -0.57300001 2 0 0
1.7690001 -0.63200003 -0.57300001 2 0 0
1.773 -0.62800002 -0.57099998 2 0 0
1.777 -0.625 -0.56900001 2 0 0
1.7819999 -0.62099999 -0.56800002 150 16 0
1.796 -0.62099999 -0.56900001 150 16 0
1.801 -0.61799997 -0.56800002 150 16 0
1.807 -0.61400002 -0.56699997 150 16 0
1.816 -0.61199999 -0.56599998 150 16 0
1.8200001 -0.60799998 -0.56400001 150 16 0
1.831 -0.60600001 -0.56400001 150 16 0
1.835 -0.60299999 -0.56199998 150 16 0
1.845 -0.60100001 -0.56199998 150 16 0
1.854 -0.59799999 -0.56099999 150 16 0
1.858 -0.59399998 -0.55900002 150 16 0
1.86 -0.58999997 -0.55599999 150 16 0
1.872 -0.588 -0.55599999 150 16 0
1.8789999 -0.58499998 -0.55500001 150 16 0
1.881 -0.57999998 -0.55199999 150 16 0
1.887 -0.57700002 -0.55000001 150 16 0
1.904 -0.57700002 -0.551 150 16 0
1.911 -0.57300001 -0.55000001 150 16 0
1.916 -0.56900001 -0.54699999 150 16 0
1.921 -0.56599998 -0.54500002 150 16 0
1.933 -0.56400001 -0.54500002 150 16 0
1.943 -0.56099999 -0.54400003 150 16 0
1.946 -0.55699998 -0.54100001 150 16 0
1.951 -0.55299997 -0.53799999 150 16 0
1.961 -0.55000001 -0.537 150 16 0
1.97 -0.54699999 -0.53500003 150 16 0
1.9809999 -0.54500002 -0.53500003 138 16 0
1.987 -0.54100001 -0.53200001 120 16 0
1.9960001 -0.53799999 -0.52999997 117 16 0
2.006 -0.53500003 -0.52899998 120 16 0
2.013 -0.53100002 -0.52700001 117 16 0
2.0239999 -0.52899998 -0.52600002 118 16 0
2.033 -0.52600002 -0.52399999 126 16 0
2.0369999 -0.52100003 -0.51999998 116 16 0
2.0480001 -0.51899999 -0.51899999 110 16 0
2.053 -0.514 -0.51599997 116 16 0
2.0639999 -0.51200002 -0.51499999 103 16 0
2.073 -0.50800002 -0.51200002 111 16 0
2.0799999 -0.50400001 -0.50999999 95 16 0
2.095 -0.50199997 -0.509 100 16 0
2.0969999 -0.49700001 -0.505 93 16 0
2.105 -0.49399999 -0.50199997 94 16 0
2.1229999 -0.49200001 -0.50199997 96 16 0
2.131 -0.48800001 -0.49900001 91 16 0
2.142 -0.48500001 -0.498 96 16 0
2.1489999 -0.48100001 -0.495 86 16 0
2.158 -0.47799999 -0.49200001 81 16 0
2.1670001 -0.47400001 -0.48899999 86 16 0
2.1760001 -0.47 -0.486 76 16 0
2.1860001 -0.46700001 -0.484 87 16 0
2.198 -0.46399999 -0.48199999 73 16 0
2.2060001 -0.46000001 -0.479 78 16 0
2.211 -0.45500001 -0.47499999 83 16 0
2.2219999 -0.45199999 -0.47299999 76 16 0
2.234 -0.449 -0.47 75 16 0
2.2420001 -0.44400001 -0.46700001 74 16 0
2.25 -0.44 -0.46399999 72 16 0
2.2609999 -0.43700001 -0.461 69 16 0
2.2709999 -0.433 -0.458 65 16 0
2.2809999 -0.42899999 -0.45500001 66 16 0
2.296 -0.426 -0.45199999 62 16 0
2.3 -0.421 -0.44800001 57 16 0
2.313 -0.41800001 -0.44600001 61 16 0
2.3269999 -0.414 -0.44299999 58 16 0
2.3329999 -0.41 -0.43900001 50 16 0
2.3469999 -0.40700001 -0.43599999 49 16 0
2.3529999 -0.40200001 -0.43200001 58 16 0
2.3659999 -0.398 -0.42899999 62 16 0
2.378 -0.39399999 -0.426 63 16 0
2.3829999 -0.389 -0.421 55 16 0
2.3970001 -0.38600001 -0.41800001 57 16 0
2.4030001 -0.38100001 -0.414 53 16 0
2.424 -0.37799999 -0.412 39 16 0
2.4330001 -0.37400001 -0.40799999 49 16 0
2.444 -0.37 -0.40400001 46 16 0
2.4530001 -0.36500001 -0.40000001 44 16 0
2.4660001 -0.361 -0.396 44 16 0
2.473 -0.35600001 -0.39199999 43 16 0
2.4879999 -0.352 -0.38800001 40 16 0
2.4920001 -0.347 -0.38299999 47 16 0
2.5079999 -0.34299999 -0.38 33 16 0
2.517 -0.33899999 -0.37599999 33 16 0
2.527 -0.33399999 -0.37099999 33 16 0
2.5420001 -0.33000001 -0.36700001 33 16 0
2.556 -0.32600001 -0.36300001 33 16 0
2.569 -0.32100001 -0.359 34 16 0
2.5769999 -0.317 -0.354 34 16 0
2.5869999 -0.31200001 -0.34999999 33 16 0
2.5999999 -0.30700001 -0.345 34 16 0
2.615 -0.303 -0.34099999 32 16 0
2.619 -0.29699999 -0.336 29 16 0
2.6340001 -0.29300001 -0.331 32 16 0
2.6489999 -0.289 -0.32699999 32 16 0
2.665 -0.28400001 -0.32300001 30 16 0
2.6760001 -0.27900001 -0.31799999 33 16 0
2.6889999 -0.27500001 -0.31299999 34 16 0
2.704 -0.27000001 -0.308 31 16 0
2.7130001 -0.26499999 -0.303 31 16 0
2.7219999 -0.259 -0.29699999 29 16 0
2.7320001 -0.25400001 -0.292 31 16 0
2.7490001 -0.25 -0.287 31 16 0
2.7650001 -0.245 -0.28200001 31 16 0
2.773 -0.23899999 -0.27599999 30 16 0
2.7920001 -0.235 -0.27200001 32 16 0
2.8 -0.229 -0.266 31 16 0
2.8139999 -0.22400001 -0.25999999 30 16 0
2.8340001 -0.219 -0.255 31 16 0
2.839 -0.214 -0.249 30 16 0
2.858 -0.20900001 -0.244 30 16 0
2.869 -0.20299999 -0.23800001 30 16 0
2.885 -0.198 -0.23199999 31 16 0
2.895 -0.192 -0.226 29 16 0
2.9100001 -0.18700001 -0.22 29 16 0
2.927 -0.182 -0.214 28 16 0
2.9430001 -0.176 -0.208 28 16 0
2.964 -0.171 -0.20200001 28 16 0
2.97 -0.16500001 -0.19599999 28 16 0
2.987 -0.16 -0.19 27 16 0
2.9979999 -0.154 -0.183 28 16 0
3.023 -0.149 -0.177 28 16 0
3.039 -0.14300001 -0.171 28 16 0
3.056 -0.13699999 -0.164 28 16 0
3.073 -0.132 -0.15700001 28 16 0
3.0880001 -0.126 -0.15099999 28 16 0
3.1010001 -0.12 -0.14399999 28 16 0
3.119 -0.114 -0.13699999 28 16 0
3.135 -0.108 -0.13 29 16 0
3.154 -0.102 -0.123 29 16 0
3.1670001 -0.094999999 -0.115 28 16 0
3.1860001 -0.089000002 -0.108 29 16 0
3.2 -0.082999997 -0.101 29 16 0
3.221 -0.077 -0.093000002 34 16 0
3.2349999 -0.07 -0.086000003 89 16 0
3.2379999 -0.064000003 -0.078000002 150 16 0
3.2360001 -0.057 -0.07 150 16 0
3.243 -0.050000001 -0.061999999 150 16 0
3.2420001 -0.044 -0.054000001 150 16 0
3.237 -0.037 -0.045000002 150 16 0
3.24 -0.029999999 -0.037 150 16 0
3.24 -0.024 -0.028999999 150 16 0
3.2409999 -0.017000001 -0.021 48 16 0
3.244 -0.0099999998 -0.013 24 16 0
3.2650001 -0.0040000002 -0.0049999999 18 16 0
3.279 0.0020000001 0.0020000001 19 16 0
3.3010001 0.0080000004 0.011 20 16 0
3.3180001 0.015 0.018999999 21 16 0
3.3329999 0.022 0.028000001 26 16 0
3.355 0.028999999 0.035999998 56 16 0
3.346 0.035999998 0.045000002 95 16 0
3.3529999 0.041999999 0.052999999 24 16 0
3.3239999 0.048999999 0.061000001 4 16 0
3.2980001 0.055 0.068999998 12 16 0
3.3050001 0.061999999 0.078000002 15 16 0
3.3280001 0.068999998 0.086999997 19 16 0
3.326 0.075000003 0.094999999 36 16 0
3.3039999 0.081 0.103 32 16 0
3.2869999 0.086999997 0.111 32 16 0
3.267 0.093000002 0.119 34 16 0
3.2490001 0.098999999 0.127 54 16 0
3.2449999 0.105 0.13500001 150 16 0
3.2479999 0.112 0.14300001 150 16 0
3.247 0.118 0.152 150 16 0
3.247 0.125 0.16 150 16 0
3.247 0.131 0.168 150 16 0
3.2490001 0.13699999 0.177 150 16 0
3.25 0.14399999 0.185 150 16 0
3.2490001 0.15000001 0.19400001 150 16 0
3.25 0.156 0.20200001 150 16 0
3.2479999 0.162 0.211 150 16 0
3.164 0.164 0.214 150 17 0
3.066 0.16500001 0.215 32 19 0
3.0309999 0.169 0.221 28 16 0
3.1340001 0.18099999 0.236 150 16 0
3.2460001 0.193 0.25299999 150 16 0
3.25 0.2 0.26199999 150 16 0
3.253 0.206 0.271 150 16 0
3.2509999 0.212 0.28 150 16 0
3.2460001 0.21799999 0.28799999 150 16 0
3.2579999 0.22499999 0.29800001 150 16 0
3.253 0.23100001 0.30599999 150 16 0
3.2520001 0.237 0.31400001 150 16 0
3.256 0.243 0.32300001 150 16 0
3.256 0.249 0.33199999 150 16 0
3.2579999 0.25600001 0.34099999 150 16 0
3.2590001 0.26199999 0.34999999 150 16 0
3.2590001 0.26800001 0.359 150 16 0
3.26 0.27399999 0.368 150 16 0
3.2579999 0.28 0.37599999 150 16 0
3.2579999 0.28600001 0.38499999 150 16 0
3.2550001 0.29100001 0.39399999 150 16 0
3.244 0.296 0.40099999 47 16 0
3.223 0.30000001 0.40700001 44 16 0
3.2130001 0.30500001 0.41499999 43 16 0
3.191 0.30899999 0.421 43 16 0
3.1789999 0.31400001 0.428 46 16 0
3.1659999 0.31799999 0.435 45 16 0
3.151 0.322 0.44100001 47 16 0
3.132 0.32600001 0.447 44 16 0
3.1199999 0.331 0.454 41 16 0
3.105 0.33399999 0.461 43 16 0
3.085 0.338 0.46599999 42 16 0
3.0739999 0.34200001 0.47299999 44 16 0
3.0599999 0.34599999 0.479 44 16 0
3.0420001 0.34900001 0.48500001 41 16 0
3.03 0.35299999 0.49200001 43 16 0
3.013 0.35699999 0.49700001 45 16 0
3.003 0.361 0.50400001 45 16 0
2.9909999 0.36500001 0.50999999 43 16 0
2.971 0.36700001 0.51499999 44 16 0
2.9590001 0.37099999 0.52200001 47 16 0
2.947 0.375 0.528 51 16 0
2.927 0.377 0.53200001 61 16 0
2.9170001 0.38100001 0.53899997 60 16 0
2.908 0.38499999 0.546 56 16 0
2.8940001 0.38800001 0.551 70 16 0
2.872 0.38999999 0.55500001 65 16 0
2.8670001 0.39399999 0.56199998 61 16 0
2.855 0.39700001 0.56800002 63 16 0
2.839 0.40000001 0.57300001 59 16 0
2.8280001 0.403 0.579 70 16 0
2.8169999 0.40599999 0.58499998 70 16 0
2.8010001 0.40900001 0.58999997 73 16 0
2.793 0.412 0.59600002 70 16 0
2.7809999 0.41499999 0.602 77 16 0
2.77 0.41800001 0.60799998 77 16 0
2.756 0.421 0.61299998 79 16 0
2.7409999 0.42300001 0.61699998 81 16 0
2.7320001 0.426 0.62300003 74 16 0
2.7179999 0.428 0.62800002 84 16 0
2.7060001 0.43099999 0.63300002 86 16 0
2.6949999 0.43399999 0.63800001 83 16 0
2.684 0.43599999 0.64399999 89 16 0
2.6700001 0.43799999 0.648 84 16 0
2.6559999 0.44 0.653 94 16 0
2.6489999 0.44299999 0.65899998 97 16 0
2.6389999 0.44600001 0.66399997 101 16 0
2.6289999 0.44800001 0.67000002 101 16 0
2.615 0.44999999 0.67400002 96 16 0
2.6040001 0.45199999 0.67900002 85 16 0
2.595 0.45500001 0.68400002 85 16 0
2.586 0.45699999 0.69 94 16 0
2.5769999 0.46000001 0.69499999 109 16 0
2.559 0.46000001 0.69800001 103 16 0
2.5469999 0.46200001 0.70200002 99 16 0
2.5409999 0.465 0.708 92 16 0
