# .PCD v0.7 - Point Cloud Data file format
VERSION 0.7
FIELDS x y z intensity tag line
SIZE 4 4 4 4 1 1
TYPE F F F F U U
COUNT 1 1 1 1 1 1
WIDTH 1359
HEIGHT 1
VIEWPOINT 0 0 0 1 0 0 0
POINTS 1359
DATA ascii
1.812 -0.78299999 0.389 127 16 0
1.8150001 -0.77899998 0.38600001 127 16 0
1.822 -0.778 0.384 132 16 0
1.826 -0.77399999 0.38100001 117 16 0
1.83 -0.77100003 0.37799999 108 16 0
1.8380001 -0.76999998 0.37599999 116 16 0
1.837 -0.764 0.37200001 109 16 0
1.845 -0.76300001 0.37 125 16 0
1.848 -0.759 0.36700001 109 16 0
1.853 -0.75599998 0.36399999 108 16 0
1.8559999 -0.75199997 0.361 107 16 0
1.86 -0.74900001 0.35800001 110 16 0
1.8660001 -0.74599999 0.35499999 89 16 0
1.882 -0.74699998 0.354 97 16 0
1.885 -0.74299997 0.35100001 93 16 0
1.893 -0.741 0.34900001 86 16 0
1.898 -0.73799998 0.34599999 88 16 0
1.904 -0.73500001 0.34400001 89 16 0
1.9119999 -0.73299998 0.34099999 86 16 0
1.915 -0.72799999 0.338 81 16 0
1.92 -0.72500002 0.33500001 88 16 0
1.926 -0.72100002 0.333 86 16 0
1.933 -0.71899998 0.33000001 85 16 0
1.939 -0.71499997 0.32800001 85 16 0
1.9450001 -0.71200001 0.32499999 87 16 0
1.949 -0.708 0.322 83 16 0
1.956 -0.70499998 0.31900001 78 16 0
1.964 -0.70200002 0.317 86 16 0
1.97 -0.69800001 0.31400001 85 16 0
1.978 -0.69599998 0.31200001 86 16 0
1.9809999 -0.69099998 0.30899999 81 16 0
1.988 -0.68800002 0.30700001 80 16 0
1.999 -0.68599999 0.30500001 85 16 0
2.0020001 -0.68099999 0.301 78 16 0
2.013 -0.67900002 0.30000001 70 16 0
2.017 -0.67400002 0.29699999 72 16 0
2.0280001 -0.67199999 0.29499999 77 16 0
2.0320001 -0.667 0.292 80 16 0
2.0450001 -0.66600001 0.28999999 76 16 0
2.0480001 -0.66100001 0.287 78 16 0
2.0569999 -0.65799999 0.28400001 75 16 0
2.063 -0.65399998 0.28200001 68 16 0
2.069 -0.64899999 0.27900001 69 16 0
2.0739999 -0.64499998 0.27599999 68 16 0
2.0869999 -0.64300001 0.27399999 70 16 0
2.0899999 -0.63700002 0.271 68 16 0
2.098 -0.634 0.26899999 62 16 0
2.1059999 -0.63 0.266 65 16 0
2.115 -0.62599999 0.264 69 16 0
2.1240001 -0.62300003 0.26199999 61 16 0
2.132 -0.61900002 0.259 63 16 0
2.1370001 -0.61400002 0.25600001 59 16 0
2.155 -0.61299998 0.255 59 16 0
2.164 -0.60900003 0.252 55 16 0
2.168 -0.60399997 0.249 55 16 0
2.1800001 -0.60000002 0.24699999 53 16 0
2.1849999 -0.59500003 0.244 43 16 0
2.1960001 -0.59200001 0.242 41 16 0
2.2019999 -0.58700001 0.23899999 43 16 0
2.2130001 -0.583 0.237 46 16 0
2.2190001 -0.57800001 0.234 47 16 0
2.2309999 -0.574 0.23199999 44 16 0
2.2390001 -0.56999999 0.23 45 16 0
2.2460001 -0.565 0.227 47 16 0
2.26 -0.56199998 0.22499999 43 16 0
2.2650001 -0.55599999 0.222 43 16 0
2.273 -0.551 0.219 41 16 0
2.283 -0.54699999 0.21699999 37 16 0
2.2980001 -0.54299998 0.215 39 16 0
2.303 -0.53799999 0.212 43 16 0
2.312 -0.53299999 0.20900001 40 16 0
2.322 -0.528 0.207 38 16 0
2.3380001 -0.52499998 0.205 41 16 0
2.346 -0.51999998 0.20200001 40 16 0
2.355 -0.514 0.2 31 16 0
2.3659999 -0.50999999 0.197 29 16 0
2.3770001 -0.505 0.19499999 39 16 0
2.3900001 -0.5 0.193 39 16 0
2.398 -0.495 0.19 41 16 0
2.4100001 -0.49000001 0.18700001 42 16 0
2.4219999 -0.48500001 0.185 40 16 0
2.4300001 -0.479 0.182 38 16 0
2.441 -0.47400001 0.18000001 33 16 0
2.4530001 -0.46900001 0.177 37 16 0
2.4660001 -0.46399999 0.175 27 16 0
2.47 -0.458 0.17200001 27 16 0
2.4849999 -0.45300001 0.17 28 16 0
2.4920001 -0.44600001 0.167 26 16 0
2.507 -0.442 0.164 26 16 0
2.5139999 -0.435 0.162 26 16 0
2.526 -0.43000001 0.15899999 28 16 0
2.5380001 -0.42399999 0.15700001 26 16 0
2.553 -0.419 0.154 26 16 0
2.566 -0.41299999 0.152 27 16 0
2.5799999 -0.40799999 0.149 27 16 0
2.585 -0.40099999 0.146 26 16 0
2.599 -0.39500001 0.14399999 26 16 0
2.609 -0.38800001 0.141 25 16 0
2.6240001 -0.38299999 0.138 26 16 0
2.638 -0.377 0.13600001 27 16 0
2.654 -0.37099999 0.133 26 16 0
2.664 -0.36399999 0.131 26 16 0
2.677 -0.35800001 0.12800001 27 16 0
2.6919999 -0.352 0.125 26 16 0
2.7060001 -0.345 0.123 27 16 0
2.7179999 -0.33899999 0.12 27 16 0
2.7249999 -0.331 0.117 25 16 0
2.7409999 -0.32499999 0.114 26 16 0
2.76 -0.31900001 0.112 26 16 0
2.766 -0.31099999 0.109 26 16 0
2.783 -0.30399999 0.106 26 16 0
2.799 -0.29800001 0.104 27 16 0
2.809 -0.28999999 0.101 25 16 0
2.8299999 -0.28400001 0.097999997 25 16 0
2.839 -0.27599999 0.094999999 25 16 0
2.859 -0.26899999 0.092 25 16 0
2.8710001 -0.26100001 0.090000004 25 16 0
2.8859999 -0.25400001 0.086999997 27 16 0
2.898 -0.24600001 0.083999999 25 16 0
2.918 -0.23899999 0.081 26 16 0
2.934 -0.23100001 0.078000002 25 16 0
2.951 -0.22400001 0.075999998 25 16 0
2.9649999 -0.21600001 0.072999999 24 16 0
2.9849999 -0.208 0.07 25 16 0
3 -0.2 0.067000002 25 16 0
3.0120001 -0.191 0.064000003 25 16 0
3.0380001 -0.184 0.061000001 25 16 0
3.059 -0.176 0.057999998 26 16 0
3.0780001 -0.167 0.055 24 16 0
3.0910001 -0.15899999 0.052000001 25 16 0
3.1070001 -0.15000001 0.048999999 25 16 0
3.125 -0.141 0.046 26 16 0
3.145 -0.133 0.043000001 26 16 0
3.1600001 -0.123 0.039999999 25 16 0
3.187 -0.115 0.037 26 16 0
3.2090001 -0.106 0.034000002 26 16 0
3.223 -0.096000001 0.030999999 25 16 0
3.2479999 -0.086999997 0.028000001 26 16 0
3.2709999 -0.077 0.025 29 16 0
3.2780001 -0.067000002 0.021 96 16 0
3.276 -0.057 0.017999999 141 16 0
3.267 -0.046999998 0.015 124 16 0
3.26 -0.037 0.011 111 16 0
3.257 -0.027000001 0.0080000004 111 16 0
3.2539999 -0.017000001 0.0049999999 32 16 0
3.266 -0.0070000002 0.0020000001 17 16 0
3.283 0.0020000001 0 17 16 0
3.306 0.012 -0.0040000002 18 16 0
3.326 0.023 -0.0070000002 31 16 0
3.3210001 0.033 -0.0099999998 50 16 0
3.309 0.043000001 -0.013 55 16 0
3.309 0.052999999 -0.016000001 40 16 0
3.3039999 0.064000003 -0.018999999 48 16 0
3.2939999 0.074000001 -0.022 52 16 0
3.2880001 0.083999999 -0.025 53 16 0
3.28 0.093999997 -0.028000001 52 16 0
3.2739999 0.104 -0.030999999 53 16 0
3.2709999 0.114 -0.034000002 54 16 0
3.2650001 0.124 -0.037 58 16 0
3.2579999 0.133 -0.039999999 54 16 0
3.2449999 0.14300001 -0.043000001 61 16 0
3.2449999 0.153 -0.046 53 16 0
3.2409999 0.163 -0.048999999 61 16 0
3.2349999 0.17299999 -0.050999999 63 16 0
3.23 0.183 -0.054000001 54 16 0
3.22 0.192 -0.057 68 16 0
3.2130001 0.20200001 -0.059 63 16 0
3.204 0.211 -0.061999999 55 16 0
3.2030001 0.221 -0.064999998 68 16 0
3.1989999 0.23100001 -0.067000002 66 16 0
3.1889999 0.23999999 -0.07 62 16 0
3.1849999 0.25 -0.072999999 62 16 0
3.174 0.259 -0.075000003 60 16 0
3.1670001 0.26800001 -0.077 61 16 0
3.164 0.278 -0.079999998 70 16 0
3.1559999 0.28799999 -0.082000002 73 16 0
3.152 0.29699999 -0.085000001 52 16 0
3.1470001 0.30700001 -0.086999997 62 16 0
3.1370001 0.315 -0.090000004 68 16 0
3.1359999 0.32499999 -0.092 66 16 0
3.1289999 0.33500001 -0.093999997 77 16 0
3.1199999 0.34299999 -0.096000001 77 16 0
3.115 0.35299999 -0.098999999 77 16 0
3.105 0.361 -0.101 69 16 0
3.1029999 0.37099999 -0.103 74 16 0
3.0969999 0.38 -0.105 73 16 0
3.0940001 0.389 -0.108 86 16 0
3.0869999 0.398 -0.11 76 16 0
3.0829999 0.40799999 -0.112 88 16 0
3.0710001 0.41600001 -0.114 81 16 0
3.0710001 0.426 -0.116 83 16 0
3.0610001 0.43399999 -0.118 82 16 0
3.0550001 0.44299999 -0.12 99 16 0
3.0480001 0.45199999 -0.122 85 16 0
3.043 0.461 -0.124 90 16 0
3.04 0.47 -0.126 91 16 0
3.033 0.479 -0.12800001 90 16 0
3.0320001 0.48800001 -0.13 91 16 0
3.0220001 0.49700001 -0.131 90 16 0
3.016 0.505 -0.133 95 16 0
3.0120001 0.514 -0.13500001 79 16 0
3.007 0.523 -0.13699999 93 16 0
3 0.53100002 -0.138 80 16 0
2.9979999 0.54100001 -0.14 82 16 0
2.993 0.55000001 -0.142 83 16 0
2.987 0.55800003 -0.14399999 86 16 0
2.9779999 0.56599998 -0.145 73 16 0
2.9749999 0.57499999 -0.147 86 16 0
2.973 0.58499998 -0.149 101 16 0
2.9619999 0.59200001 -0.15000001 91 16 0
2.96 0.60100001 -0.152 104 16 0
2.9519999 0.60900003 -0.153 96 16 0
2.9460001 0.61799997 -0.155 99 16 0
2.9419999 0.62699997 -0.156 98 16 0
2.9360001 0.63499999 -0.15700001 98 16 0
2.937 0.64499998 -0.15899999 96 16 0
2.927 0.65200001 -0.16 113 16 0
2.925 0.66100001 -0.162 104 16 0
2.9200001 0.67000002 -0.163 112 16 0
2.9159999 0.67900002 -0.16500001 112 16 0
2.908 0.68599999 -0.16599999 115 16 0
2.895 0.69300002 -0.167 102 16 0
2.892 0.70099998 -0.168 120 16 0
2.8889999 0.71100003 -0.169 129 16 0
2.8800001 0.71799999 -0.17 106 16 0
2.878 0.727 -0.17200001 112 16 0
2.872 0.73500001 -0.17299999 109 16 0
2.8699999 0.74299997 -0.17399999 130 16 0
2.862 0.75099999 -0.175 142 16 0
2.8610001 0.75999999 -0.176 144 16 0
2.8559999 0.76899999 -0.177 140 16 0
2.8499999 0.77600002 -0.178 143 16 0
2.848 0.78500003 -0.17900001 150 16 0
2.8440001 0.79400003 -0.18000001 150 16 0
2.8369999 0.801 -0.18099999 147 16 0
2.829 0.80900002 -0.182 150 16 0
2.8269999 0.81699997 -0.183 148 16 0
2.8199999 0.82499999 -0.184 140 16 0
2.8180001 0.83399999 -0.185 140 16 0
2.813 0.84200001 -0.185 146 16 0
2.8080001 0.84899998 -0.186 150 16 0
2.802 0.85699999 -0.18700001 150 16 0
2.8 0.866 -0.18799999 150 16 0
2.7950001 0.87400001 -0.18799999 150 16 0
2.7850001 0.88 -0.189 148 16 0
2.783 0.889 -0.189 150 16 0
2.78 0.89700001 -0.19 136 16 0
2.776 0.90499997 -0.191 150 16 0
2.7739999 0.91399997 -0.192 150 16 0
2.7620001 0.91900003 -0.192 150 16 0
2.7639999 0.92900002 -0.193 143 16 0
2.756 0.93599999 -0.193 150 16 0
2.753 0.94499999 -0.193 150 16 0
2.7479999 0.95200002 -0.19400001 147 16 0
2.7479999 0.96100003 -0.19400001 47 16 0
2.757 0.97399998 -0.19599999 37 16 0
2.7390001 0.977 -0.19499999 142 16 0
2.7349999 0.98500001 -0.19499999 150 16 0
2.727 0.991 -0.19499999 150 16 0
2.724 0.99900001 -0.19599999 150 16 0
2.721 1.007 -0.19599999 150 16 0
2.7160001 1.015 -0.19599999 150 16 0
2.7130001 1.023 -0.19599999 150 16 0
2.7049999 1.029 -0.19599999 150 16 0
2.697 1.035 -0.19599999 144 16 0
2.701 1.046 -0.197 150 16 0
2.691 1.051 -0.19599999 150 16 0
2.6900001 1.0599999 -0.19599999 150 16 0
2.684 1.067 -0.19599999 150 16 0
2.681 1.075 -0.19599999 150 16 0
2.6730001 1.081 -0.19599999 150 16 0
2.6730001 1.09 -0.19599999 150 16 0
2.6689999 1.097 -0.19599999 150 16 0
2.6670001 1.105 -0.19599999 150 16 0
2.6589999 1.1109999 -0.19499999 145 16 0
2.6600001 1.1210001 -0.19499999 150 16 0
2.654 1.127 -0.19499999 150 16 0
2.651 1.135 -0.19499999 150 16 0
2.6489999 1.143 -0.19499999 150 16 0
2.6440001 1.15 -0.19400001 150 16 0
2.638 1.156 -0.19400001 150 16 0
2.6329999 1.163 -0.193 150 16 0
2.6300001 1.171 -0.193 150 16 0
2.6270001 1.178 -0.192 150 16 0
2.628 1.188 -0.192 150 16 0
2.6199999 1.193 -0.191 150 16 0
2.6170001 1.2 -0.191 150 16 0
2.6140001 1.2079999 -0.19 150 16 0
2.6099999 1.215 -0.189 150 16 0
2.6070001 1.222 -0.189 150 16 0
2.6040001 1.229 -0.18799999 150 16 0
2.602 1.237 -0.18700001 150 16 0
2.5969999 1.243 -0.186 150 16 0
2.5940001 1.251 -0.186 150 16 0
2.5899999 1.258 -0.185 150 16 0
2.5869999 1.265 -0.184 150 16 0
2.5840001 1.272 -0.183 150 16 0
2.5799999 1.278 -0.182 150 16 0
2.5769999 1.285 -0.18099999 150 16 0
2.5739999 1.2920001 -0.18000001 150 16 0
2.5699999 1.299 -0.17900001 150 16 0
2.5669999 1.306 -0.178 150 16 0
2.566 1.314 -0.177 150 16 0
2.5599999 1.319 -0.175 150 16 0
2.5569999 1.326 -0.17399999 150 16 0
2.553 1.332 -0.17299999 150 16 0
2.55 1.339 -0.17200001 150 16 0
2.5469999 1.345 -0.17 150 16 0
2.546 1.353 -0.169 150 16 0
2.5450001 1.36 -0.168 150 16 0
2.54 1.3660001 -0.16599999 150 16 0
2.5350001 1.3710001 -0.16500001 150 16 0
2.53 1.377 -0.163 150 16 0
2.5280001 1.383 -0.162 150 16 0
2.53 1.392 -0.161 150 16 0
2.5280001 1.399 -0.15899999 150 16 0
2.5239999 1.405 -0.15700001 150 16 0
2.5209999 1.411 -0.156 150 16 0
2.52 1.418 -0.154 150 16 0
2.516 1.424 -0.152 150 16 0
2.5179999 1.432 -0.15099999 150 16 0
2.51 1.4349999 -0.149 150 16 0
2.507 1.441 -0.147 150 16 0
2.5079999 1.449 -0.145 150 16 0
2.5009999 1.452 -0.14300001 150 16 0
2.5020001 1.46 -0.141 150 16 0
2.4990001 1.467 -0.139 150 16 0
2.5020001 1.475 -0.138 150 16 0
2.4990001 1.4809999 -0.13600001 150 16 0
2.494 1.485 -0.133 150 16 0
2.4909999 1.49 -0.131 150 16 0
2.493 1.498 -0.12899999 150 16 0
2.4920001 1.5039999 -0.127 150 16 0
2.487 1.508 -0.125 150 16 0
2.4860001 1.5140001 -0.123 150 16 0
2.483 1.5190001 -0.12 150 16 0
2.48 1.524 -0.118 150 16 0
2.4779999 1.53 -0.116 150 16 0
2.477 1.535 -0.113 150 16 0
2.474 1.54 -0.111 150 16 0
2.4749999 1.5470001 -0.108 150 16 0
2.474 1.553 -0.106 150 16 0
2.471 1.557 -0.104 150 16 0
2.4660001 1.5599999 -0.101 150 16 0
2.4690001 1.568 -0.097999997 150 16 0
2.4660001 1.572 -0.096000001 150 16 0
2.461 1.575 -0.093000002 150 16 0
2.4630001 1.582 -0.090999998 150 16 0
2.46 1.586 -0.088 150 16 0
2.4579999 1.59 -0.085000001 150 16 0
2.4590001 1.596 -0.082999997 150 16 0
2.4560001 1.6 -0.079999998 150 16 0
2.454 1.603 -0.077 150 16 0
2.451 1.607 -0.074000001 150 16 0
2.457 1.6160001 -0.071000002 150 16 0
2.454 1.619 -0.068000004 150 16 0
2.4519999 1.623 -0.066 150 16 0
2.4530001 1.628 -0.063000001 150 16 0
2.4460001 1.628 -0.059999999 150 16 0
2.448 1.6339999 -0.057 150 16 0
2.4460001 1.637 -0.054000001 150 16 0
2.4489999 1.643 -0.050999999 147 16 0
2.447 1.647 -0.048 144 16 0
2.4489999 1.652 -0.045000002 150 16 0
2.444 1.653 -0.041000001 141 16 0
2.4419999 1.655 -0.037999999 150 16 0
2.448 1.664 -0.035 147 16 0
2.444 1.664 -0.032000002 145 16 0
2.444 1.668 -0.028999999 150 16 0
2.4430001 1.671 -0.025 150 16 0
2.444 1.674 -0.022 150 16 0
2.444 1.678 -0.018999999 150 16 0
2.444 1.681 -0.016000001 150 16 0
2.4449999 1.6849999 -0.012 150 16 0
2.4449999 1.688 -0.0089999996 150 16 0
2.4460001 1.691 -0.0060000001 150 16 0
2.4430001 1.692 -0.0020000001 150 16 0
2.441 1.693 0 150 16 0
2.4460001 1.699 0.003 150 16 0
2.4449999 1.701 0.0070000002 150 16 0
2.4460001 1.7029999 0.0099999998 150 16 0
2.447 1.706 0.014 97 16 0
2.4449999 1.706 0.017000001 47 16 0
2.448 1.71 0.02 42 16 0
2.451 1.714 0.024 39 16 0
2.4460001 1.712 0.027000001 38 16 0
2.447 1.715 0.030999999 40 16 0
2.448 1.716 0.034000002 45 16 0
2.4449999 1.715 0.037999999 53 16 0
2.447 1.7180001 0.041000001 92 16 0
2.444 1.716 0.045000002 126 16 0
2.4430001 1.717 0.048 139 16 0
2.444 1.717 0.050999999 149 16 0
2.4460001 1.719 0.055 150 16 0
2.4549999 1.726 0.059 150 19 0
2.4530001 1.725 0.061999999 149 16 0
2.4560001 1.727 0.066 149 16 0
2.4549999 1.726 0.068999998 150 16 0
2.457 1.727 0.072999999 144 16 0
2.46 1.729 0.075999998 149 16 0
2.46 1.728 0.079999998 143 16 0
2.4619999 1.729 0.082999997 144 16 0
2.464 1.73 0.086999997 137 16 0
2.4649999 1.729 0.090000004 143 16 0
2.464 1.728 0.093999997 137 16 0
2.4679999 1.729 0.097000003 150 16 0
2.4690001 1.729 0.101 128 16 0
2.4690001 1.727 0.104 135 16 0
2.4719999 1.728 0.107 146 16 0
2.471 1.725 0.111 149 16 0
2.4749999 1.726 0.114 145 16 0
2.4779999 1.726 0.118 141 16 0
2.4790001 1.725 0.121 140 16 0
2.4820001 1.725 0.125 139 16 0
2.483 1.723 0.12800001 138 16 0
2.484 1.721 0.131 124 16 0
2.49 1.722 0.13500001 101 16 0
2.494 1.723 0.138 88 16 0
2.493 1.719 0.141 58 16 0
2.4990001 1.72 0.145 46 16 0
2.503 1.72 0.148 43 16 0
2.507 1.719 0.152 40 16 0
2.507 1.715 0.155 40 16 0
2.51 1.714 0.15800001 42 16 0
2.5139999 1.7130001 0.161 53 16 0
2.5079999 1.705 0.164 87 16 0
2.517 1.707 0.168 124 16 0
2.517 1.7029999 0.171 139 16 0
2.52 1.701 0.17399999 136 16 0
2.526 1.701 0.177 146 16 0
2.5239999 1.6950001 0.18000001 146 16 0
2.5309999 1.6950001 0.183 147 16 0
2.533 1.692 0.186 146 16 0
2.5339999 1.688 0.189 144 16 0
2.5409999 1.688 0.192 143 16 0
2.543 1.684 0.19499999 141 16 0
2.5450001 1.6799999 0.198 136 16 0
2.546 1.676 0.2 150 16 0
2.5510001 1.673 0.20299999 135 16 0
2.553 1.669 0.206 150 16 0
2.5580001 1.6670001 0.20900001 150 16 0
2.5599999 1.663 0.212 150 16 0
2.563 1.659 0.214 147 16 0
2.5650001 1.655 0.21699999 150 16 0
2.5680001 1.651 0.22 150 16 0
2.5699999 1.646 0.222 142 16 0
2.573 1.642 0.22499999 143 16 0
2.576 1.638 0.227 150 16 0
2.5780001 1.633 0.23 147 16 0
2.5840001 1.63 0.23199999 150 16 0
2.586 1.625 0.235 150 16 0
2.5899999 1.6210001 0.237 150 16 0
2.595 1.617 0.23999999 150 16 0
2.596 1.6109999 0.242 150 16 0
2.6010001 1.607 0.244 150 16 0
2.6059999 1.603 0.24600001 150 16 0
2.6099999 1.599 0.249 150 16 0
2.6099999 1.592 0.25 150 16 0
2.6129999 1.586 0.25299999 150 16 0
2.6210001 1.584 0.255 150 16 0
2.6229999 1.5779999 0.257 150 16 0
2.6259999 1.572 0.259 148 16 0
2.632 1.569 0.26100001 150 16 0
2.632 1.561 0.26300001 150 16 0
2.6370001 1.556 0.26499999 150 16 0
2.631 1.545 0.26499999 66 16 0
2.618 1.53 0.26499999 34 16 0
2.6099999 1.517 0.266 40 16 0
2.6099999 1.51 0.26699999 58 16 0
2.6110001 1.502 0.26899999 43 16 0
2.625 1.502 0.271 34 16 0
2.6400001 1.503 0.27399999 30 16 0
2.632 1.4910001 0.27399999 29 16 0
2.6259999 1.479 0.27500001 30 16 0
2.632 1.474 0.27599999 34 16 0
2.631 1.466 0.27700001 42 16 0
2.635 1.46 0.27900001 56 16 0
2.6329999 1.451 0.28 95 16 0
2.6300001 1.441 0.28 150 16 0
2.638 1.437 0.28200001 150 16 0
2.642 1.4299999 0.28299999 150 16 0
2.641 1.4220001 0.28400001 150 16 0
2.645 1.415 0.285 150 16 0
2.652 1.411 0.28600001 150 16 0
2.652 1.402 0.287 150 16 0
2.655 1.395 0.28799999 150 16 0
2.6619999 1.39 0.289 150 16 0
2.6659999 1.383 0.28999999 150 16 0
2.6689999 1.377 0.29100001 150 16 0
2.6900001 1.378 0.29300001 145 16 0
2.7219999 1.386 0.29699999 110 16 0
2.7409999 1.387 0.30000001 132 16 0
2.744 1.3789999 0.30000001 150 16 0
2.744 1.37 0.30000001 150 16 0
2.75 1.364 0.301 150 16 0
2.753 1.3559999 0.30199999 150 16 0
2.757 1.349 0.30199999 150 16 0
2.7579999 1.34 0.30199999 150 16 0
2.7690001 1.336 0.30399999 150 16 0
2.7690001 1.327 0.30399999 150 16 0
2.7720001 1.3200001 0.30399999 150 16 0
2.779 1.314 0.30500001 150 16 0
2.7809999 1.3049999 0.30500001 150 16 0
2.7869999 1.298 0.30500001 150 16 0
2.7939999 1.2920001 0.30599999 150 16 0
2.7920001 1.2819999 0.30500001 150 16 0
2.7969999 1.275 0.30500001 107 16 0
2.8010001 1.267 0.30500001 95 16 0
2.8080001 1.261 0.30599999 75 16 0
2.809 1.252 0.30599999 53 16 0
2.812 1.244 0.30500001 47 16 0
2.809 1.233 0.30500001 41 16 0
2.812 1.225 0.30399999 39 16 0
2.813 1.216 0.30399999 32 16 0
2.813 1.206 0.303 32 16 0
2.816 1.198 0.303 32 16 0
2.8180001 1.189 0.303 33 16 0
2.8169999 1.179 0.30199999 32 16 0
2.8199999 1.171 0.301 32 16 0
2.819 1.161 0.30000001 32 16 0
2.819 1.151 0.29899999 32 16 0
2.822 1.143 0.29899999 31 16 0
2.825 1.135 0.29800001 32 16 0
2.822 1.124 0.29699999 33 16 0
2.8269999 1.1160001 0.29699999 31 16 0
2.829 1.107 0.296 33 16 0
2.8299999 1.098 0.29499999 31 16 0
2.8340001 1.09 0.294 31 16 0
2.839 1.082 0.294 32 16 0
2.8369999 1.072 0.292 32 16 0
2.8399999 1.063 0.29100001 33 16 0
2.846 1.056 0.29100001 34 16 0
2.8469999 1.0470001 0.28999999 34 16 0
2.849 1.038 0.289 32 16 0
2.8529999 1.03 0.28799999 33 16 0
2.8559999 1.021 0.287 33 16 0
2.8559999 1.011 0.285 33 16 0
2.862 1.0039999 0.285 33 16 0
2.8629999 0.995 0.28299999 33 16 0
2.8640001 0.98500001 0.28200001 31 16 0
2.8640001 0.97600001 0.28 34 16 0
2.872 0.96899998 0.28 33 16 0
2.8770001 0.96100003 0.27900001 33 16 0
2.875 0.94999999 0.27700001 34 16 0
2.8759999 0.94099998 0.27500001 33 16 0
2.8859999 0.935 0.27500001 34 16 0
2.8859999 0.92500001 0.273 34 16 0
2.892 0.917 0.27200001 34 16 0
2.895 0.90899998 0.271 35 16 0
2.901 0.90100002 0.26899999 35 16 0
2.901 0.89099997 0.26800001 35 16 0
2.904 0.88200003 0.266 35 16 0
2.9070001 0.87400001 0.26499999 33 16 0
2.9070001 0.86400002 0.26300001 32 16 0
2.915 0.85699999 0.26100001 33 16 0
2.921 0.84899998 0.25999999 34 16 0
2.9200001 0.83899999 0.25799999 34 16 0
2.927 0.83099997 0.257 32 16 0
2.931 0.82300001 0.255 34 16 0
2.9349999 0.81400001 0.25299999 32 16 0
2.938 0.80500001 0.252 33 16 0
2.9449999 0.79699999 0.25 34 16 0
2.9449999 0.78799999 0.248 32 16 0
2.951 0.77999997 0.24600001 32 16 0
2.957 0.77100003 0.245 31 16 0
2.9630001 0.76300001 0.243 31 16 0
2.9649999 0.75400001 0.241 31 16 0
2.9760001 0.74699998 0.23999999 31 16 0
2.98 0.73799998 0.23800001 30 16 0
2.9809999 0.72899997 0.235 32 16 0
2.9909999 0.722 0.234 31 16 0
2.9949999 0.713 0.23199999 30 16 0
2.9979999 0.704 0.23 30 16 0
3.0009999 0.69499999 0.228 30 16 0
3.0090001 0.68699998 0.226 29 16 0
3.0120001 0.67799997 0.22400001 30 16 0
3.016 0.66900003 0.221 30 16 0
3.0179999 0.66000003 0.219 30 16 0
3.0220001 0.65100002 0.21699999 30 16 0
3.0350001 0.64399999 0.215 30 16 0
3.0369999 0.634 0.213 29 16 0
3.0420001 0.62599999 0.211 30 16 0
3.049 0.61699998 0.208 30 16 0
3.0569999 0.60900003 0.206 30 16 0
3.0610001 0.60000002 0.204 29 16 0
3.0669999 0.59200001 0.20200001 29 16 0
3.072 0.583 0.199 29 16 0
3.0799999 0.574 0.197 30 16 0
3.085 0.56599998 0.19499999 30 16 0
3.0899999 0.55699998 0.192 31 16 0
3.095 0.54799998 0.19 31 16 0
3.1059999 0.54000002 0.18700001 31 16 0
3.1099999 0.53100002 0.185 32 16 0
3.1129999 0.52100003 0.182 32 16 0
3.1229999 0.51300001 0.18000001 31 16 0
3.1289999 0.50400001 0.177 32 16 0
3.1389999 0.49599999 0.175 33 16 0
3.1429999 0.48699999 0.17200001 34 16 0
3.145 0.477 0.169 32 16 0
3.1559999 0.46900001 0.167 35 16 0
3.1659999 0.46000001 0.164 42 16 0
3.1659999 0.44999999 0.161 44 16 0
3.1800001 0.442 0.15899999 52 16 0
3.1819999 0.433 0.156 66 16 0
3.1830001 0.42300001 0.153 78 16 0
3.1949999 0.414 0.15000001 85 16 0
3.197 0.405 0.147 103 16 0
3.2019999 0.39500001 0.14399999 113 16 0
3.2030001 0.38600001 0.141 115 16 0
3.2060001 0.37599999 0.138 115 16 0
3.2119999 0.36700001 0.13500001 98 16 0
3.1860001 0.354 0.13 83 16 0
3.1689999 0.34200001 0.126 131 16 0
3.164 0.33199999 0.123 121 16 0
3.1670001 0.322 0.12 105 16 0
3.1689999 0.31299999 0.116 116 16 0
3.1619999 0.30199999 0.113 106 16 0
3.1670001 0.29300001 0.11 87 16 0
3.1700001 0.28400001 0.106 94 16 0
3.171 0.27399999 0.103 90 16 0
3.177 0.26499999 0.1 81 16 0
3.1830001 0.255 0.096000001 89 16 0
3.1830001 0.24600001 0.093000002 86 16 0
3.1830001 0.236 0.090000004 82 16 0
3.1900001 0.227 0.086000003 80 16 0
3.1949999 0.21699999 0.082999997 78 16 0
3.1960001 0.208 0.079000004 82 16 0
3.1989999 0.198 0.075999998 90 16 0
3.2030001 0.18799999 0.071999997 72 16 0
3.2079999 0.17900001 0.068999998 80 16 0
3.21 0.169 0.064999998 85 16 0
3.217 0.16 0.061999999 87 16 0
3.2219999 0.15000001 0.057999998 85 16 0
3.2260001 0.141 0.055 106 16 0
3.2390001 0.132 0.050999999 106 16 0
3.2920001 0.124 0.048 77 18 0
3.2980001 0.114 0.045000002 64 16 0
3.3050001 0.104 0.041000001 60 16 0
3.309 0.093999997 0.037 56 16 0
3.312 0.083999999 0.033 55 16 0
3.3150001 0.074000001 0.028999999 54 16 0
3.3210001 0.064000003 0.025 48 16 0
3.323 0.054000001 0.021 42 16 0
3.319 0.044 0.017000001 62 16 0
3.3269999 0.035 0.014 56 16 0
3.332 0.025 0.0099999998 34 16 0
3.3080001 0.014 0.0060000001 19 16 0
3.2820001 0.0040000002 0.001 18 16 0
3.2679999 -0.0040000002 -0.001 17 16 0
3.2379999 -0.014 -0.0049999999 28 16 0
3.244 -0.024 -0.0089999996 107 16 0
3.2479999 -0.033 -0.013 132 16 0
3.2479999 -0.043000001 -0.017000001 150 16 0
3.257 -0.052999999 -0.022 131 16 0
3.2579999 -0.063000001 -0.026000001 150 16 0
3.2509999 -0.071999997 -0.029999999 42 16 0
3.2279999 -0.082000002 -0.033 28 16 0
3.2079999 -0.090999998 -0.037 27 16 0
3.187 -0.1 -0.041000001 27 16 0
3.1630001 -0.108 -0.045000002 27 16 0
3.141 -0.117 -0.048999999 27 16 0
3.1240001 -0.125 -0.052000001 26 16 0
3.098 -0.134 -0.056000002 25 16 0
3.082 -0.142 -0.059 26 16 0
3.063 -0.15000001 -0.063000001 26 16 0
3.04 -0.15800001 -0.067000002 26 16 0
3.02 -0.16599999 -0.07 27 16 0
2.9979999 -0.17399999 -0.074000001 26 16 0
2.977 -0.18099999 -0.077 26 16 0
2.96 -0.189 -0.081 27 16 0
2.941 -0.197 -0.083999999 27 16 0
2.9189999 -0.204 -0.086999997 28 16 0
2.908 -0.212 -0.090999998 29 16 0
2.891 -0.219 -0.093999997 27 16 0
2.8659999 -0.22499999 -0.097000003 27 16 0
2.8510001 -0.233 -0.101 27 16 0
2.8329999 -0.23999999 -0.104 28 16 0
2.816 -0.24600001 -0.107 27 16 0
2.799 -0.25299999 -0.11 28 16 0
2.7850001 -0.25999999 -0.114 27 16 0
2.7720001 -0.26699999 -0.117 29 16 0
2.7550001 -0.27399999 -0.12 28 16 0
2.7349999 -0.28 -0.123 28 16 0
2.7260001 -0.287 -0.127 29 16 0
2.71 -0.29300001 -0.13 30 16 0
2.6949999 -0.29899999 -0.133 30 16 0
2.6789999 -0.30500001 -0.13600001 28 16 0
2.6630001 -0.31099999 -0.139 30 16 0
2.651 -0.31799999 -0.142 30 16 0
2.632 -0.32300001 -0.145 31 16 0
2.622 -0.33000001 -0.148 31 16 0
2.6040001 -0.33500001 -0.15099999 31 16 0
2.5940001 -0.34099999 -0.154 32 16 0
2.5799999 -0.347 -0.15700001 31 16 0
2.5650001 -0.35299999 -0.16 30 16 0
2.552 -0.35800001 -0.163 32 16 0
2.536 -0.36399999 -0.16599999 31 16 0
2.5190001 -0.368 -0.168 33 16 0
2.5090001 -0.37400001 -0.171 32 16 0
2.497 -0.38 -0.17399999 32 16 0
2.4809999 -0.38499999 -0.177 32 16 0
2.4749999 -0.391 -0.18000001 33 16 0
2.4649999 -0.396 -0.183 35 16 0
2.451 -0.40099999 -0.186 37 16 0
2.438 -0.40599999 -0.189 37 16 0
2.4230001 -0.41100001 -0.191 37 16 0
2.4130001 -0.41600001 -0.19499999 31 16 0
2.402 -0.421 -0.197 38 16 0
2.3859999 -0.42500001 -0.2 37 16 0
2.3710001 -0.43000001 -0.20200001 29 16 0
2.362 -0.435 -0.205 32 16 0
2.3540001 -0.44 -0.208 39 16 0
2.3340001 -0.44299999 -0.20999999 36 16 0
2.3280001 -0.449 -0.214 31 16 0
2.312 -0.45199999 -0.21600001 38 16 0
2.3039999 -0.458 -0.219 37 16 0
2.293 -0.46200001 -0.221 38 16 0
2.2850001 -0.46700001 -0.22499999 40 16 0
2.2679999 -0.47 -0.227 44 16 0
2.2579999 -0.47499999 -0.229 40 16 0
2.247 -0.479 -0.23199999 39 16 0
2.2409999 -0.484 -0.235 44 16 0
2.2279999 -0.48800001 -0.237 38 16 0
2.2190001 -0.49200001 -0.23999999 50 16 0
2.2060001 -0.49599999 -0.243 43 16 0
2.1960001 -0.5 -0.245 44 16 0
2.188 -0.50400001 -0.248 52 16 0
2.178 -0.50800002 -0.25099999 76 16 0
2.1630001 -0.51099998 -0.25299999 77 16 0
2.155 -0.51499999 -0.255 84 16 0
2.1429999 -0.51800001 -0.25799999 71 16 0
2.1340001 -0.52200001 -0.25999999 70 16 0
2.125 -0.52600002 -0.26300001 74 16 0
2.112 -0.52899998 -0.26499999 65 16 0
2.109 -0.53399998 -0.26899999 72 16 0
2.098 -0.537 -0.271 76 16 0
2.0869999 -0.54100001 -0.273 82 16 0
2.082 -0.54500002 -0.27599999 82 16 0
2.076 -0.54900002 -0.27900001 89 16 0
2.0610001 -0.551 -0.28099999 83 16 0
2.0480001 -0.55400002 -0.28299999 84 16 0
2.0420001 -0.55800003 -0.28600001 82 16 0
2.0350001 -0.56199998 -0.289 96 16 0
2.027 -0.565 -0.29100001 89 16 0
2.0190001 -0.56900001 -0.294 84 16 0
2.0120001 -0.57200003 -0.29699999 85 16 0
1.998 -0.574 -0.29800001 88 16 0
1.992 -0.57800001 -0.301 94 16 0
1.984 -0.58099997 -0.30399999 90 16 0
1.977 -0.58499998 -0.30700001 100 16 0
1.9680001 -0.588 -0.30899999 95 16 0
1.959 -0.58999997 -0.31099999 87 16 0
1.951 -0.59299999 -0.31400001 89 16 0
1.946 -0.597 -0.317 93 16 0
1.928 -0.597 -0.31799999 91 19 0
1.923 -0.60100001 -0.32100001 92 16 0
1.913 -0.60299999 -0.32300001 90 16 0
1.91 -0.60699999 -0.32600001 89 16 0
1.905 -0.611 -0.329 103 16 0
1.899 -0.61400002 -0.33199999 113 16 0
1.893 -0.61799997 -0.33399999 96 16 0
1.885 -0.62 -0.33700001 102 16 0
1.875 -0.62199998 -0.33899999 94 16 0
1.8660001 -0.62400001 -0.34099999 111 16 0
1.86 -0.62699997 -0.34400001 113 16 0
1.854 -0.63 -0.34599999 108 16 0
1.847 -0.63300002 -0.34900001 108 16 0
1.8430001 -0.63700002 -0.352 110 16 0
1.836 -0.639 -0.354 108 16 0
1.8329999 -0.64300001 -0.35800001 112 16 0
1.818 -0.64300001 -0.35800001 111 16 0
1.809 -0.64399999 -0.361 111 16 0
1.804 -0.648 -0.36300001 107 16 0
1.8 -0.65100002 -0.366 118 16 0
1.7920001 -0.653 -0.368 117 16 0
1.789 -0.65600002 -0.37200001 116 16 0
1.784 -0.65899998 -0.37400001 114 16 0
1.778 -0.662 -0.377 112 16 0
1.774 -0.66500002 -0.38 117 16 0
1.7640001 -0.66500002 -0.382 124 16 0
1.7539999 -0.66600001 -0.38299999 143 16 0
1.749 -0.66900003 -0.38600001 150 16 0
1.744 -0.67199999 -0.389 147 16 0
1.737 -0.67299998 -0.391 150 16 0
1.735 -0.67699999 -0.39399999 150 16 0
1.73 -0.67900002 -0.39700001 150 16 0
1.72 -0.68000001 -0.39899999 150 16 0
1.715 -0.68300003 -0.40200001 149 16 0
1.7079999 -0.68400002 -0.40400001 1 0 0
1.706 -0.68800002 -0.40700001 150 16 0
1.7 -0.68900001 -0.41 150 16 0
1.6900001 -0.69 -0.41100001 150 16 0
1.689 -0.69300002 -0.41499999 150 16 0
1.6849999 -0.69599998 -0.417 150 16 0
1.674 -0.69499999 -0.419 150 16 0
1.669 -0.69700003 -0.421 150 16 0
1.6670001 -0.69999999 -0.42500001 150 16 0
1.659 -0.70099998 -0.426 150 16 0
1.654 -0.70300001 -0.42899999 150 16 0
1.646 -0.70300001 -0.43099999 2 0 0
1.6440001 -0.70599997 -0.43399999 1 0 0
1.638 -0.708 -0.43599999 150 16 0
1.632 -0.70899999 -0.43799999 150 16 0
1.627 -0.70999998 -0.44100001 150 16 0
1.625 -0.713 -0.44400001 150 16 0
1.617 -0.71399999 -0.44600001 2 0 0
1.612 -0.71499997 -0.44800001 71 0 0
1.6109999 -0.71799999 -0.45199999 150 16 0
1.609 -0.72100002 -0.45500001 150 16 0
1.6 -0.72000003 -0.456 79 0 0
1.598 -0.72299999 -0.46000001 150 16 0
1.591 -0.72299999 -0.461 1 0 0
1.59 -0.72600001 -0.465 150 16 0
1.586 -0.727 -0.46799999 1 0 0
1.58 -0.72799999 -0.47 87 0 0
1.58 -0.73100001 -0.47400001 2 0 0
1.574 -0.73199999 -0.47600001 75 0 0
1.569 -0.73299998 -0.47799999 1 0 0
1.559 -0.73100001 -0.479 76 0 0
1.557 -0.73299998 -0.48199999 1 0 0
1.551 -0.73400003 -0.484 77 0 0
1.552 -0.73699999 -0.48800001 81 0 0
1.548 -0.73900002 -0.49000001 2 0 0
1.546 -0.74000001 -0.493 150 16 0
1.541 -0.741 -0.495 90 0 0
1.539 -0.74299997 -0.49900001 1 0 0
1.535 -0.74299997 -0.50099999 104 0 0
1.531 -0.74400002 -0.50300002 87 0 0
1.528 -0.74599999 -0.50599998 64 0 0
1.528 -0.74800003 -0.50999999 150 16 0
1.523 -0.74800003 -0.51200002 85 0 0
1.523 -0.75099999 -0.51499999 5 0 0
1.5140001 -0.74900001 -0.51599997 84 0 0
1.512 -0.75099999 -0.51899999 110 0 0
1.513 -0.75400001 -0.523 70 0 0
1.508 -0.75400001 -0.52499998 87 0 0
1.503 -0.75400001 -0.52700001 107 0 0
1.4960001 -0.75199997 -0.528 89 0 0
1.495 -0.75400001 -0.53100002 106 0 0
1.497 -0.75700003 -0.53600001 102 0 0
1.4859999 -0.75400001 -0.53500003 133 0 0
1.489 -0.75700003 -0.54000002 5 0 0
1.485 -0.75700003 -0.542 83 0 0
1.483 -0.75800002 -0.54400003 111 0 0
1.479 -0.75800002 -0.546 111 0 0
1.478 -0.759 -0.55000001 119 0 0
1.476 -0.75999999 -0.55199999 104 0 0
1.473 -0.76099998 -0.55500001 127 0 0
1.472 -0.76099998 -0.55800003 93 0 0
1.4680001 -0.76099998 -0.56 110 0 0
1.467 -0.76200002 -0.56300002 127 0 0
1.465 -0.76300001 -0.565 121 0 0
1.4630001 -0.76300001 -0.56800002 116 0 0
1.4630001 -0.764 -0.57099998 101 0 0
1.46 -0.76499999 -0.57300001 143 0 0
1.459 -0.76499999 -0.57599998 104 0 0
1.4579999 -0.76599997 -0.579 100 0 0
1.454 -0.76499999 -0.57999998 126 0 0
1.452 -0.76599997 -0.583 136 0 0
1.451 -0.76599997 -0.58600003 150 0 0
1.45 -0.76599997 -0.588 134 0 0
1.447 -0.76599997 -0.58999997 127 0 0
1.446 -0.76599997 -0.59299999 129 0 0
1.444 -0.76599997 -0.59500003 96 0 0
1.443 -0.76599997 -0.59799999 150 0 0
1.442 -0.76700002 -0.60000002 141 0 0
1.443 -0.76800001 -0.60299999 146 0 0
1.439 -0.76599997 -0.60500002 142 0 0
1.439 -0.76700002 -0.60799998 130 0 0
1.438 -0.76700002 -0.61000001 139 0 0
1.437 -0.76700002 -0.61199999 150 0 0
1.438 -0.76700002 -0.61500001 140 0 0
1.4349999 -0.76599997 -0.61699998 150 0 0
1.434 -0.76599997 -0.61900002 150 0 0
1.434 -0.76599997 -0.62199998 150 0 0
1.434 -0.76599997 -0.625 144 0 0
1.429 -0.76300001 -0.625 150 0 0
1.431 -0.76499999 -0.62800002 150 0 0
1.431 -0.764 -0.63 146 0 0
1.4299999 -0.764 -0.63300002 150 0 0
1.431 -0.764 -0.63599998 146 0 0
1.429 -0.76300001 -0.63700002 142 0 0
1.4299999 -0.76300001 -0.63999999 135 0 0
1.4299999 -0.76300001 -0.64200002 150 0 0
1.429 -0.76200002 -0.64399999 150 0 0
1.429 -0.76099998 -0.64600003 150 0 0
1.433 -0.76300001 -0.64999998 150 0 0
1.433 -0.76200002 -0.65200001 149 0 0
1.432 -0.76099998 -0.65399998 150 0 0
1.4299999 -0.759 -0.65499997 150 0 0
1.431 -0.759 -0.65700001 150 0 0
1.432 -0.75800002 -0.65899998 150 0 0
1.4349999 -0.759 -0.66299999 150 0 0
1.432 -0.75700003 -0.66299999 150 0 0
1.436 -0.75800002 -0.667 150 0 0
1.432 -0.75400001 -0.667 150 0 0
1.436 -0.755 -0.67000002 150 0 0
1.436 -0.75400001 -0.67199999 150 0 0
1.436 -0.75300002 -0.67299998 150 0 0
1.4400001 -0.75400001 -0.67699999 150 3 0
1.439 -0.75199997 -0.67799997 150 16 0
1.4400001 -0.75099999 -0.68000001 150 16 0
1.444 -0.75099999 -0.68300003 150 0 0
1.444 -0.75 -0.68400002 150 0 0
1.444 -0.74800003 -0.68599999 150 0 0
1.446 -0.74699998 -0.68800002 150 0 0
1.447 -0.74599999 -0.68900001 150 16 0
1.45 -0.74599999 -0.69199997 150 0 0
1.452 -0.745 -0.69400001 150 16 0
1.452 -0.74299997 -0.69499999 150 16 0
1.456 -0.74299997 -0.69800001 150 0 0
1.454 -0.74000001 -0.69800001 150 16 0
1.4529999 -0.73699999 -0.69800001 150 16 0
1.4579999 -0.73799998 -0.70099998 150 16 0
1.464 -0.73799998 -0.704 150 0 0
1.4630001 -0.736 -0.70499998 150 0 0
1.466 -0.73500001 -0.70700002 150 0 0
1.467 -0.73299998 -0.708 150 0 0
1.4680001 -0.73100001 -0.70899999 150 0 0
1.472 -0.73000002 -0.71100003 150 0 0
1.473 -0.72899997 -0.71200001 130 0 0
1.476 -0.727 -0.713 150 0 0
1.477 -0.72500002 -0.71399999 150 0 0
1.477 -0.72299999 -0.71499997 150 0 0
1.4809999 -0.722 -0.71600002 146 0 0
1.49 -0.72299999 -0.72100002 143 2 0
1.493 -0.722 -0.722 150 0 0
1.494 -0.72000003 -0.72299999 127 0 0
1.501 -0.72000003 -0.72600001 150 3 0
1.5039999 -0.71799999 -0.727 133 0 0
1.503 -0.71499997 -0.727 150 0 0
1.507 -0.713 -0.72799999 137 0 0
1.508 -0.71100003 -0.72799999 150 0 0
1.516 -0.71100003 -0.73100001 150 0 0
1.5190001 -0.70999998 -0.73299998 150 0 0
1.5190001 -0.70599997 -0.73199999 116 0 0
1.522 -0.704 -0.73299998 150 0 0
1.527 -0.70300001 -0.73400003 127 0 0
1.535 -0.704 -0.73799998 124 0 0
1.5369999 -0.70099998 -0.73799998 129 0 0
1.539 -0.699 -0.73799998 133 0 0
1.54 -0.69599998 -0.73799998 136 0 0
1.5470001 -0.69499999 -0.74000001 121 0 0
1.556 -0.69599998 -0.74299997 106 0 0
1.556 -0.69199997 -0.74199998 114 0 0
1.557 -0.68900001 -0.74199998 133 0 0
1.563 -0.68800002 -0.74299997 100 0 0
1.564 -0.685 -0.74299997 116 0 0
1.567 -0.68199998 -0.74199998 119 0 0
1.574 -0.68099999 -0.745 3 0 0
1.5779999 -0.67900002 -0.745 124 0 0
1.579 -0.676 -0.74400002 6 0 0
1.589 -0.676 -0.74699998 3 0 0
1.599 -0.676 -0.75 3 0 0
1.601 -0.67299998 -0.74900001 150 16 0
1.605 -0.671 -0.74900001 2 0 0
1.609 -0.66799998 -0.74900001 150 16 0
1.612 -0.66600001 -0.74900001 150 16 0
1.614 -0.662 -0.74800003 150 16 0
1.622 -0.662 -0.75 150 16 0
1.628 -0.66000003 -0.75099999 150 16 0
1.633 -0.65799999 -0.75099999 150 16 0
1.6390001 -0.65600002 -0.75199997 150 16 0
1.6440001 -0.65399998 -0.75199997 150 16 0
1.648 -0.65100002 -0.75199997 150 16 0
1.653 -0.64899999 -0.75099999 150 16 0
1.655 -0.64499998 -0.75 150 16 0
1.664 -0.64399999 -0.75199997 150 16 0
1.668 -0.64200002 -0.75099999 150 16 0
1.671 -0.639 -0.75 150 16 0
1.6799999 -0.63700002 -0.75099999 150 16 0
1.682 -0.634 -0.75 150 16 0
1.6849999 -0.63099998 -0.74900001 73 0 0
1.694 -0.63 -0.75 150 16 0
1.702 -0.62800002 -0.75099999 2 0 0
1.7079999 -0.62599999 -0.75099999 69 0 0
1.715 -0.62400001 -0.75099999 2 0 0
1.717 -0.62 -0.74900001 2 0 0
1.725 -0.61900002 -0.74900001 2 0 0
1.721 -0.61299998 -0.745 2 0 0
1.74 -0.61500001 -0.75 2 0 0
1.743 -0.611 -0.74800003 2 0 0
1.747 -0.60799998 -0.74599999 2 0 0
1.7539999 -0.60600001 -0.74599999 2 0 0
1.758 -0.60299999 -0.745 2 0 0
1.766 -0.60100001 -0.745 2 0 0
1.777 -0.60000002 -0.74599999 150 16 0
1.779 -0.59600002 -0.74400002 150 16 0
1.786 -0.59299999 -0.74299997 150 16 0
1.791 -0.58999997 -0.74199998 150 16 0
1.796 -0.58700001 -0.74000001 150 16 0
1.802 -0.58499998 -0.73900002 150 16 0
1.809 -0.58200002 -0.73900002 150 16 0
1.812 -0.57800001 -0.736 150 16 0
1.818 -0.57599998 -0.73500001 150 16 0
1.824 -0.57300001 -0.73400003 150 16 0
1.8279999 -0.56900001 -0.73100001 150 16 0
1.842 -0.56900001 -0.73299998 150 16 0
1.849 -0.56599998 -0.73199999 150 16 0
1.857 -0.56400001 -0.73100001 150 16 0
1.862 -0.56099999 -0.72899997 150 16 0
1.873 -0.55900002 -0.73000002 150 16 0
1.881 -0.55699998 -0.72899997 150 16 0
1.883 -0.55299997 -0.72500002 150 16 0
1.891 -0.55000001 -0.72399998 150 16 0
1.9 -0.54799998 -0.72299999 150 16 0
1.902 -0.54400003 -0.72000003 150 16 0
1.909 -0.54100001 -0.71899998 150 16 0
1.919 -0.53899997 -0.71799999 150 16 0
1.925 -0.53600001 -0.71600002 150 16 0
1.934 -0.53299999 -0.71499997 150 16 0
1.936 -0.52899998 -0.71100003 150 16 0
1.948 -0.528 -0.71100003 150 16 0
1.955 -0.52399999 -0.70899999 127 16 0
1.9630001 -0.52200001 -0.708 115 16 0
1.971 -0.51899999 -0.70599997 130 16 0
1.977 -0.51599997 -0.704 140 16 0
1.9859999 -0.51300001 -0.70200002 128 16 0
1.9910001 -0.509 -0.699 127 16 0
1.994 -0.505 -0.69499999 126 16 0
2.007 -0.50400001 -0.69499999 117 16 0
2.0139999 -0.50099999 -0.69300002 116 16 0
2.0209999 -0.498 -0.69099998 119 16 0
2.0280001 -0.49399999 -0.68800002 111 16 0
2.039 -0.49200001 -0.68699998 110 16 0
2.0469999 -0.48899999 -0.685 113 16 0
2.0539999 -0.486 -0.68199998 113 16 0
2.0580001 -0.48199999 -0.67799997 106 16 0
2.062 -0.47799999 -0.67400002 107 16 0
2.0840001 -0.47799999 -0.676 110 19 0
2.0910001 -0.47499999 -0.67400002 104 16 0
2.1010001 -0.472 -0.67199999 108 16 0
2.1059999 -0.46799999 -0.66799998 105 16 0
2.1170001 -0.46599999 -0.66600001 103 16 0
2.1229999 -0.46200001 -0.66299999 99 16 0
2.132 -0.45899999 -0.66000003 98 16 0
2.1389999 -0.456 -0.65700001 96 16 0
2.148 -0.45300001 -0.65399998 100 16 0
2.1570001 -0.44999999 -0.65200001 105 16 0
2.1630001 -0.44600001 -0.648 88 16 0
2.171 -0.442 -0.64499998 92 16 0
2.177 -0.43900001 -0.64099997 91 16 0
2.1889999 -0.43599999 -0.639 93 16 0
2.197 -0.433 -0.63599998 81 16 0
2.207 -0.43000001 -0.63300002 93 16 0
2.211 -0.426 -0.62900001 89 16 0
2.224 -0.42300001 -0.62699997 88 16 0
2.233 -0.41999999 -0.62400001 82 16 0
2.2420001 -0.417 -0.62 90 16 0
2.2509999 -0.414 -0.61699998 83 16 0
2.2639999 -0.41100001 -0.61500001 83 16 0
2.267 -0.40700001 -0.60900003 75 16 0
2.279 -0.40400001 -0.60699999 78 16 0
2.2820001 -0.39899999 -0.602 72 16 0
2.2969999 -0.39700001 -0.60000002 68 16 0
2.309 -0.39399999 -0.597 46 16 0
2.316 -0.38999999 -0.59299999 57 16 0
2.3239999 -0.38699999 -0.588 55 16 0
2.335 -0.384 -0.58499998 51 16 0
2.3410001 -0.38 -0.57999998 60 16 0
2.352 -0.37599999 -0.57700002 43 16 0
2.362 -0.373 -0.57300001 52 16 0
2.3770001 -0.37 -0.57099998 53 16 0
2.388 -0.36700001 -0.56699997 57 16 0
2.3959999 -0.36399999 -0.56300002 53 16 0
2.404 -0.36000001 -0.55800003 45 16 0
2.4070001 -0.35499999 -0.55199999 47 16 0
2.418 -0.352 -0.54799998 49 16 0
2.4300001 -0.34900001 -0.54500002 50 16 0
2.4400001 -0.345 -0.54000002 48 16 0
2.448 -0.34099999 -0.53600001 39 16 0
2.457 -0.338 -0.53100002 43 16 0
2.4649999 -0.33399999 -0.52600002 37 16 0
2.4760001 -0.33000001 -0.52200001 46 16 0
2.483 -0.32600001 -0.51700002 38 16 0
2.4949999 -0.32300001 -0.51300001 32 16 0
2.507 -0.31999999 -0.50800002 36 16 0
2.5139999 -0.315 -0.50300002 33 16 0
2.533 -0.31299999 -0.5 34 16 0
2.5380001 -0.308 -0.49399999 34 16 0
2.552 -0.30500001 -0.49000001 37 16 0
2.556 -0.301 -0.484 34 16 0
2.5680001 -0.29699999 -0.479 34 16 0
2.5769999 -0.29300001 -0.47400001 33 16 0
2.5899999 -0.28999999 -0.46900001 33 16 0
2.599 -0.28600001 -0.46399999 33 16 0
2.6099999 -0.28200001 -0.45899999 34 16 0
2.618 -0.278 -0.45300001 33 16 0
2.631 -0.27399999 -0.44800001 32 16 0
2.6459999 -0.271 -0.44299999 34 16 0
2.6530001 -0.266 -0.43700001 31 16 0
2.6670001 -0.26300001 -0.43200001 34 16 0
2.6789999 -0.259 -0.42699999 35 16 0
2.6900001 -0.255 -0.421 31 16 0
2.6989999 -0.25099999 -0.41499999 31 16 0
2.71 -0.24699999 -0.41 33 16 0
2.7119999 -0.242 -0.403 32 16 0
2.723 -0.23800001 -0.39700001 31 16 0
2.74 -0.234 -0.39199999 31 16 0
2.7479999 -0.23 -0.38499999 32 16 0
2.7639999 -0.227 -0.38 28 16 0
2.773 -0.222 -0.37400001 29 16 0
2.783 -0.21799999 -0.36700001 28 16 0
2.7950001 -0.214 -0.361 28 16 0
2.8080001 -0.20999999 -0.35499999 27 16 0
2.8210001 -0.206 -0.34900001 27 16 0
2.832 -0.20200001 -0.34299999 28 16 0
2.8440001 -0.197 -0.336 27 16 0
2.855 -0.193 -0.33000001 28 16 0
2.8699999 -0.189 -0.324 27 16 0
2.8770001 -0.185 -0.31600001 28 16 0
2.891 -0.18000001 -0.31 29 16 0
2.9030001 -0.176 -0.303 28 16 0
2.915 -0.17200001 -0.296 28 16 0
2.9289999 -0.168 -0.28999999 28 16 0
2.944 -0.163 -0.28299999 28 16 0
2.9530001 -0.15899999 -0.27599999 28 16 0
2.9679999 -0.155 -0.26899999 27 16 0
2.9820001 -0.15000001 -0.26199999 28 16 0
2.993 -0.146 -0.255 28 16 0
3.0090001 -0.141 -0.248 28 16 0
3.0250001 -0.13699999 -0.23999999 28 16 0
3.036 -0.132 -0.233 29 16 0
3.0469999 -0.12800001 -0.22499999 27 16 0
3.0580001 -0.123 -0.21799999 27 16 0
3.0780001 -0.119 -0.20999999 28 16 0
3.0929999 -0.114 -0.20299999 27 16 0
3.1010001 -0.109 -0.19499999 28 16 0
3.118 -0.105 -0.18700001 29 16 0
3.1300001 -0.1 -0.17900001 28 16 0
3.142 -0.094999999 -0.171 29 16 0
3.1559999 -0.090999998 -0.163 30 16 0
3.1760001 -0.086000003 -0.155 30 16 0
3.1860001 -0.081 -0.146 30 16 0
3.207 -0.077 -0.138 36 16 0
3.2079999 -0.071000002 -0.12899999 76 16 0
3.2219999 -0.067000002 -0.121 150 16 0
3.221 -0.061000001 -0.111 150 16 0
3.2249999 -0.056000002 -0.103 150 16 0
3.2279999 -0.050999999 -0.093999997 150 16 0
3.2260001 -0.046 -0.083999999 150 16 0
3.2279999 -0.041000001 -0.075000003 150 16 0
3.2320001 -0.035999998 -0.066 150 16 0
3.2290001 -0.030999999 -0.057 150 16 0
3.2349999 -0.026000001 -0.048 150 16 0
3.233 -0.021 -0.039000001 139 16 0
3.2379999 -0.016000001 -0.029999999 42 16 0
3.2409999 -0.011 -0.02 26 16 0
3.257 -0.0060000001 -0.011 19 16 0
3.2720001 -0.001 -0.0020000001 19 16 0
3.2920001 0.003 0.0060000001 19 16 0
3.3 0.0080000004 0.016000001 19 16 0
3.3169999 0.013 0.025 20 16 0
3.3329999 0.018999999 0.035 21 16 0
3.346 0.024 0.045000002 28 16 0
3.3599999 0.028999999 0.055 53 16 0
3.362 0.034000002 0.064000003 122 16 0
3.3629999 0.039000001 0.074000001 47 16 0
3.349 0.044 0.082999997 21 16 0
3.325 0.048 0.092 33 16 0
3.312 0.052999999 0.101 36 16 0
3.2909999 0.057999998 0.11 36 16 0
3.2679999 0.061999999 0.119 50 16 0
3.26 0.067000002 0.12800001 150 16 0
3.2620001 0.071999997 0.13699999 150 16 0
3.2609999 0.075999998 0.147 150 16 0
3.266 0.081 0.15700001 150 16 0
3.2650001 0.086000003 0.16599999 150 16 0
3.266 0.090999998 0.175 150 16 0
3.273 0.096000001 0.185 150 16 0
3.273 0.1 0.19499999 150 16 0
3.2720001 0.105 0.204 150 16 0
3.283 0.11 0.215 150 16 0
3.2820001 0.115 0.22400001 150 16 0
3.2820001 0.119 0.234 150 16 0
3.2809999 0.124 0.243 150 16 0
3.283 0.12899999 0.25299999 150 16 0
3.2820001 0.133 0.26300001 150 16 0
3.289 0.138 0.273 150 16 0
3.289 0.14300001 0.28299999 150 16 0
3.2880001 0.147 0.292 150 16 0
3.29 0.152 0.30199999 150 16 0
3.2950001 0.15700001 0.31200001 150 16 0
3.2969999 0.161 0.322 150 16 0
3.2980001 0.16599999 0.33199999 150 16 0
3.302 0.171 0.34200001 150 16 0
3.3050001 0.175 0.352 150 16 0
3.3039999 0.18000001 0.36199999 150 16 0
3.302 0.184 0.37200001 150 16 0
3.29 0.18799999 0.38 50 16 0
3.2739999 0.191 0.38800001 39 16 0
3.2579999 0.19499999 0.396 41 16 0
3.24 0.198 0.403 42 16 0
3.2249999 0.20100001 0.41100001 45 16 0
3.2049999 0.204 0.41800001 42 16 0
3.191 0.208 0.426 43 16 0
3.175 0.211 0.433 44 16 0
3.1570001 0.214 0.44 45 16 0
3.1400001 0.21699999 0.44800001 43 16 0
3.1240001 0.219 0.45500001 41 16 0
3.1029999 0.222 0.461 42 16 0
3.089 0.22499999 0.46799999 41 16 0
3.0710001 0.228 0.47499999 42 16 0
3.0539999 0.23 0.48199999 42 16 0
3.033 0.23199999 0.48699999 43 16 0
3.02 0.235 0.495 43 16 0
3.006 0.23800001 0.50099999 43 16 0
2.9879999 0.23999999 0.50800002 44 16 0
2.9679999 0.242 0.51300001 43 16 0
2.96 0.245 0.52100003 48 16 0
2.9419999 0.248 0.52700001 45 16 0
2.928 0.25 0.53299999 44 16 0
2.9200001 0.25299999 0.54100001 45 16 0
2.9059999 0.255 0.54699999 44 16 0
2.892 0.257 0.55299997 43 16 0
2.8759999 0.259 0.55900002 42 16 0
2.865 0.26199999 0.56599998 43 16 0
2.8510001 0.264 0.57200003 41 16 0
2.8380001 0.266 0.57800001 52 16 0
2.825 0.26800001 0.58499998 47 16 0
2.8110001 0.27000001 0.58999997 54 16 0
2.7980001 0.27200001 0.59600002 56 16 0
2.779 0.27399999 0.60100001 49 16 0
2.7690001 0.27599999 0.60799998 54 16 0
2.7550001 0.278 0.61299998 67 16 0
2.744 0.28 0.61900002 88 16 0
2.73 0.28099999 0.625 92 16 0
2.717 0.28299999 0.63 102 16 0
2.7030001 0.285 0.63499999 95 16 0
2.684 0.28600001 0.63999999 100 16 0
2.6800001 0.28799999 0.64700001 101 16 0
2.671 0.28999999 0.653 99 16 0
2.661 0.292 0.65899998 97 16 0
2.6489999 0.294 0.66500002 111 16 0
2.6359999 0.29499999 0.67000002 115 16 0
2.622 0.296 0.67500001 95 16 0
2.6129999 0.29800001 0.68099999 110 16 0
2.6029999 0.30000001 0.68599999 144 16 0
2.582 0.30000001 0.68900001 130 16 0
2.5739999 0.30199999 0.69499999 76 16 0
2.5599999 0.303 0.69999999 118 16 0
2.553 0.30399999 0.70599997 150 16 0
2.54 0.30599999 0.71100003 150 16 0
2.523 0.30599999 0.71399999 133 16 0
2.5150001 0.308 0.72000003 150 16 0
2.5039999 0.30899999 0.72500002 150 16 0
2.4949999 0.31 0.73000002 150 16 0
2.484 0.31099999 0.73500001 150 16 0
2.473 0.31200001 0.74000001 150 16 0
2.4619999 0.31299999 0.745 150 16 0
2.45 0.31400001 0.74900001 150 16 0
2.4430001 0.315 0.755 150 16 0
2.4300001 0.31600001 0.759 150 16 0
2.418 0.317 0.76300001 150 16 0
2.414 0.31799999 0.76899999 150 16 0
2.4030001 0.31900001 0.77399999 150 16 0
2.3900001 0.31900001 0.77700001 150 16 0
2.3789999 0.31999999 0.78200001 150 16 0
2.3659999 0.31999999 0.78500003 150 16 0
2.3629999 0.322 0.792 150 16 0
2.3510001 0.322 0.796 150 16 0
2.3429999 0.32300001 0.801 150 16 0
2.3340001 0.324 0.80500001 150 16 0
2.323 0.324 0.80900002 150 16 0
2.312 0.32499999 0.81300002 150 16 0
2.299 0.32499999 0.81599998 150 16 0
2.2950001 0.32600001 0.82200003 150 16 0
2.283 0.32600001 0.82599998 148 16 0
2.2750001 0.32699999 0.82999998 150 16 0
2.2609999 0.32600001 0.833 150 16 0
2.2539999 0.32699999 0.83700001 150 16 0
2.2460001 0.32800001 0.84200001 150 16 0
2.233 0.32699999 0.84399998 150 16 0
2.227 0.32800001 0.85000002 150 16 0
2.2149999 0.32800001 0.85299999 150 16 0
2.2079999 0.32800001 0.85699999 149 16 0
2.2019999 0.329 0.86199999 150 16 0
2.188 0.32800001 0.86400002 150 16 0
2.1819999 0.329 0.86900002 150 16 0
2.174 0.329 0.87300003 150 16 0
2.164 0.329 0.87599999 150 16 0
2.1530001 0.329 0.87900001 150 16 0
2.1429999 0.32800001 0.88200003 150 16 0
2.1389999 0.329 0.88800001 150 16 0
2.131 0.329 0.89200002 150 16 0
2.1210001 0.329 0.89399999 150 16 0
2.115 0.329 0.89899999 150 16 0
2.1059999 0.329 0.90200001 150 16 0
2.099 0.329 0.90600002 150 16 0
2.0899999 0.32800001 0.90899998 150 16 0
2.0799999 0.32800001 0.912 150 16 0
2.0739999 0.32800001 0.91600001 150 16 0
2.0639999 0.32800001 0.91900003 150 16 0
2.059 0.32800001 0.92299998 150 16 0
2.052 0.32699999 0.92699999 150 16 0
2.043 0.32699999 0.93000001 150 16 0
2.039 0.32699999 0.93400002 150 16 0
2.0280001 0.32600001 0.93599999 150 16 0
2.02 0.32600001 0.93900001 150 16 0
2.0150001 0.32499999 0.94400001 150 16 0
2.01 0.32499999 0.94800001 150 16 0
2.0009999 0.32499999 0.95099998 150 16 0
1.993 0.324 0.95300001 150 16 0
1.977 0.322 0.95200002 150 16 0
1.97 0.32100001 0.95499998 150 16 0
1.9630001 0.32100001 0.958 150 16 0
1.959 0.32100001 0.963 150 16 0
1.954 0.31999999 0.96700001 150 16 0
1.943 0.31900001 0.96799999 150 16 0
1.938 0.31799999 0.97100002 150 16 0
1.9299999 0.31799999 0.97399998 150 16 0
1.924 0.317 0.977 150 16 0
1.9220001 0.317 0.98199999 150 16 0
1.913 0.31600001 0.98400003 150 16 0
1.905 0.315 0.986 150 16 0
1.897 0.31299999 0.98699999 150 16 0
1.888 0.31200001 0.98900002 150 16 0
1.885 0.31200001 0.99299997 150 16 0
1.88 0.31099999 0.99699998 150 16 0
1.874 0.31 0.99900001 150 16 0
1.8660001 0.30899999 1.001 150 16 0
1.858 0.30700001 1.003 150 16 0
1.85 0.30599999 1.0039999 150 16 0
1.848 0.30599999 1.0089999 150 16 0
1.841 0.30399999 1.011 150 16 0
1.834 0.303 1.013 150 16 0
1.827 0.30199999 1.0140001 150 16 0
1.822 0.301 1.017 150 16 0
1.8200001 0.30000001 1.021 150 16 0
1.812 0.29800001 1.022 150 16 0
1.809 0.29800001 1.026 150 16 0
1.798 0.296 1.026 150 16 0
1.796 0.29499999 1.03 150 16 0
1.7869999 0.29300001 1.03 150 16 0
1.789 0.29300001 1.036 150 16 0
1.779 0.29100001 1.036 150 16 0
1.776 0.289 1.038 150 16 0
1.7690001 0.28799999 1.04 150 16 0
1.7640001 0.28600001 1.0420001 150 16 0
1.762 0.285 1.045 150 16 0
1.745 0.28200001 1.04 150 18 0
1.7410001 0.28099999 1.043 150 16 0
1.738 0.28 1.046 150 16 0
1.7359999 0.278 1.049 150 16 0
1.7309999 0.27700001 1.051 150 16 0
1.729 0.27599999 1.054 150 16 0
1.726 0.27399999 1.057 150 16 0
1.722 0.273 1.059 150 16 0
1.7180001 0.271 1.061 150 16 0
1.7130001 0.26899999 1.062 150 16 0
1.711 0.26800001 1.0650001 150 16 0
1.704 0.266 1.0650001 150 16 0
1.7 0.264 1.067 150 16 0
1.696 0.26199999 1.068 150 16 0
1.696 0.26100001 1.072 150 16 0
1.692 0.25999999 1.074 150 16 0
1.684 0.257 1.073 150 16 0
1.682 0.25600001 1.075 150 16 0
1.679 0.25400001 1.077 150 16 0
