# .PCD v0.7 - Point Cloud Data file format
VERSION 0.7
FIELDS x y z intensity tag line
SIZE 4 4 4 4 1 1
TYPE F F F F U U
COUNT 1 1 1 1 1 1
WIDTH 1354
HEIGHT 1
VIEWPOINT 0 0 0 1 0 0 0
POINTS 1354
DATA ascii
1.84 -0.079999998 1.02 150 16 0
1.844 -0.081 1.016 150 16 0
1.85 -0.082999997 1.0140001 150 16 0
1.8559999 -0.083999999 1.011 150 16 0
1.863 -0.086000003 1.0089999 150 16 0
1.867 -0.086999997 1.005 150 16 0
1.874 -0.089000002 1.003 150 16 0
1.878 -0.090000004 0.99900001 150 16 0
1.89 -0.090999998 1 150 16 0
1.893 -0.093000002 0.995 150 16 0
1.904 -0.093999997 0.995 150 16 0
1.91 -0.094999999 0.99199998 150 16 0
1.9170001 -0.097000003 0.98900002 150 16 0
1.921 -0.097999997 0.98500001 150 16 0
1.9299999 -0.098999999 0.98299998 150 16 0
1.9349999 -0.1 0.98000002 150 16 0
1.938 -0.101 0.97399998 150 16 0
1.949 -0.103 0.97399998 150 16 0
1.9579999 -0.104 0.972 150 16 0
1.966 -0.105 0.96899998 150 16 0
1.975 -0.106 0.96700001 150 16 0
1.979 -0.107 0.96200001 150 16 0
1.9859999 -0.109 0.95899999 150 16 0
1.993 -0.11 0.95599997 150 16 0
1.9960001 -0.11 0.95099998 150 16 0
2.006 -0.112 0.949 150 16 0
2.016 -0.113 0.94700003 150 16 0
2.0280001 -0.114 0.94599998 150 16 0
2.036 -0.115 0.94199997 150 16 0
2.0420001 -0.116 0.93800002 150 16 0
2.0510001 -0.117 0.93599999 150 16 0
2.062 -0.118 0.93400002 150 16 0
2.066 -0.119 0.92900002 150 16 0
2.075 -0.12 0.926 149 16 0
2.0799999 -0.12 0.921 150 16 0
2.089 -0.121 0.91799998 150 16 0
2.095 -0.122 0.91299999 145 16 0
2.1059999 -0.123 0.91100001 149 16 0
2.1129999 -0.123 0.90700001 148 16 0
2.122 -0.124 0.903 138 16 0
2.1259999 -0.125 0.898 147 16 0
2.1389999 -0.126 0.89600003 133 16 0
2.1489999 -0.126 0.89300001 143 16 0
2.154 -0.127 0.88800001 129 16 0
2.1619999 -0.12800001 0.884 133 16 0
2.1689999 -0.12800001 0.87900001 135 16 0
2.1789999 -0.12899999 0.87599999 123 16 0
2.1930001 -0.13 0.87400001 124 16 0
2.1989999 -0.13 0.86900002 118 16 0
2.2079999 -0.131 0.86400002 122 16 0
2.221 -0.131 0.86199999 124 16 0
2.2279999 -0.132 0.85699999 110 16 0
2.2349999 -0.132 0.852 106 16 0
2.2479999 -0.133 0.84899998 121 16 0
2.256 -0.133 0.84500003 124 16 0
2.266 -0.133 0.84100002 116 16 0
2.276 -0.134 0.83700001 113 16 0
2.283 -0.134 0.83200002 122 16 0
2.2950001 -0.13500001 0.82800001 120 16 0
2.302 -0.13500001 0.82300001 103 16 0
2.3180001 -0.13500001 0.81999999 92 16 0
2.3269999 -0.13600001 0.81599998 112 16 0
2.3369999 -0.13600001 0.81099999 104 16 0
2.348 -0.13600001 0.80699998 115 16 0
2.359 -0.13600001 0.80299997 108 16 0
2.3670001 -0.13699999 0.79799998 78 16 0
2.3759999 -0.13699999 0.79299998 67 16 0
2.3829999 -0.13699999 0.787 62 16 0
2.3989999 -0.13699999 0.78399998 66 16 0
2.4070001 -0.13699999 0.77899998 68 16 0
2.415 -0.13699999 0.773 69 16 0
2.4230001 -0.13699999 0.76700002 63 16 0
2.437 -0.13699999 0.764 72 16 0
2.4460001 -0.13699999 0.75800002 65 16 0
2.454 -0.13699999 0.75199997 82 16 0
2.467 -0.13699999 0.74800003 69 16 0
2.48 -0.13699999 0.74400002 57 16 0
2.4890001 -0.13699999 0.73799998 61 16 0
2.5020001 -0.13699999 0.73400003 61 16 0
2.51 -0.13699999 0.727 64 16 0
2.52 -0.13600001 0.722 57 16 0
2.5350001 -0.13600001 0.71799999 58 16 0
2.5439999 -0.13600001 0.71200001 62 16 0
2.5599999 -0.13600001 0.70700002 58 16 0
2.5699999 -0.13600001 0.70200002 58 16 0
2.5769999 -0.13500001 0.69499999 56 16 0
2.589 -0.13500001 0.68900001 57 16 0
2.605 -0.13500001 0.685 57 16 0
2.6229999 -0.13500001 0.68099999 51 16 0
2.6340001 -0.134 0.67500001 36 16 0
2.648 -0.134 0.67000002 48 16 0
2.6600001 -0.134 0.66399997 38 16 0
2.6719999 -0.133 0.65799999 36 16 0
2.6819999 -0.132 0.65200001 36 16 0
2.698 -0.132 0.64700001 28 16 0
2.7130001 -0.132 0.64099997 29 16 0
2.723 -0.131 0.63499999 31 16 0
2.7349999 -0.13 0.62800002 37 16 0
2.7509999 -0.13 0.62300003 36 16 0
2.7650001 -0.12899999 0.61699998 39 16 0
2.7780001 -0.12899999 0.611 36 16 0
2.7950001 -0.12800001 0.60500002 35 16 0
2.8039999 -0.127 0.59799999 35 16 0
2.8110001 -0.126 0.58999997 33 16 0
2.8299999 -0.126 0.58499998 35 16 0
2.8469999 -0.125 0.579 35 16 0
2.8599999 -0.124 0.57300001 35 16 0
2.8800001 -0.124 0.56699997 35 16 0
2.8889999 -0.122 0.55900002 35 16 0
2.901 -0.121 0.55199999 34 16 0
2.918 -0.121 0.546 34 16 0
2.9360001 -0.12 0.54000002 30 16 0
2.948 -0.119 0.53200001 30 16 0
2.9660001 -0.118 0.52600002 29 16 0
2.98 -0.117 0.51899999 31 16 0
2.997 -0.116 0.51200002 30 16 0
3.0090001 -0.114 0.50400001 30 16 0
3.026 -0.113 0.49700001 30 16 0
3.0439999 -0.112 0.49000001 27 16 0
3.066 -0.111 0.484 26 16 0
3.0780001 -0.11 0.47600001 26 16 0
3.0999999 -0.109 0.46900001 26 16 0
3.1159999 -0.107 0.46200001 27 16 0
3.135 -0.106 0.454 28 16 0
3.152 -0.105 0.447 28 16 0
3.168 -0.103 0.43900001 27 16 0
3.1900001 -0.102 0.43099999 29 16 0
3.2030001 -0.1 0.42300001 29 16 0
3.221 -0.098999999 0.41499999 28 16 0
3.243 -0.097999997 0.40700001 29 16 0
3.2609999 -0.096000001 0.39899999 29 16 0
3.2809999 -0.093999997 0.391 28 16 0
3.3039999 -0.093000002 0.38299999 29 16 0
3.3150001 -0.090999998 0.37400001 28 16 0
3.336 -0.089000002 0.366 29 16 0
3.3540001 -0.086999997 0.35699999 34 16 0
3.365 -0.085000001 0.347 35 16 0
3.372 -0.082999997 0.33700001 27 16 0
3.3789999 -0.081 0.32699999 25 16 0
3.375 -0.079000004 0.31600001 24 16 0
3.3789999 -0.075999998 0.30599999 25 16 0
3.382 -0.074000001 0.29499999 26 16 0
3.3789999 -0.071000002 0.28400001 28 16 0
3.388 -0.068999998 0.27399999 36 16 0
3.3840001 -0.067000002 0.26300001 45 16 0
3.3740001 -0.064000003 0.252 60 16 0
3.369 -0.061000001 0.241 97 16 0
3.368 -0.059 0.23 114 16 0
3.3629999 -0.056000002 0.219 98 16 0
3.355 -0.054000001 0.208 69 16 0
3.348 -0.050999999 0.197 74 16 0
3.3369999 -0.048 0.186 70 16 0
3.3380001 -0.046 0.176 76 16 0
3.3269999 -0.043000001 0.16500001 72 16 0
3.3239999 -0.039999999 0.154 87 16 0
3.3199999 -0.037999999 0.14300001 77 16 0
3.3069999 -0.035 0.132 75 16 0
3.303 -0.032000002 0.122 72 16 0
3.2969999 -0.028999999 0.111 86 16 0
3.2880001 -0.027000001 0.101 77 16 0
3.2820001 -0.024 0.090000004 81 16 0
3.2780001 -0.021 0.079999998 51 16 0
3.27 -0.017999999 0.068999998 39 16 0
3.2679999 -0.016000001 0.059 28 16 0
3.2709999 -0.013 0.048999999 21 16 0
3.2690001 -0.0099999998 0.037999999 17 16 0
3.2739999 -0.0070000002 0.028000001 15 16 0
3.276 -0.0049999999 0.017999999 15 16 0
3.279 -0.0020000001 0.0080000004 16 16 0
3.2839999 0 -0.001 16 16 0
3.2839999 0.003 -0.012 16 16 0
3.2809999 0.0060000001 -0.022 16 16 0
3.2869999 0.0089999996 -0.032000002 16 16 0
3.2909999 0.012 -0.041999999 16 16 0
3.296 0.015 -0.052999999 18 16 0
3.3 0.017999999 -0.063000001 20 16 0
3.3 0.02 -0.072999999 26 16 0
3.2939999 0.023 -0.082999997 34 16 0
3.2880001 0.026000001 -0.093000002 44 16 0
3.2820001 0.028999999 -0.103 48 16 0
3.2720001 0.032000002 -0.113 50 16 0
3.2639999 0.035 -0.123 49 16 0
3.2550001 0.037999999 -0.133 47 16 0
3.253 0.041000001 -0.14300001 49 16 0
3.25 0.044 -0.153 42 16 0
3.2420001 0.046999998 -0.163 39 16 0
3.24 0.050000001 -0.17299999 36 16 0
3.2309999 0.052999999 -0.182 35 16 0
3.233 0.056000002 -0.192 39 16 0
3.2249999 0.059 -0.20200001 49 16 0
3.2179999 0.063000001 -0.211 57 16 0
3.217 0.066 -0.221 59 16 0
3.2060001 0.068999998 -0.23 53 16 0
3.2019999 0.071999997 -0.23999999 52 16 0
3.1930001 0.075000003 -0.249 52 16 0
3.1830001 0.078000002 -0.25799999 60 16 0
3.178 0.081 -0.26699999 51 16 0
3.1760001 0.083999999 -0.27700001 54 16 0
3.1700001 0.086999997 -0.28600001 54 16 0
3.1600001 0.090000004 -0.29499999 52 16 0
3.1559999 0.093000002 -0.30500001 62 16 0
3.1530001 0.096000001 -0.31400001 71 16 0
3.1400001 0.098999999 -0.32300001 61 16 0
3.1389999 0.103 -0.33199999 66 16 0
3.132 0.106 -0.34099999 75 16 0
3.125 0.109 -0.34999999 76 16 0
3.1140001 0.112 -0.35800001 78 16 0
3.1170001 0.115 -0.368 74 16 0
3.1070001 0.118 -0.377 79 16 0
3.1029999 0.122 -0.38600001 84 16 0
3.099 0.125 -0.39500001 85 16 0
3.0880001 0.12800001 -0.403 85 16 0
3.086 0.131 -0.412 81 16 0
3.0799999 0.134 -0.421 84 16 0
3.073 0.13699999 -0.42899999 92 16 0
3.0699999 0.141 -0.43799999 82 16 0
3.066 0.14399999 -0.447 85 16 0
3.052 0.147 -0.45500001 84 16 0
3.0510001 0.15000001 -0.46399999 83 16 0
3.0469999 0.154 -0.47299999 103 16 0
3.039 0.15700001 -0.48100001 88 16 0
3.0339999 0.16 -0.48899999 82 16 0
3.029 0.164 -0.498 92 16 0
3.0250001 0.167 -0.50599998 84 16 0
3.0179999 0.17 -0.514 83 16 0
3.013 0.17299999 -0.523 87 16 0
3.0090001 0.177 -0.53100002 74 16 0
3.0020001 0.18000001 -0.53899997 85 16 0
2.997 0.184 -0.54799998 86 16 0
2.99 0.18700001 -0.55500001 92 16 0
2.987 0.19 -0.56400001 75 16 0
2.984 0.19400001 -0.57300001 94 16 0
2.974 0.197 -0.57999998 96 16 0
2.9719999 0.2 -0.58899999 108 16 0
2.9630001 0.204 -0.59600002 74 16 0
2.9560001 0.207 -0.60399997 83 16 0
2.954 0.211 -0.61199999 81 16 0
2.95 0.214 -0.62099999 85 16 0
2.9449999 0.21799999 -0.62900001 89 16 0
2.9349999 0.221 -0.63499999 94 16 0
2.934 0.22400001 -0.64399999 102 16 0
2.928 0.228 -0.65200001 96 16 0
2.925 0.23199999 -0.66000003 96 16 0
2.918 0.235 -0.667 99 16 0
2.9119999 0.23800001 -0.67500001 98 16 0
2.9089999 0.242 -0.68300003 88 16 0
2.905 0.24600001 -0.69099998 99 16 0
2.8970001 0.249 -0.69800001 103 16 0
2.885 0.252 -0.704 119 16 0
2.878 0.255 -0.71100003 133 16 0
2.8759999 0.259 -0.71899998 116 16 0
2.8670001 0.26199999 -0.72600001 124 16 0
2.865 0.266 -0.73400003 126 16 0
2.8610001 0.27000001 -0.741 121 16 0
2.858 0.27399999 -0.75 129 16 0
2.8510001 0.27700001 -0.75599998 119 16 0
2.845 0.28099999 -0.76300001 131 16 0
2.842 0.28400001 -0.77100003 129 16 0
2.839 0.28799999 -0.77899998 136 16 0
2.829 0.29100001 -0.78500003 130 16 0
2.825 0.29499999 -0.792 124 16 0
2.822 0.29899999 -0.80000001 150 16 0
2.8139999 0.30199999 -0.80599999 150 16 0
2.8099999 0.30599999 -0.81400001 150 16 0
2.803 0.31 -0.81999999 150 16 0
2.7980001 0.31299999 -0.82700002 150 16 0
2.79 0.317 -0.833 150 16 0
2.79 0.32100001 -0.84100002 150 16 0
2.783 0.32499999 -0.84799999 150 16 0
2.783 0.329 -0.85600001 150 16 0
2.776 0.333 -0.86299998 150 16 0
2.7720001 0.336 -0.86900002 150 16 0
2.7639999 0.34 -0.875 150 16 0
2.7590001 0.34400001 -0.88200003 150 16 0
2.753 0.347 -0.88800001 150 16 0
2.75 0.35100001 -0.89600003 150 16 0
2.7449999 0.35499999 -0.90200001 150 16 0
2.7390001 0.359 -0.90799999 150 16 0
2.7360001 0.36300001 -0.91600001 150 16 0
2.7320001 0.36700001 -0.92199999 150 16 0
2.7260001 0.37099999 -0.92799997 150 16 0
2.72 0.37400001 -0.93400002 150 16 0
2.72 0.37900001 -0.94199997 150 16 0
2.7079999 0.382 -0.94599998 147 16 0
2.7090001 0.38699999 -0.95499998 26 16 0
2.7079999 0.391 -0.96200001 4 16 0
0 0 0 0 16 0
0 0 0 0 16 0
0 0 0 0 16 0
2.5250001 0.382 -0.92699999 0 18 0
0 0 0 0 16 0
2.559 0.39700001 -0.95499998 0 16 0
0 0 0 0 16 0
0 0 0 0 16 0
0 0 0 0 16 0
0 0 0 0 16 0
0 0 0 0 16 0
2.6500001 0.43900001 -1.034 4 16 0
2.6440001 0.44299999 -1.039 30 16 0
2.635 0.447 -1.043 150 16 0
2.6259999 0.44999999 -1.0470001 150 16 0
2.6199999 0.454 -1.052 150 16 0
2.618 0.458 -1.059 150 16 0
2.6129999 0.463 -1.064 150 16 0
2.6040001 0.46599999 -1.068 150 16 0
2.6070001 0.47099999 -1.076 150 16 0
2.6010001 0.47499999 -1.081 150 16 0
2.5910001 0.47799999 -1.084 150 16 0
2.5880001 0.48300001 -1.09 150 16 0
2.585 0.48699999 -1.096 150 16 0
2.5799999 0.491 -1.101 150 16 0
2.5769999 0.49599999 -1.107 150 16 0
2.572 0.5 -1.112 150 16 0
2.5650001 0.50400001 -1.1160001 150 16 0
2.562 0.50800002 -1.1210001 150 16 0
2.5569999 0.51200002 -1.126 150 16 0
2.552 0.51599997 -1.131 150 16 0
2.5469999 0.52100003 -1.136 150 16 0
2.5439999 0.52499998 -1.141 150 16 0
2.539 0.52899998 -1.145 150 16 0
2.5350001 0.53399998 -1.15 150 16 0
2.5320001 0.53799999 -1.156 150 16 0
2.5250001 0.542 -1.159 150 16 0
2.5250001 0.54699999 -1.165 150 16 0
2.52 0.551 -1.169 150 16 0
2.5150001 0.55500001 -1.173 150 16 0
2.5109999 0.56 -1.178 150 16 0
2.5050001 0.56400001 -1.181 150 16 0
2.5020001 0.56800002 -1.186 150 16 0
2.493 0.57200003 -1.188 150 16 0
2.4909999 0.57599998 -1.193 150 16 0
2.4860001 0.58099997 -1.197 150 16 0
2.483 0.58499998 -1.202 150 16 0
2.48 0.58999997 -1.206 150 16 0
2.477 0.59399998 -1.211 150 16 0
2.474 0.59899998 -1.215 150 16 0
2.47 0.60299999 -1.219 150 16 0
2.4660001 0.60799998 -1.223 150 16 0
2.461 0.61199999 -1.226 150 16 0
2.4560001 0.616 -1.23 150 16 0
2.4530001 0.62 -1.233 150 16 0
2.4489999 0.625 -1.237 150 16 0
2.4489999 0.63 -1.242 150 16 0
2.4419999 0.634 -1.244 150 16 0
2.4389999 0.63800001 -1.248 150 16 0
2.437 0.64300001 -1.252 150 16 0
2.4330001 0.64700001 -1.255 150 16 0
2.4300001 0.65200001 -1.2589999 150 16 0
2.427 0.65600002 -1.262 150 16 0
2.418 0.65899998 -1.263 150 16 0
2.4170001 0.66399997 -1.267 150 16 0
2.415 0.66900003 -1.271 150 16 0
2.404 0.671 -1.27 150 16 0
2.4089999 0.67799997 -1.277 150 16 0
2.401 0.68099999 -1.278 150 16 0
2.395 0.685 -1.279 150 16 0
2.392 0.68900001 -1.2819999 150 16 0
2.395 0.69499999 -1.2869999 150 16 0
2.3870001 0.69800001 -1.2869999 150 16 0
2.3840001 0.70300001 -1.29 150 16 0
2.381 0.70700002 -1.293 150 16 0
2.3770001 0.71100003 -1.294 150 16 0
2.3759999 0.71600002 -1.298 150 16 0
2.3729999 0.72000003 -1.3 150 16 0
2.3699999 0.72500002 -1.303 150 16 0
2.368 0.72899997 -1.3049999 150 16 0
2.362 0.73199999 -1.3049999 150 16 0
2.3559999 0.736 -1.306 150 16 0
2.3540001 0.74000001 -1.308 150 16 0
2.352 0.745 -1.3099999 150 16 0
2.349 0.74900001 -1.312 150 16 0
2.3469999 0.75300002 -1.314 150 16 0
2.342 0.75700003 -1.314 150 16 0
2.3410001 0.76200002 -1.317 150 16 0
2.339 0.76599997 -1.318 150 16 0
2.3380001 0.76999998 -1.3200001 150 16 0
2.3269999 0.77200001 -1.317 150 16 0
2.3239999 0.77600002 -1.318 150 16 0
2.322 0.77999997 -1.319 150 16 0
2.319 0.78299999 -1.3200001 150 16 0
2.3180001 0.78799999 -1.322 150 16 0
2.3169999 0.792 -1.323 150 16 0
2.313 0.796 -1.323 150 16 0
2.312 0.80000001 -1.325 150 16 0
2.3110001 0.80400002 -1.326 150 16 0
2.3050001 0.80699998 -1.325 150 16 0
2.302 0.81099999 -1.325 150 16 0
2.302 0.815 -1.326 150 16 0
2.299 0.81800002 -1.326 150 16 0
2.3 0.82300001 -1.3279999 150 16 0
2.299 0.82700002 -1.329 150 16 0
2.2939999 0.82999998 -1.327 150 16 0
2.293 0.83399999 -1.3279999 150 16 0
2.293 0.838 -1.329 150 16 0
2.29 0.84100002 -1.3279999 150 16 0
2.2880001 0.84500003 -1.3279999 150 16 0
2.2869999 0.84899998 -1.3279999 150 16 0
2.283 0.85100001 -1.326 150 16 0
2.2839999 0.85600001 -1.327 150 16 0
2.2850001 0.86000001 -1.3279999 150 16 0
2.2820001 0.86299998 -1.327 150 16 0
2.279 0.86500001 -1.325 150 16 0
2.2780001 0.86900002 -1.325 150 16 0
2.2739999 0.87099999 -1.322 150 16 0
2.277 0.87599999 -1.323 150 16 0
2.2720001 0.87800002 -1.321 150 16 0
2.2720001 0.88099998 -1.3200001 150 16 0
2.27 0.884 -1.319 150 16 0
2.2739999 0.889 -1.3200001 150 16 0
2.27 0.89099997 -1.317 150 16 0
2.2690001 0.89399999 -1.316 150 16 0
2.2690001 0.89700001 -1.3150001 150 16 0
2.2679999 0.89999998 -1.314 150 16 0
2.2679999 0.903 -1.312 150 16 0
2.267 0.90600002 -1.311 150 16 0
2.267 0.90899998 -1.309 150 16 0
2.2639999 0.91000003 -1.306 150 16 0
2.267 0.91399997 -1.307 150 16 0
2.2639999 0.91600001 -1.303 150 16 0
2.266 0.91900003 -1.302 150 16 0
2.266 0.92199999 -1.301 150 16 0
2.2639999 0.92400002 -1.298 150 16 0
2.266 0.92699999 -1.2970001 150 16 0
2.2639999 0.92900002 -1.294 150 16 0
2.2620001 0.93000001 -1.29 150 16 0
2.2609999 0.93199998 -1.2869999 150 16 0
2.263 0.935 -1.286 150 16 0
2.2639999 0.93699998 -1.284 150 16 0
2.263 0.93900001 -1.281 150 16 0
2.2679999 0.94300002 -1.281 150 16 0
2.2650001 0.94400001 -1.276 150 16 0
2.2679999 0.94700003 -1.275 139 16 0
2.2780001 0.95300001 -1.278 150 19 0
2.2839999 0.95700002 -1.278 150 16 0
2.286 0.95899999 -1.276 150 16 0
2.2880001 0.96200001 -1.274 150 16 0
2.289 0.96399999 -1.271 150 16 0
2.29 0.96499997 -1.268 150 16 0
2.286 0.96499997 -1.262 150 16 0
2.2869999 0.96600002 -1.2589999 150 16 0
2.283 0.96600002 -1.253 150 16 0
2.2809999 0.96600002 -1.248 150 16 0
2.2750001 0.96399999 -1.2410001 150 16 0
2.2750001 0.96499997 -1.237 150 16 0
2.276 0.96600002 -1.233 150 16 0
2.277 0.96700001 -1.229 150 16 0
2.279 0.96899998 -1.226 150 16 0
2.2780001 0.96899998 -1.221 150 16 0
2.2780001 0.97000003 -1.217 150 16 0
2.283 0.972 -1.216 150 16 0
2.2809999 0.97100002 -1.21 150 16 0
2.2839999 0.97299999 -1.207 150 16 0
2.286 0.97299999 -1.2029999 150 16 0
2.2869999 0.97399998 -1.199 150 16 0
2.2880001 0.97500002 -1.1950001 150 16 0
2.29 0.97500002 -1.191 150 16 0
2.293 0.97600001 -1.187 150 16 0
2.2950001 0.977 -1.184 150 16 0
2.296 0.977 -1.179 150 16 0
2.299 0.977 -1.175 150 16 0
2.2950001 0.97500002 -1.168 150 16 0
2.2980001 0.97600001 -1.164 150 16 0
2.299 0.97500002 -1.159 150 16 0
2.302 0.97600001 -1.155 150 16 0
2.3099999 0.97799999 -1.154 150 16 0
2.3080001 0.977 -1.147 150 16 0
2.3080001 0.97500002 -1.142 150 16 0
2.312 0.97600001 -1.138 150 16 0
2.313 0.97600001 -1.133 150 16 0
2.3150001 0.97500002 -1.128 150 16 0
2.3199999 0.97600001 -1.125 150 16 0
2.3199999 0.97399998 -1.119 150 16 0
2.323 0.97399998 -1.114 150 16 0
2.3269999 0.97399998 -1.11 150 16 0
2.3299999 0.97399998 -1.1059999 150 16 0
2.3299999 0.972 -1.1 150 16 0
2.3329999 0.97100002 -1.095 150 16 0
2.3380001 0.972 -1.092 150 16 0
2.3399999 0.97100002 -1.086 150 16 0
2.3399999 0.96899998 -1.08 150 16 0
2.346 0.96899998 -1.077 150 16 0
2.3499999 0.96799999 -1.072 150 16 0
2.3540001 0.96799999 -1.068 151 16 0
2.362 0.96899998 -1.0650001 151 16 0
2.365 0.96799999 -1.0599999 151 16 0
2.3759999 0.97000003 -1.059 151 16 0
2.381 0.96899998 -1.054 151 16 0
2.385 0.96799999 -1.05 151 16 0
2.388 0.96700001 -1.045 151 16 0
2.3889999 0.96499997 -1.038 151 16 0
2.3989999 0.96600002 -1.036 151 16 0
2.3940001 0.96100003 -1.027 151 16 0
2.3870001 0.95499998 -1.018 150 16 0
2.3859999 0.95200002 -1.011 150 16 0
2.388 0.94999999 -1.005 150 16 0
2.388 0.94700003 -0.99800003 150 16 0
2.3989999 0.94800001 -0.99599999 150 16 0
2.3929999 0.94199997 -0.98699999 150 16 0
2.4030001 0.94300002 -0.98400003 150 16 0
2.401 0.93900001 -0.977 150 16 0
2.4130001 0.94 -0.97500002 150 16 0
2.414 0.93699998 -0.96899998 150 16 0
2.4130001 0.93300003 -0.96100003 150 16 0
2.421 0.93300003 -0.958 150 16 0
2.421 0.92900002 -0.95099998 150 16 0
2.427 0.92799997 -0.94599998 150 16 0
2.4319999 0.926 -0.94099998 150 16 0
2.4330001 0.92199999 -0.935 150 16 0
2.4389999 0.921 -0.93000001 150 16 0
2.434 0.91500002 -0.921 151 16 0
2.421 0.90600002 -0.91000003 154 16 0
2.4330001 0.90700001 -0.90700001 153 16 0
2.4389999 0.90499997 -0.903 50 16 0
2.4319999 0.898 -0.89300001 13 16 0
2.4389999 0.89700001 -0.889 4 16 0
2.4660001 0.90200001 -0.89200002 8 18 0
2.467 0.898 -0.88499999 25 16 0
2.473 0.89600003 -0.88099998 150 16 0
2.477 0.89399999 -0.875 90 16 0
2.48 0.88999999 -0.86900002 28 16 0
2.487 0.88800001 -0.86500001 25 16 0
2.493 0.88599998 -0.86000001 26 16 0
2.494 0.88200003 -0.85299999 31 16 0
2.4990001 0.87900001 -0.84799999 36 16 0
2.506 0.87599999 -0.84299999 29 16 0
2.5090001 0.87300003 -0.83700001 23 16 0
2.5090001 0.86799997 -0.83099997 23 16 0
2.513 0.86500001 -0.82499999 100 16 0
2.5190001 0.86199999 -0.81900001 150 16 0
2.523 0.85799998 -0.81400001 150 16 0
2.526 0.85500002 -0.80800003 150 16 0
2.5320001 0.852 -0.80299997 150 16 0
2.536 0.84799999 -0.79699999 150 16 0
2.5409999 0.84500003 -0.792 150 16 0
2.5420001 0.83999997 -0.78500003 150 16 0
2.5469999 0.83700001 -0.77999997 150 16 0
2.55 0.833 -0.77399999 150 16 0
2.5539999 0.82800001 -0.76800001 150 16 0
2.5569999 0.824 -0.76200002 150 16 0
2.5639999 0.82099998 -0.75700003 150 16 0
2.5669999 0.81699997 -0.75099999 150 16 0
2.5699999 0.81199998 -0.745 150 16 0
2.573 0.80800003 -0.73900002 150 16 0
2.5780001 0.80400002 -0.73299998 150 16 0
2.5810001 0.80000001 -0.727 150 16 0
2.5840001 0.79500002 -0.72100002 150 16 0
2.5899999 0.792 -0.71600002 150 16 0
2.5999999 0.78899997 -0.71200001 150 16 0
2.6099999 0.78600001 -0.708 150 16 0
2.609 0.78100002 -0.70099998 150 16 0
2.615 0.77700001 -0.69499999 150 16 0
2.6210001 0.773 -0.69 150 16 0
2.6240001 0.76800001 -0.68400002 150 16 0
2.6329999 0.76499999 -0.67900002 150 16 0
2.6359999 0.75999999 -0.67299998 150 16 0
2.641 0.75599998 -0.66799998 150 16 0
2.6440001 0.75099999 -0.66100001 150 16 0
2.648 0.74599999 -0.65600002 150 16 0
2.6530001 0.741 -0.64999998 150 16 0
2.6589999 0.73699999 -0.64499998 150 16 0
2.6659999 0.73299998 -0.63999999 150 16 0
2.6689999 0.72799999 -0.634 150 16 0
2.6760001 0.72299999 -0.62800002 150 16 0
2.6800001 0.71799999 -0.62199998 150 16 0
2.6860001 0.71399999 -0.61699998 150 16 0
2.6889999 0.70899999 -0.611 150 16 0
2.694 0.704 -0.60500002 150 16 0
2.701 0.69999999 -0.60000002 150 16 0
2.704 0.69400001 -0.59399998 150 16 0
2.711 0.68900001 -0.58899999 150 16 0
2.7130001 0.68400002 -0.58200002 150 16 0
2.7160001 0.67799997 -0.57599998 150 16 0
2.7249999 0.67400002 -0.57099998 150 16 0
2.73 0.66900003 -0.56599998 150 16 0
2.733 0.66299999 -0.56 150 16 0
2.7360001 0.65799999 -0.55400002 150 16 0
2.7420001 0.653 -0.54799998 150 16 0
2.7479999 0.648 -0.54299998 150 16 0
2.757 0.64300001 -0.53799999 150 16 0
2.7620001 0.63800001 -0.53200001 150 16 0
2.767 0.63200003 -0.52600002 150 16 0
2.7709999 0.62699997 -0.51999998 150 16 0
2.78 0.62199998 -0.51599997 150 16 0
2.783 0.616 -0.509 150 16 0
2.789 0.611 -0.50400001 150 16 0
2.7950001 0.60600001 -0.498 150 16 0
2.8 0.60000002 -0.493 150 16 0
2.802 0.59399998 -0.486 150 16 0
2.8110001 0.58899999 -0.48100001 150 16 0
2.8180001 0.58399999 -0.47600001 150 16 0
2.825 0.57800001 -0.47099999 150 16 0
2.823 0.57099998 -0.46399999 150 16 0
2.8329999 0.56599998 -0.45899999 150 16 0
2.8440001 0.56099999 -0.454 150 16 0
2.8499999 0.55599999 -0.44800001 150 16 0
2.846 0.54799998 -0.44100001 150 16 0
2.8529999 0.542 -0.43599999 150 16 0
2.8599999 0.537 -0.43000001 150 16 0
2.8670001 0.53100002 -0.42500001 150 16 0
2.869 0.52399999 -0.419 150 16 0
2.878 0.51899999 -0.414 150 16 0
2.882 0.51300001 -0.40799999 150 16 0
2.8840001 0.50599998 -0.40099999 150 16 0
2.8929999 0.5 -0.396 150 16 0
2.902 0.495 -0.391 150 16 0
2.908 0.48800001 -0.38499999 150 16 0
2.914 0.48199999 -0.38 150 16 0
2.9189999 0.47600001 -0.37400001 150 16 0
2.921 0.46900001 -0.368 150 16 0
2.9319999 0.463 -0.36300001 150 16 0
2.9389999 0.45699999 -0.35699999 150 16 0
2.944 0.45100001 -0.35100001 150 16 0
2.948 0.44400001 -0.345 150 16 0
2.9590001 0.43799999 -0.34 150 16 0
2.9630001 0.43099999 -0.33399999 150 16 0
2.971 0.42500001 -0.329 150 16 0
2.9749999 0.41800001 -0.32300001 150 16 0
2.9790001 0.41100001 -0.317 150 16 0
2.9849999 0.405 -0.31099999 150 16 0
2.9890001 0.398 -0.30500001 150 16 0
3 0.39199999 -0.30000001 150 16 0
3.003 0.38499999 -0.294 150 16 0
3.006 0.377 -0.28799999 150 16 0
3.0139999 0.37099999 -0.28200001 150 16 0
3.0209999 0.36399999 -0.27599999 150 16 0
3.0250001 0.35699999 -0.271 149 16 0
3.0320001 0.34999999 -0.26499999 150 16 0
3.0350001 0.34299999 -0.259 150 16 0
3.043 0.336 -0.25299999 150 16 0
3.053 0.329 -0.248 150 16 0
3.0580001 0.322 -0.242 150 16 0
3.0639999 0.315 -0.236 150 16 0
3.0669999 0.30700001 -0.23 150 16 0
3.075 0.30000001 -0.22400001 150 16 0
3.0810001 0.29300001 -0.21799999 150 16 0
3.0940001 0.28600001 -0.213 150 16 0
3.095 0.278 -0.207 150 16 0
3.1040001 0.271 -0.20100001 150 16 0
3.108 0.264 -0.19499999 150 16 0
3.119 0.257 -0.189 150 16 0
3.1259999 0.249 -0.184 147 16 0
3.1300001 0.241 -0.178 118 16 0
3.1370001 0.234 -0.17200001 150 16 0
3.145 0.226 -0.16599999 150 16 0
3.151 0.219 -0.16 132 16 0
3.1570001 0.211 -0.154 147 16 0
3.1689999 0.204 -0.148 147 16 0
3.1730001 0.19599999 -0.142 140 16 0
3.1800001 0.18799999 -0.13600001 136 16 0
3.1900001 0.18000001 -0.131 135 16 0
3.1900001 0.17200001 -0.124 128 16 0
3.204 0.164 -0.119 132 16 0
3.214 0.15700001 -0.113 124 16 0
3.22 0.148 -0.107 128 16 0
3.2249999 0.14 -0.101 124 16 0
3.233 0.132 -0.094999999 137 16 0
3.2409999 0.124 -0.089000002 124 16 0
3.247 0.116 -0.082999997 124 16 0
3.2520001 0.107 -0.075999998 118 16 0
3.2579999 0.098999999 -0.07 109 16 0
3.2679999 0.090999998 -0.064000003 97 16 0
3.2739999 0.082000002 -0.057999998 111 16 0
3.2839999 0.074000001 -0.052000001 102 16 0
3.286 0.064999998 -0.046 69 16 0
3.296 0.057 -0.039999999 47 16 0
3.2980001 0.048 -0.034000002 101 16 0
3.309 0.039999999 -0.028000001 68 16 0
3.316 0.030999999 -0.022 55 16 0
3.316 0.022 -0.015 25 16 0
3.3010001 0.013 -0.0089999996 20 16 0
3.286 0.0049999999 -0.003 20 16 0
3.2690001 -0.003 0.0020000001 18 16 0
3.253 -0.012 0.0080000004 32 16 0
3.2509999 -0.02 0.014 128 16 0
3.2609999 -0.028999999 0.02 150 16 0
3.266 -0.037999999 0.026000001 150 16 0
3.277 -0.046999998 0.032000002 150 16 0
3.2820001 -0.056000002 0.037999999 150 16 0
3.289 -0.064999998 0.044 150 16 0
3.28 -0.072999999 0.050000001 34 16 0
3.2639999 -0.082000002 0.056000002 31 16 0
3.2460001 -0.090000004 0.061000001 31 16 0
3.2290001 -0.097999997 0.067000002 30 16 0
3.217 -0.106 0.071999997 31 16 0
3.2 -0.115 0.078000002 30 16 0
3.1819999 -0.122 0.082999997 30 16 0
3.164 -0.13 0.088 29 16 0
3.1489999 -0.138 0.093000002 30 16 0
3.1340001 -0.146 0.097999997 29 16 0
3.1210001 -0.154 0.104 29 16 0
3.098 -0.161 0.108 30 16 0
3.0880001 -0.169 0.113 29 16 0
3.0780001 -0.177 0.118 30 16 0
3.0599999 -0.184 0.123 30 16 0
3.0420001 -0.192 0.12800001 31 16 0
3.0309999 -0.199 0.133 32 16 0
3.0150001 -0.207 0.13699999 31 16 0
2.9920001 -0.213 0.141 31 16 0
2.9790001 -0.22 0.146 31 16 0
2.9679999 -0.228 0.15000001 31 16 0
2.951 -0.235 0.155 31 16 0
2.937 -0.242 0.15899999 31 16 0
2.927 -0.249 0.163 33 16 0
2.9070001 -0.255 0.167 31 16 0
2.9000001 -0.26300001 0.17200001 32 16 0
2.881 -0.26899999 0.175 33 16 0
2.8699999 -0.27599999 0.18000001 34 16 0
2.8570001 -0.28299999 0.184 33 16 0
2.8429999 -0.289 0.18799999 36 16 0
2.829 -0.296 0.191 34 16 0
2.8169999 -0.30199999 0.19499999 38 16 0
2.8050001 -0.30899999 0.199 37 16 0
2.79 -0.315 0.20299999 37 16 0
2.78 -0.322 0.207 37 16 0
2.7639999 -0.32800001 0.20999999 37 16 0
2.753 -0.33399999 0.214 36 16 0
2.737 -0.34 0.21699999 37 16 0
2.73 -0.347 0.221 37 16 0
2.7179999 -0.35299999 0.22499999 38 16 0
2.71 -0.36000001 0.228 40 16 0
2.694 -0.36500001 0.23100001 44 16 0
2.684 -0.37200001 0.235 43 16 0
2.6689999 -0.377 0.23800001 37 16 0
2.664 -0.384 0.242 51 16 0
2.6440001 -0.389 0.244 47 16 0
2.6359999 -0.39500001 0.248 44 16 0
2.6229999 -0.40099999 0.25099999 56 16 0
2.6129999 -0.40700001 0.25400001 51 16 0
2.5999999 -0.412 0.257 54 16 0
2.5899999 -0.41800001 0.25999999 61 16 0
2.5769999 -0.42399999 0.26300001 57 16 0
2.563 -0.42899999 0.26499999 60 16 0
2.562 -0.43599999 0.26899999 61 16 0
2.549 -0.44100001 0.27200001 65 16 0
2.533 -0.44600001 0.27399999 55 16 0
2.516 -0.44999999 0.27599999 63 16 0
2.5109999 -0.45699999 0.28 65 16 0
2.4920001 -0.461 0.28099999 65 16 0
2.4890001 -0.46799999 0.285 80 16 0
2.4779999 -0.47299999 0.287 73 16 0
2.4679999 -0.47799999 0.28999999 70 16 0
2.4579999 -0.484 0.29300001 76 16 0
2.4430001 -0.48800001 0.29499999 70 16 0
2.438 -0.49399999 0.29800001 69 16 0
2.4300001 -0.5 0.30000001 79 16 0
2.418 -0.50400001 0.30199999 83 16 0
2.405 -0.509 0.30500001 79 16 0
2.401 -0.51499999 0.30700001 75 16 0
2.3870001 -0.51899999 0.30899999 78 16 0
2.3770001 -0.52399999 0.31200001 75 16 0
2.3670001 -0.52899998 0.31400001 93 16 0
2.355 -0.53399998 0.31600001 82 16 0
2.346 -0.53899997 0.31799999 104 16 0
2.3340001 -0.54299998 0.31900001 95 16 0
2.325 -0.54799998 0.322 82 16 0
2.3150001 -0.55299997 0.324 79 16 0
2.3039999 -0.55699998 0.32499999 85 16 0
2.2920001 -0.56099999 0.32699999 86 16 0
2.28 -0.565 0.329 87 16 0
2.2780001 -0.57200003 0.331 91 16 0
2.2650001 -0.57499999 0.333 92 16 0
2.2520001 -0.579 0.33399999 109 16 0
2.2420001 -0.583 0.33500001 105 16 0
2.2360001 -0.588 0.338 109 16 0
2.2290001 -0.59299999 0.34 107 16 0
2.2179999 -0.597 0.34099999 98 16 0
2.2049999 -0.60100001 0.34200001 105 16 0
2.201 -0.60699999 0.34400001 114 16 0
2.1930001 -0.611 0.34599999 129 16 0
2.1830001 -0.61500001 0.347 131 16 0
2.1719999 -0.61900002 0.34900001 110 16 0
2.168 -0.62400001 0.35100001 130 16 0
2.155 -0.62699997 0.35100001 129 16 0
2.1489999 -0.63300002 0.35299999 120 16 0
2.1389999 -0.63599998 0.354 123 16 0
2.1329999 -0.64099997 0.35600001 134 16 0
2.122 -0.64399999 0.35699999 120 16 0
2.1110001 -0.648 0.35800001 126 16 0
2.1040001 -0.65200001 0.359 134 16 0
2.0869999 -0.65399998 0.359 140 16 0
2.082 -0.65899998 0.361 141 16 0
2.072 -0.662 0.36199999 142 16 0
2.0669999 -0.667 0.36300001 147 16 0
2.0580001 -0.671 0.36399999 148 16 0
2.049 -0.67500001 0.36500001 137 16 0
2.0409999 -0.67799997 0.366 150 16 0
2.029 -0.68099999 0.366 140 16 0
2.026 -0.68599999 0.368 150 16 0
2.017 -0.69 0.36899999 150 16 0
2.003 -0.69099998 0.36899999 144 16 0
2 -0.69700003 0.37 142 16 0
1.994 -0.70099998 0.37200001 150 16 0
1.98 -0.70200002 0.37099999 150 16 0
1.974 -0.70700002 0.37200001 150 16 0
1.965 -0.70999998 0.373 150 16 0
1.9579999 -0.71399999 0.37400001 147 16 0
1.95 -0.71700001 0.37400001 150 16 0
1.942 -0.72000003 0.375 150 16 0
1.936 -0.72399998 0.37599999 150 16 0
1.932 -0.72899997 0.377 150 16 0
1.923 -0.73199999 0.377 150 16 0
1.911 -0.73400003 0.377 150 16 0
1.9069999 -0.73799998 0.37799999 150 16 0
1.903 -0.74299997 0.37900001 150 16 0
1.891 -0.74400002 0.37799999 150 16 0
1.872 -0.74299997 0.37599999 150 16 0
1.87 -0.74800003 0.37799999 150 16 0
1.865 -0.75199997 0.37799999 150 16 0
1.8609999 -0.75700003 0.37900001 150 16 0
1.857 -0.76099998 0.38 150 16 0
1.85 -0.764 0.38 150 16 0
1.8380001 -0.76599997 0.38 150 16 0
1.836 -0.77100003 0.38100001 150 16 0
1.8279999 -0.773 0.38100001 150 16 0
1.8200001 -0.77600002 0.38 3 0 0
1.812 -0.778 0.38 2 0 0
1.804 -0.78100002 0.38 2 0 0
1.798 -0.78399998 0.38 2 0 0
1.7920001 -0.787 0.38 150 16 0
1.786 -0.79000002 0.38 2 0 0
1.781 -0.79400003 0.38100001 3 0 0
1.772 -0.796 0.38 4 0 0
1.763 -0.79799998 0.38 150 16 0
1.757 -0.80000001 0.37900001 3 0 0
1.7539999 -0.80400002 0.38 2 0 0
1.7460001 -0.80699998 0.37900001 98 0 0
1.738 -0.80900002 0.37900001 150 16 0
1.7309999 -0.81099999 0.37799999 66 0 0
1.727 -0.81400001 0.37900001 150 16 0
1.72 -0.81699997 0.37799999 150 16 0
1.7180001 -0.82099998 0.37900001 150 16 0
1.706 -0.82099998 0.377 150 16 0
1.709 -0.82800001 0.37900001 150 16 0
1.701 -0.82999998 0.37799999 150 16 0
1.691 -0.82999998 0.37599999 150 16 0
1.683 -0.83099997 0.375 150 16 0
1.677 -0.83399999 0.375 150 16 0
1.675 -0.838 0.375 150 16 0
1.668 -0.83999997 0.37400001 150 16 0
1.661 -0.84200001 0.373 150 16 0
1.6569999 -0.84500003 0.373 150 16 0
1.652 -0.84799999 0.373 150 16 0
1.646 -0.85000002 0.37200001 150 16 0
1.641 -0.852 0.37099999 150 16 0
1.633 -0.85299999 0.37 150 16 0
1.63 -0.85699999 0.37 150 16 0
1.625 -0.85900003 0.36899999 150 16 0
1.619 -0.861 0.368 150 16 0
1.613 -0.86199999 0.36700001 150 16 0
1.6109999 -0.866 0.36700001 150 16 0
1.602 -0.866 0.36500001 3 0 0
1.597 -0.86799997 0.36500001 150 16 0
1.594 -0.87199998 0.36399999 2 0 0
1.592 -0.875 0.36399999 3 0 0
1.584 -0.87599999 0.36199999 6 0 0
1.576 -0.875 0.36000001 5 0 0
1.571 -0.87800002 0.359 6 0 0
1.569 -0.88099998 0.359 150 0 0
1.5650001 -0.88300002 0.35800001 150 0 0
1.5599999 -0.88499999 0.35699999 150 0 0
1.552 -0.88499999 0.35499999 137 0 0
1.548 -0.88599998 0.354 150 0 0
1.546 -0.88999999 0.35299999 150 0 0
1.544 -0.89300001 0.35299999 150 0 0
1.535 -0.89200002 0.35100001 144 0 0
1.533 -0.89499998 0.34999999 96 0 0
1.523 -0.89300001 0.347 150 3 0
1.5190001 -0.89499998 0.34599999 150 0 0
1.5140001 -0.89600003 0.345 150 0 0
1.513 -0.89899999 0.34400001 150 0 0
1.5089999 -0.90100002 0.34299999 150 0 0
1.507 -0.90399998 0.34200001 150 0 0
1.502 -0.90499997 0.34 150 0 0
1.502 -0.90899998 0.34 150 0 0
1.497 -0.90899998 0.338 150 0 0
1.493 -0.91100001 0.33700001 150 0 0
1.492 -0.91299999 0.336 150 0 0
1.49 -0.91600001 0.33500001 122 0 0
1.487 -0.917 0.333 150 0 0
1.479 -0.91600001 0.331 147 0 0
1.473 -0.91600001 0.329 119 0 0
1.473 -0.91900003 0.32800001 107 0 0
1.472 -0.92199999 0.32699999 150 0 0
1.4680001 -0.92199999 0.32499999 147 0 0
1.4630001 -0.92199999 0.32300001 149 0 0
1.462 -0.92500001 0.322 133 0 0
1.457 -0.92500001 0.31999999 150 0 0
1.456 -0.92699999 0.31900001 148 0 0
1.45 -0.926 0.317 137 0 0
1.448 -0.92799997 0.315 140 0 0
1.444 -0.92799997 0.31299999 145 0 0
1.444 -0.93099999 0.31200001 150 0 0
1.442 -0.93199998 0.31099999 115 0 0
1.439 -0.93199998 0.30899999 127 0 0
1.436 -0.93300003 0.30700001 123 0 0
1.4349999 -0.935 0.30599999 125 0 0
1.434 -0.93699998 0.30399999 130 0 0
1.425 -0.93300003 0.301 148 2 0
1.424 -0.935 0.29899999 143 0 0
1.423 -0.93599999 0.29800001 135 0 0
1.4170001 -0.935 0.29499999 145 0 0
1.419 -0.93800002 0.294 146 0 0
1.416 -0.93800002 0.292 150 0 0
1.413 -0.93800002 0.28999999 129 0 0
1.4119999 -0.93900001 0.28799999 115 0 0
1.41 -0.93900001 0.28600001 149 0 0
1.409 -0.94099998 0.285 139 0 0
1.406 -0.94 0.28299999 130 0 0
1.406 -0.94099998 0.28099999 143 0 0
1.402 -0.94 0.27900001 144 0 0
1.399 -0.94 0.27599999 136 0 0
1.399 -0.94099998 0.27500001 150 0 0
1.399 -0.94199997 0.273 104 0 0
1.398 -0.94199997 0.271 106 0 0
1.397 -0.94300002 0.26899999 135 0 0
1.395 -0.94300002 0.26699999 112 0 0
1.3940001 -0.94300002 0.26499999 77 0 0
1.393 -0.94300002 0.26300001 115 0 0
1.392 -0.94400001 0.26100001 99 0 0
1.392 -0.94400001 0.259 126 0 0
1.392 -0.94499999 0.257 90 0 0
1.391 -0.94499999 0.255 133 0 0
1.391 -0.94599998 0.25400001 88 0 0
1.387 -0.94300002 0.25099999 143 0 0
1.387 -0.94300002 0.249 92 0 0
1.3890001 -0.94499999 0.24699999 120 0 0
1.3839999 -0.94199997 0.244 118 0 0
1.385 -0.94199997 0.242 101 0 0
1.387 -0.94400001 0.241 124 0 0
1.385 -0.94300002 0.23899999 111 0 0
1.383 -0.94099998 0.236 117 0 0
1.3839999 -0.94199997 0.234 133 0 0
1.3839999 -0.94199997 0.23199999 89 0 0
1.381 -0.93900001 0.23 138 0 0
1.388 -0.94300002 0.229 106 0 0
1.385 -0.94099998 0.226 2 0 0
1.386 -0.94099998 0.22400001 102 0 0
1.382 -0.93800002 0.221 130 0 0
1.383 -0.93800002 0.219 119 0 0
1.383 -0.93699998 0.21699999 109 0 0
1.385 -0.93800002 0.215 127 0 0
1.385 -0.93699998 0.213 123 0 0
1.385 -0.93599999 0.211 120 0 0
1.39 -0.93800002 0.20999999 84 0 0
1.387 -0.935 0.207 89 0 0
1.388 -0.93400002 0.205 102 0 0
1.392 -0.93599999 0.20299999 130 0 0
1.39 -0.93300003 0.20100001 106 0 0
1.391 -0.93199998 0.199 150 0 0
1.392 -0.93199998 0.197 126 0 0
1.392 -0.93000001 0.19400001 112 0 0
1.3940001 -0.93000001 0.193 108 0 0
1.395 -0.92900002 0.19 135 0 0
1.392 -0.92500001 0.18799999 97 0 0
1.4 -0.92900002 0.18700001 118 0 0
1.397 -0.92500001 0.184 98 0 0
1.398 -0.92400002 0.182 85 0 0
1.403 -0.92500001 0.18000001 95 0 0
1.404 -0.92400002 0.178 108 0 0
1.405 -0.92199999 0.176 124 0 0
1.4069999 -0.921 0.17399999 105 0 0
1.405 -0.917 0.171 136 0 0
1.409 -0.91799998 0.17 87 0 0
1.41 -0.91600001 0.167 102 0 0
1.413 -0.91600001 0.16599999 92 0 0
1.4170001 -0.91600001 0.164 115 0 0
1.4170001 -0.91299999 0.162 116 0 0
1.42 -0.912 0.16 122 0 0
1.4220001 -0.91100001 0.15800001 138 0 0
1.423 -0.90899998 0.156 119 0 0
1.425 -0.90700001 0.154 104 0 0
1.431 -0.90799999 0.152 105 0 0
1.432 -0.90600002 0.15000001 92 0 0
1.434 -0.90499997 0.148 93 0 0
1.436 -0.90200001 0.146 108 0 0
1.439 -0.90100002 0.14399999 97 0 0
1.439 -0.898 0.142 113 0 0
1.4450001 -0.89899999 0.14 128 0 0
1.446 -0.89600003 0.138 80 0 0
1.449 -0.89499998 0.13600001 111 0 0
1.45 -0.89200002 0.134 83 0 0
1.455 -0.89099997 0.133 112 0 0
1.457 -0.889 0.131 72 0 0
1.461 -0.88800001 0.12899999 67 0 0
1.465 -0.88700002 0.127 112 0 0
1.467 -0.884 0.125 97 0 0
1.471 -0.88300002 0.123 96 0 0
1.474 -0.88099998 0.121 5 0 0
1.475 -0.87800002 0.12 102 0 0
1.48 -0.87699997 0.118 100 0 0
1.484 -0.87599999 0.116 92 0 0
1.4910001 -0.87599999 0.115 74 0 0
1.489 -0.87099999 0.112 86 0 0
1.5 -0.87300003 0.111 85 0 0
1.498 -0.86799997 0.109 96 0 0
1.499 -0.86500001 0.107 87 0 0
1.507 -0.86500001 0.106 79 0 0
1.506 -0.86000001 0.104 66 0 0
1.515 -0.861 0.102 126 0 0
1.518 -0.85799998 0.1 93 0 0
1.5190001 -0.85500002 0.098999999 78 0 0
1.524 -0.85299999 0.097000003 5 0 0
1.529 -0.852 0.094999999 90 0 0
1.533 -0.85000002 0.093999997 69 0 0
1.535 -0.84600002 0.092 74 0 0
1.5420001 -0.84600002 0.090000004 74 0 0
1.544 -0.84200001 0.089000002 81 0 0
1.551 -0.84100002 0.086999997 64 0 0
1.5549999 -0.838 0.085000001 78 0 0
1.557 -0.83499998 0.083999999 79 0 0
1.567 -0.83600003 0.082999997 75 0 0
1.571 -0.833 0.081 92 0 0
1.569 -0.82700002 0.079000004 69 0 0
1.571 -0.82300001 0.077 61 0 0
1.576 -0.82099998 0.075999998 73 0 0
1.582 -0.81999999 0.074000001 67 0 0
1.589 -0.81800002 0.072999999 73 0 0
1.589 -0.81300002 0.071000002 69 0 0
1.594 -0.81099999 0.07 91 0 0
1.608 -0.81300002 0.068999998 83 3 0
1.614 -0.81099999 0.067000002 62 0 0
1.6160001 -0.80699998 0.066 69 0 0
1.6210001 -0.80400002 0.064000003 67 0 0
1.623 -0.80000001 0.063000001 65 0 0
1.633 -0.80000001 0.061999999 68 0 0
1.64 -0.79799998 0.059999999 46 0 0
1.6440001 -0.79400003 0.059 44 0 0
1.648 -0.79100001 0.057 47 0 0
1.655 -0.78899997 0.056000002 54 0 0
1.661 -0.78600001 0.055 52 0 0
1.674 -0.787 0.054000001 3 0 0
1.676 -0.78299999 0.052000001 50 0 0
1.679 -0.77899998 0.050999999 43 0 0
1.683 -0.77499998 0.048999999 44 0 0
1.692 -0.77399999 0.048 150 16 0
1.694 -0.76899999 0.046999998 1 0 0
1.705 -0.76800001 0.046 150 16 0
1.714 -0.76700002 0.045000002 2 0 0
1.724 -0.76599997 0.043000001 150 16 0
1.724 -0.75999999 0.041999999 150 16 0
1.7309999 -0.75700003 0.041000001 150 16 0
1.738 -0.755 0.039999999 1 0 0
1.739 -0.74900001 0.037999999 150 16 0
1.753 -0.74900001 0.037 150 16 0
1.752 -0.74299997 0.035999998 150 16 0
1.761 -0.741 0.035 150 16 0
1.768 -0.73799998 0.034000002 150 16 0
1.778 -0.736 0.033 150 16 0
1.7819999 -0.73199999 0.032000002 147 16 0
1.79 -0.73000002 0.030999999 144 16 0
1.794 -0.72500002 0.028999999 145 16 0
1.802 -0.722 0.028000001 133 16 0
1.806 -0.71799999 0.027000001 140 16 0
1.813 -0.71499997 0.026000001 134 16 0
1.819 -0.71100003 0.025 128 16 0
1.832 -0.70999998 0.024 127 16 0
1.832 -0.704 0.023 135 16 0
1.847 -0.70300001 0.022 130 16 0
1.8559999 -0.69999999 0.021 134 16 0
1.858 -0.69499999 0.02 126 16 0
1.868 -0.69199997 0.018999999 134 16 0
1.874 -0.68800002 0.017999999 135 16 0
1.882 -0.685 0.017000001 133 16 0
1.888 -0.68099999 0.016000001 122 16 0
1.902 -0.67900002 0.016000001 119 16 0
1.9069999 -0.67500001 0.015 122 16 0
1.913 -0.67000002 0.014 1 0 0
1.92 -0.66600001 0.013 141 16 0
1.926 -0.662 0.012 122 16 0
1.932 -0.65799999 0.011 117 16 0
1.952 -0.65799999 0.0099999998 115 19 0
1.954 -0.65200001 0.0099999998 115 16 0
1.965 -0.64899999 0.0089999996 109 16 0
1.975 -0.64600003 0.0080000004 103 16 0
1.977 -0.639 0.0070000002 101 16 0
1.99 -0.63700002 0.0060000001 102 16 0
1.998 -0.63300002 0.0060000001 98 16 0
2.0020001 -0.62800002 0.0049999999 100 16 0
2.0139999 -0.62400001 0.0040000002 104 16 0
2.02 -0.62 0.003 99 16 0
2.0309999 -0.616 0.003 93 16 0
2.0420001 -0.61299998 0.0020000001 97 16 0
2.0510001 -0.60799998 0.001 90 16 0
2.062 -0.60500002 0 96 16 0
2.0699999 -0.60000002 0 93 16 0
2.082 -0.59600002 0 85 16 0
2.0910001 -0.59200001 0 86 16 0
2.096 -0.58600003 -0.001 84 16 0
2.1110001 -0.58399999 -0.0020000001 84 16 0
2.118 -0.57800001 -0.0020000001 85 16 0
2.125 -0.57300001 -0.003 88 16 0
2.1429999 -0.57099998 -0.0040000002 91 16 0
2.151 -0.56599998 -0.0040000002 82 16 0
2.161 -0.56099999 -0.0049999999 85 16 0
2.1659999 -0.55500001 -0.0049999999 74 16 0
2.1819999 -0.55199999 -0.0060000001 79 16 0
2.1949999 -0.54799998 -0.0060000001 75 16 0
2.2090001 -0.54400003 -0.0070000002 79 16 0
2.217 -0.53899997 -0.0070000002 75 16 0
2.23 -0.53500003 -0.0080000004 66 16 0
2.2390001 -0.52899998 -0.0080000004 72 16 0
2.2509999 -0.52499998 -0.0089999996 67 16 0
2.2590001 -0.51899999 -0.0089999996 63 16 0
2.27 -0.514 -0.0089999996 66 16 0
2.2780001 -0.50800002 -0.0099999998 64 16 0
2.2939999 -0.50400001 -0.0099999998 63 16 0
2.3050001 -0.49900001 -0.011 69 16 0
2.319 -0.49399999 -0.011 70 16 0
2.3239999 -0.48699999 -0.011 56 16 0
2.3399999 -0.48300001 -0.012 56 16 0
2.352 -0.47799999 -0.012 62 16 0
2.3659999 -0.47299999 -0.012 55 16 0
2.3770001 -0.46700001 -0.013 47 16 0
2.3889999 -0.46200001 -0.013 63 16 0
2.4000001 -0.456 -0.013 51 16 0
2.4200001 -0.45199999 -0.014 60 16 0
2.428 -0.44499999 -0.014 51 16 0
2.4419999 -0.44 -0.014 44 16 0
2.4549999 -0.43399999 -0.014 39 16 0
2.4649999 -0.42699999 -0.014 35 16 0
2.4809999 -0.42199999 -0.015 38 16 0
2.4890001 -0.41499999 -0.015 32 16 0
2.5020001 -0.40900001 -0.015 32 16 0
2.5179999 -0.40400001 -0.015 31 16 0
2.526 -0.39700001 -0.015 32 16 0
2.5439999 -0.391 -0.015 30 16 0
2.5639999 -0.38499999 -0.016000001 30 16 0
2.5710001 -0.37799999 -0.016000001 29 16 0
2.5899999 -0.37200001 -0.016000001 30 16 0
2.6070001 -0.366 -0.016000001 30 16 0
2.618 -0.359 -0.016000001 30 16 0
2.632 -0.35299999 -0.016000001 30 16 0
2.6459999 -0.34599999 -0.016000001 31 16 0
2.658 -0.33899999 -0.016000001 30 16 0
2.6830001 -0.333 -0.016000001 30 19 0
2.698 -0.32600001 -0.016000001 31 16 0
2.7130001 -0.31900001 -0.016000001 31 16 0
2.724 -0.31200001 -0.016000001 30 16 0
2.7360001 -0.30399999 -0.015 28 16 0
2.7550001 -0.29699999 -0.015 29 16 0
2.77 -0.28999999 -0.015 29 16 0
2.786 -0.28200001 -0.015 28 16 0
2.803 -0.27500001 -0.015 29 16 0
2.8169999 -0.26699999 -0.015 28 16 0
2.836 -0.25999999 -0.015 27 16 0
2.8529999 -0.252 -0.014 27 16 0
2.8670001 -0.244 -0.014 27 16 0
2.8859999 -0.236 -0.014 28 16 0
2.9059999 -0.228 -0.014 27 16 0
2.924 -0.22 -0.013 28 16 0
2.9460001 -0.212 -0.013 27 16 0
2.9590001 -0.204 -0.013 26 16 0
2.98 -0.19499999 -0.012 27 16 0
2.9990001 -0.18700001 -0.012 27 16 0
3.017 -0.178 -0.011 26 16 0
3.043 -0.17 -0.011 27 16 0
3.0599999 -0.161 -0.011 26 16 0
3.0869999 -0.153 -0.0099999998 27 16 0
3.1029999 -0.14300001 -0.0099999998 26 16 0
3.1259999 -0.134 -0.0089999996 28 16 0
3.145 -0.125 -0.0089999996 27 16 0
3.1670001 -0.116 -0.0080000004 28 16 0
3.1900001 -0.106 -0.0070000002 26 16 0
3.21 -0.096000001 -0.0070000002 26 16 0
3.234 -0.086999997 -0.0060000001 25 16 0
3.257 -0.077 -0.0049999999 30 16 0
3.2690001 -0.066 -0.0049999999 131 16 0
3.263 -0.056000002 -0.0040000002 142 16 0
3.257 -0.045000002 -0.003 106 16 0
3.257 -0.035 -0.0020000001 121 16 0
3.25 -0.024 -0.001 107 16 0
3.247 -0.013 -0.001 24 16 0
3.2739999 -0.003 0 17 16 0
3.2920001 0.0060000001 0 18 16 0
3.3199999 0.017000001 0.001 20 16 0
3.3310001 0.028000001 0.0020000001 44 16 0
3.3239999 0.039000001 0.003 54 16 0
3.3180001 0.048999999 0.0040000002 47 16 0
3.312 0.059999999 0.0049999999 42 16 0
3.309 0.071000002 0.0060000001 58 16 0
3.302 0.081 0.0070000002 54 16 0
3.3 0.092 0.0080000004 55 16 0
3.293 0.102 0.0089999996 61 16 0
3.2909999 0.113 0.0099999998 56 16 0
3.2869999 0.123 0.011 68 16 0
3.2839999 0.134 0.012 59 16 0
3.277 0.14399999 0.013 54 16 0
3.267 0.154 0.014 53 16 0
3.2579999 0.164 0.015 63 16 0
3.2579999 0.175 0.017000001 60 16 0
3.2539999 0.185 0.017999999 72 16 0
3.2509999 0.19499999 0.018999999 76 16 0
3.2460001 0.205 0.02 60 16 0
3.2349999 0.215 0.021 42 16 0
3.22 0.22499999 0.022 34 16 0
3.2190001 0.235 0.024 40 16 0
3.2279999 0.24600001 0.025 85 16 0
3.2260001 0.25600001 0.026000001 104 16 0
3.22 0.266 0.028000001 94 16 0
3.2160001 0.27599999 0.028999999 90 16 0
3.214 0.28600001 0.029999999 86 16 0
3.2079999 0.296 0.030999999 85 16 0
3.204 0.30599999 0.033 94 16 0
3.1960001 0.31600001 0.034000002 90 16 0
3.1919999 0.32499999 0.035999998 79 16 0
3.191 0.336 0.037 81 16 0
3.1849999 0.345 0.037999999 84 16 0
3.178 0.35499999 0.039999999 93 16 0
3.1800001 0.36500001 0.041000001 100 16 0
3.1700001 0.37400001 0.043000001 96 16 0
3.1670001 0.384 0.044 90 16 0
3.1619999 0.39399999 0.046 93 16 0
3.1570001 0.403 0.046999998 85 16 0
3.152 0.41299999 0.048999999 89 16 0
3.148 0.42300001 0.050000001 90 16 0
3.1440001 0.43200001 0.052000001 97 16 0
3.1370001 0.44100001 0.052999999 89 16 0
3.135 0.45100001 0.055 79 16 0
3.1289999 0.461 0.056000002 78 16 0
3.125 0.47 0.057999998 84 16 0
3.1210001 0.47999999 0.059999999 85 16 0
3.119 0.48899999 0.061000001 89 16 0
3.1140001 0.49900001 0.063000001 97 16 0
3.1099999 0.50800002 0.064999998 100 16 0
3.1059999 0.51700002 0.066 92 16 0
3.1029999 0.52700001 0.068000004 92 16 0
3.095 0.53600001 0.07 90 16 0
3.0880001 0.54500002 0.071000002 112 16 0
3.086 0.55400002 0.072999999 101 16 0
3.0810001 0.56300002 0.075000003 101 16 0
3.0810001 0.57300001 0.077 107 16 0
3.0739999 0.58200002 0.079000004 88 16 0
3.073 0.59200001 0.081 92 16 0
3.0680001 0.60100001 0.082000002 111 16 0
3.066 0.61000001 0.083999999 101 16 0
3.0569999 0.61900002 0.086000003 100 16 0
3.0610001 0.62900001 0.088 107 16 0
3.049 0.63700002 0.090000004 100 16 0
3.0469999 0.64600003 0.092 97 16 0
3.0450001 0.65600002 0.093999997 107 16 0
3.04 0.66500002 0.096000001 118 16 0
3.039 0.67400002 0.097999997 116 16 0
3.03 0.68199998 0.1 109 16 0
3.0339999 0.69300002 0.102 109 16 0
3.0239999 0.69999999 0.104 105 16 0
3.0209999 0.70999998 0.106 109 16 0
3.0179999 0.71899998 0.108 106 16 0
3.0139999 0.727 0.11 113 16 0
3.0109999 0.736 0.112 116 16 0
3.0050001 0.745 0.114 107 16 0
3.003 0.75400001 0.117 110 16 0
2.9920001 0.76099998 0.118 110 16 0
2.993 0.77100003 0.121 116 16 0
2.9879999 0.77899998 0.123 141 16 0
2.984 0.78799999 0.125 150 16 0
2.98 0.79699999 0.12800001 134 16 0
2.977 0.80599999 0.13 150 16 0
2.9749999 0.815 0.132 138 16 0
2.971 0.824 0.134 140 16 0
2.967 0.83200002 0.13699999 148 16 0
2.9649999 0.84100002 0.139 148 16 0
2.9590001 0.84899998 0.142 126 16 0
2.961 0.85900003 0.14399999 131 16 0
2.9560001 0.86799997 0.147 141 16 0
2.951 0.87599999 0.149 136 16 0
2.948 0.884 0.15099999 133 16 0
2.9449999 0.89300001 0.154 136 16 0
2.9400001 0.90100002 0.156 137 16 0
2.9389999 0.91000003 0.15899999 148 16 0
2.9389999 0.92000002 0.162 139 16 0
2.9319999 0.92699999 0.164 135 16 0
2.9300001 0.93599999 0.167 118 16 0
2.928 0.94499999 0.17 131 16 0
2.925 0.954 0.17200001 143 16 0
2.9170001 0.95999998 0.175 133 16 0
2.9130001 0.96899998 0.177 72 16 0
2.925 0.98199999 0.18099999 27 16 0
2.908 0.986 0.183 85 16 0
2.9070001 0.995 0.186 145 16 0
2.898 1.001 0.18799999 136 16 0
2.9000001 1.011 0.191 130 16 0
2.8959999 1.0190001 0.19400001 118 16 0
2.8929999 1.027 0.197 130 16 0
2.891 1.036 0.2 128 16 0
2.8840001 1.043 0.20299999 131 16 0
2.8789999 1.05 0.206 116 16 0
2.8829999 1.061 0.20900001 131 16 0
2.8740001 1.067 0.212 131 16 0
2.8740001 1.076 0.215 136 16 0
2.872 1.085 0.21799999 133 16 0
2.8670001 1.092 0.221 131 16 0
2.8659999 1.101 0.22400001 139 16 0
2.8640001 1.109 0.227 116 16 0
2.862 1.118 0.23100001 117 16 0
2.8559999 1.125 0.233 91 16 0
2.8529999 1.132 0.236 81 16 0
2.855 1.142 0.23999999 68 16 0
2.852 1.15 0.243 63 16 0
2.848 1.158 0.24699999 52 16 0
2.845 1.165 0.25 87 16 0
2.8410001 1.173 0.25299999 99 16 0
2.839 1.181 0.25600001 113 16 0
2.8310001 1.187 0.259 127 16 0
2.8280001 1.194 0.26300001 145 16 0
2.825 1.202 0.266 150 16 0
2.823 1.21 0.27000001 141 16 0
2.8169999 1.216 0.273 140 16 0
2.8180001 1.225 0.27700001 150 16 0
2.8180001 1.234 0.28099999 150 16 0
2.8150001 1.2410001 0.28400001 150 16 0
2.8110001 1.249 0.287 150 16 0
2.8139999 1.2589999 0.292 150 16 0
2.8039999 1.263 0.294 119 16 0
2.8050001 1.272 0.29800001 109 16 0
2.799 1.278 0.30199999 57 16 0
2.7939999 1.284 0.30500001 41 16 0
2.786 1.289 0.308 38 16 0
2.7809999 1.295 0.31200001 35 16 0
2.7720001 1.299 0.315 34 16 0
2.7620001 1.303 0.31799999 34 16 0
2.7520001 1.306 0.32100001 34 16 0
2.744 1.311 0.324 33 16 0
2.7349999 1.3150001 0.32699999 31 16 0
2.7279999 1.319 0.33000001 33 16 0
2.7219999 1.324 0.33399999 33 16 0
2.7119999 1.3279999 0.336 33 16 0
2.71 1.335 0.34 36 16 0
2.6930001 1.334 0.34200001 40 16 0
2.688 1.339 0.34599999 50 16 0
2.6800001 1.3430001 0.34900001 99 16 0
2.6789999 1.35 0.35299999 141 16 0
2.6789999 1.358 0.35699999 150 16 0
2.6730001 1.363 0.361 150 16 0
2.6719999 1.369 0.36500001 150 16 0
2.668 1.375 0.36899999 150 16 0
2.665 1.381 0.373 150 16 0
2.6689999 1.391 0.37799999 150 16 0
2.668 1.397 0.382 150 16 0
2.6670001 1.404 0.38600001 150 16 0
2.661 1.408 0.38999999 150 16 0
2.665 1.418 0.39500001 150 16 0
2.6619999 1.423 0.39899999 150 16 0
2.6600001 1.429 0.403 150 16 0
2.6619999 1.437 0.40799999 150 16 0
2.6589999 1.443 0.412 150 16 0
2.655 1.447 0.41600001 150 16 0
2.641 1.447 0.419 94 16 0
2.6059999 1.434 0.41800001 54 16 0
2.546 1.408 0.412 28 16 0
2.517 1.398 0.412 26 16 0
2.4979999 1.3940001 0.41299999 23 16 0
2.4949999 1.398 0.417 23 16 0
2.566 1.444 0.43399999 56 17 0
2.618 1.48 0.447 148 19 0
