# .PCD v0.7 - Point Cloud Data file format
VERSION 0.7
FIELDS x y z intensity tag line
SIZE 4 4 4 4 1 1
TYPE F F F F U U
COUNT 1 1 1 1 1 1
WIDTH 1351
HEIGHT 1
VIEWPOINT 0 0 0 1 0 0 0
POINTS 1351
DATA ascii
3.1329999 -0.044 -0.28400001 150 16 0
3.135 -0.041999999 -0.27399999 150 16 0
3.1359999 -0.039999999 -0.264 150 16 0
3.1400001 -0.037999999 -0.255 150 16 0
3.145 -0.037 -0.245 150 16 0
3.1489999 -0.035 -0.235 150 16 0
3.1500001 -0.033 -0.22499999 150 16 0
3.158 -0.032000002 -0.21600001 150 16 0
3.1619999 -0.029999999 -0.206 150 16 0
3.1619999 -0.028000001 -0.19599999 150 16 0
3.1659999 -0.027000001 -0.186 150 16 0
3.171 -0.025 -0.176 150 16 0
3.171 -0.023 -0.16599999 150 16 0
3.1760001 -0.022 -0.156 129 16 0
3.1830001 -0.02 -0.146 103 16 0
3.188 -0.018999999 -0.13600001 57 16 0
3.1919999 -0.017000001 -0.126 46 16 0
3.1930001 -0.016000001 -0.116 40 16 0
3.2 -0.014 -0.106 32 16 0
3.2079999 -0.013 -0.096000001 28 16 0
3.2149999 -0.011 -0.086000003 25 16 0
3.217 -0.0099999998 -0.075999998 23 16 0
3.223 -0.0080000004 -0.064999998 21 16 0
3.237 -0.0070000002 -0.055 20 16 0
3.2420001 -0.0060000001 -0.045000002 19 16 0
3.2509999 -0.0040000002 -0.035 18 16 0
3.257 -0.003 -0.024 18 16 0
3.2650001 -0.001 -0.014 18 16 0
3.2720001 0 -0.003 18 16 0
3.2809999 0 0.0060000001 18 16 0
3.29 0.0020000001 0.017000001 19 16 0
3.2939999 0.003 0.027000001 19 16 0
3.299 0.0040000002 0.037999999 19 16 0
3.3110001 0.0060000001 0.048999999 19 16 0
3.3180001 0.0070000002 0.059999999 20 16 0
3.326 0.0080000004 0.07 20 16 0
3.329 0.0099999998 0.081 22 16 0
3.332 0.011 0.092 36 16 0
3.3099999 0.012 0.102 38 16 0
3.289 0.013 0.112 72 16 0
3.283 0.014 0.122 150 16 0
3.2909999 0.015 0.133 150 16 0
3.2920001 0.017000001 0.14399999 150 16 0
3.293 0.017999999 0.155 150 16 0
3.2980001 0.018999999 0.16500001 150 16 0
3.3039999 0.02 0.177 150 16 0
3.3099999 0.021 0.18799999 150 16 0
3.312 0.022 0.198 150 16 0
3.312 0.023 0.20900001 150 16 0
3.3210001 0.024 0.22 150 16 0
3.3269999 0.025 0.23199999 150 16 0
3.3280001 0.026000001 0.242 150 16 0
3.3310001 0.027000001 0.25299999 150 16 0
3.3399999 0.028000001 0.26499999 150 16 0
3.3380001 0.028999999 0.27599999 150 16 0
3.3429999 0.029999999 0.287 150 16 0
3.3540001 0.030999999 0.29899999 150 16 0
3.3559999 0.032000002 0.31 150 16 0
3.3610001 0.033 0.32100001 150 16 0
3.365 0.034000002 0.33199999 150 16 0
3.3640001 0.035 0.34299999 150 16 0
3.3599999 0.035 0.354 49 16 0
3.339 0.035999998 0.36199999 38 16 0
3.319 0.035999998 0.37099999 37 16 0
3.2969999 0.037 0.37900001 37 16 0
3.2780001 0.037 0.38800001 37 16 0
3.2520001 0.037999999 0.39500001 38 16 0
3.2449999 0.037999999 0.405 39 16 0
3.2190001 0.039000001 0.412 39 16 0
3.2019999 0.039000001 0.41999999 45 16 0
3.188 0.039000001 0.42899999 44 16 0
3.165 0.039999999 0.43599999 44 16 0
3.1440001 0.039999999 0.44400001 40 16 0
3.1300001 0.039999999 0.45199999 42 16 0
3.1110001 0.041000001 0.45899999 41 16 0
3.0910001 0.041000001 0.46700001 41 16 0
3.079 0.041000001 0.47499999 41 16 0
3.059 0.041000001 0.48199999 41 16 0
3.04 0.041000001 0.48899999 43 16 0
3.029 0.041000001 0.49700001 41 16 0
3.0139999 0.041999999 0.50400001 41 16 0
2.993 0.041999999 0.51099998 40 16 0
2.98 0.041999999 0.51800001 40 16 0
2.9619999 0.041999999 0.52499998 40 16 0
2.9430001 0.041999999 0.53100002 40 16 0
2.934 0.041999999 0.53899997 39 16 0
2.915 0.041999999 0.54500002 41 16 0
2.891 0.041999999 0.551 50 16 0
2.8800001 0.041999999 0.55800003 42 16 0
2.859 0.041999999 0.56300002 65 16 0
2.849 0.041999999 0.57099998 53 16 0
2.8380001 0.041999999 0.57800001 79 16 0
2.823 0.041999999 0.58399999 57 16 0
2.812 0.041000001 0.59100002 49 16 0
2.7969999 0.041000001 0.597 51 16 0
2.7839999 0.041000001 0.60399997 49 16 0
2.7720001 0.041000001 0.611 47 16 0
2.76 0.041000001 0.61699998 45 16 0
2.7460001 0.041000001 0.62300003 65 16 0
2.73 0.039999999 0.62800002 58 16 0
2.7219999 0.039999999 0.63599998 63 16 0
2.6960001 0.039999999 0.639 72 16 0
2.684 0.039000001 0.64499998 83 16 0
2.6760001 0.039000001 0.65200001 85 16 0
2.6570001 0.039000001 0.65600002 97 16 0
2.651 0.039000001 0.66299999 71 16 0
2.6400001 0.037999999 0.66900003 70 16 0
2.631 0.037999999 0.676 75 16 0
2.625 0.037999999 0.68300003 69 16 0
2.6010001 0.037 0.68599999 71 16 0
2.586 0.035999998 0.69 124 16 0
2.575 0.035999998 0.69599998 122 16 0
2.5639999 0.035999998 0.70200002 143 16 0
2.546 0.035 0.70499998 150 16 0
2.53 0.034000002 0.70899999 150 16 0
2.5239999 0.034000002 0.71600002 150 16 0
2.5050001 0.033 0.71899998 150 16 0
2.5009999 0.033 0.72600001 150 16 0
2.484 0.032000002 0.73000002 150 16 0
2.477 0.032000002 0.736 150 16 0
2.47 0.030999999 0.74199998 150 16 0
2.4519999 0.029999999 0.745 150 16 0
2.4449999 0.029999999 0.75199997 150 16 0
2.4360001 0.028999999 0.75700003 150 16 0
2.4260001 0.028999999 0.76200002 150 16 0
2.4130001 0.028000001 0.76599997 150 16 0
2.405 0.027000001 0.77200001 150 16 0
2.398 0.027000001 0.778 150 16 0
2.3870001 0.026000001 0.78200001 150 16 0
2.3740001 0.025 0.78600001 150 16 0
2.368 0.024 0.792 150 16 0
2.3559999 0.023 0.796 150 16 0
2.352 0.023 0.80299997 150 16 0
2.3380001 0.022 0.80599999 150 16 0
2.329 0.021 0.81 150 16 0
2.3269999 0.02 0.81699997 150 16 0
2.313 0.018999999 0.81999999 150 16 0
2.2980001 0.017999999 0.82300001 150 16 0
2.289 0.017000001 0.82800001 150 16 0
2.2839999 0.017000001 0.833 150 16 0
2.2739999 0.016000001 0.83700001 150 16 0
2.26 0.015 0.83999997 150 16 0
2.2490001 0.014 0.84399998 150 16 0
2.2409999 0.013 0.84799999 150 16 0
2.233 0.012 0.852 150 16 0
2.2279999 0.011 0.85799998 150 16 0
2.2160001 0.0099999998 0.861 150 16 0
2.2060001 0.0089999996 0.86500001 150 16 0
2.1989999 0.0080000004 0.86900002 150 16 0
2.191 0.0060000001 0.87300003 150 16 0
2.1760001 0.0049999999 0.875 150 16 0
2.1700001 0.0040000002 0.88 150 16 0
2.164 0.003 0.88499999 150 16 0
2.151 0.0020000001 0.88599998 150 16 0
2.138 0.001 0.88800001 150 16 0
2.1359999 0 0.89399999 150 16 0
2.1289999 -0.001 0.89899999 150 16 0
2.1199999 -0.0020000001 0.90200001 150 16 0
2.112 -0.003 0.90600002 150 16 0
2.1040001 -0.0040000002 0.91000003 150 16 0
2.099 -0.0060000001 0.91399997 150 16 0
2.0910001 -0.0070000002 0.91799998 150 16 0
2.082 -0.0080000004 0.921 150 16 0
2.076 -0.0089999996 0.92500001 150 16 0
2.0669999 -0.011 0.92799997 150 16 0
2.0599999 -0.012 0.93199998 150 16 0
2.05 -0.013 0.93400002 150 16 0
2.0450001 -0.015 0.93900001 150 16 0
2.029 -0.016000001 0.93800002 150 16 0
2.026 -0.017999999 0.94300002 150 16 0
2.0190001 -0.018999999 0.94700003 150 16 0
2.0139999 -0.02 0.95099998 150 16 0
2 -0.022 0.95099998 150 16 0
1.995 -0.023 0.95499998 150 16 0
1.987 -0.025 0.958 150 16 0
1.983 -0.026000001 0.96200001 150 16 0
1.972 -0.028000001 0.963 150 16 0
1.967 -0.028999999 0.96700001 150 16 0
1.96 -0.030999999 0.97000003 150 16 0
1.955 -0.032000002 0.97399998 150 16 0
1.9450001 -0.034000002 0.97500002 150 16 0
1.938 -0.035999998 0.97799999 150 16 0
1.933 -0.037 0.98100001 150 16 0
1.926 -0.039000001 0.98400003 150 16 0
1.916 -0.039999999 0.98500001 150 16 0
1.911 -0.041999999 0.98900002 150 16 0
1.906 -0.044 0.99199998 150 16 0
1.902 -0.045000002 0.99599999 150 16 0
1.891 -0.046999998 0.99599999 150 16 0
1.886 -0.048999999 0.99900001 150 16 0
1.8789999 -0.050000001 1.001 150 16 0
1.872 -0.052000001 1.003 150 16 0
1.864 -0.054000001 1.005 150 16 0
1.858 -0.055 1.007 150 16 0
1.8559999 -0.057 1.012 150 16 0
1.852 -0.059 1.015 150 16 0
1.844 -0.061000001 1.016 150 16 0
1.839 -0.063000001 1.0190001 150 16 0
1.832 -0.064999998 1.021 150 16 0
1.8279999 -0.066 1.024 150 16 0
1.824 -0.068000004 1.027 150 16 0
1.814 -0.07 1.026 150 16 0
1.808 -0.071999997 1.028 150 16 0
1.8049999 -0.074000001 1.0319999 150 16 0
1.801 -0.075999998 1.035 150 16 0
1.793 -0.078000002 1.035 150 16 0
1.788 -0.079000004 1.0369999 150 16 0
1.775 -0.081 1.035 150 16 0
1.7690001 -0.082999997 1.036 150 16 0
1.766 -0.085000001 1.039 150 16 0
1.763 -0.086999997 1.0420001 150 16 0
1.757 -0.089000002 1.043 150 16 0
1.755 -0.090999998 1.0470001 150 16 0
1.753 -0.093000002 1.05 150 16 0
1.749 -0.094999999 1.052 150 16 0
1.7460001 -0.097000003 1.0549999 150 16 0
1.7410001 -0.098999999 1.057 150 16 0
1.738 -0.101 1.059 150 16 0
1.733 -0.104 1.0599999 150 16 0
1.729 -0.106 1.062 150 16 0
1.727 -0.108 1.0650001 150 16 0
1.721 -0.11 1.066 150 16 0
1.711 -0.112 1.064 150 16 0
1.71 -0.114 1.067 150 16 0
1.706 -0.116 1.068 150 16 0
1.704 -0.118 1.071 150 16 0
1.701 -0.12 1.073 150 16 0
1.6950001 -0.122 1.073 150 16 0
1.694 -0.125 1.076 150 16 0
1.688 -0.127 1.076 150 16 0
1.687 -0.12899999 1.079 150 16 0
1.683 -0.131 1.08 150 16 0
1.682 -0.134 1.082 150 16 0
1.678 -0.13600001 1.084 150 16 0
1.677 -0.138 1.086 150 16 0
1.675 -0.141 1.0880001 150 16 0
1.668 -0.142 1.087 150 16 0
1.6670001 -0.145 1.089 150 16 0
1.666 -0.147 1.091 150 16 0
1.665 -0.15000001 1.0930001 150 16 0
1.6619999 -0.152 1.095 150 16 0
1.659 -0.154 1.095 150 16 0
1.654 -0.156 1.094 150 16 0
1.6440001 -0.15800001 1.091 150 16 0
1.65 -0.161 1.097 150 16 0
1.642 -0.163 1.094 150 16 0
1.64 -0.16500001 1.095 150 16 0
1.637 -0.167 1.096 150 16 0
1.6390001 -0.17 1.099 150 16 0
1.632 -0.17200001 1.096 150 16 0
1.632 -0.17399999 1.099 150 16 0
1.631 -0.177 1.1 150 16 0
1.625 -0.17900001 1.098 150 16 0
1.624 -0.18099999 1.099 150 16 0
1.623 -0.183 1.1 150 16 0
1.62 -0.185 1.1 150 16 0
1.62 -0.18799999 1.101 150 16 0
1.619 -0.19 1.102 150 16 0
1.618 -0.193 1.103 150 16 0
1.619 -0.19499999 1.104 150 16 0
1.617 -0.198 1.105 150 16 0
1.615 -0.2 1.104 150 16 0
1.615 -0.20200001 1.105 150 16 0
1.614 -0.205 1.1059999 150 16 0
1.614 -0.207 1.1059999 150 16 0
1.613 -0.20900001 1.107 150 16 0
1.6109999 -0.211 1.1059999 150 16 0
1.612 -0.214 1.107 150 16 0
1.608 -0.21600001 1.105 150 16 0
1.6109999 -0.219 1.108 150 16 0
1.6109999 -0.221 1.108 150 16 0
1.61 -0.223 1.108 150 16 0
1.61 -0.226 1.108 150 16 0
1.61 -0.228 1.108 150 16 0
1.609 -0.23 1.108 150 16 0
1.608 -0.23199999 1.1059999 150 16 0
1.607 -0.235 1.1059999 150 16 0
1.609 -0.237 1.107 150 16 0
1.607 -0.23899999 1.105 150 16 0
1.612 -0.242 1.108 150 16 0
1.615 -0.245 1.109 150 16 0
1.615 -0.24699999 1.109 150 16 0
1.615 -0.249 1.108 150 16 0
1.617 -0.252 1.109 150 16 0
1.614 -0.25299999 1.1059999 150 16 0
1.617 -0.25600001 1.107 150 16 0
1.618 -0.25799999 1.107 150 16 0
1.617 -0.25999999 1.105 150 16 0
1.618 -0.26199999 1.104 150 16 0
1.626 -0.266 1.108 150 19 0
1.626 -0.26800001 1.107 150 16 0
1.626 -0.27000001 1.1059999 150 16 0
1.633 -0.273 1.109 150 19 0
1.633 -0.27500001 1.107 150 16 0
1.6339999 -0.27700001 1.1059999 150 16 0
1.6339999 -0.27900001 1.105 150 16 0
1.6339999 -0.28099999 1.103 150 16 0
1.64 -0.28299999 1.104 150 16 0
1.64 -0.285 1.102 150 16 0
1.64 -0.287 1.101 150 16 0
1.642 -0.289 1.1 150 16 0
1.643 -0.29100001 1.098 150 16 0
1.645 -0.29300001 1.097 150 16 0
1.65 -0.296 1.098 150 16 0
1.651 -0.29699999 1.096 150 16 0
1.655 -0.30000001 1.096 150 16 0
1.654 -0.301 1.0930001 150 16 0
1.66 -0.30399999 1.094 150 16 0
1.6619999 -0.30599999 1.092 150 16 0
1.665 -0.308 1.091 150 16 0
1.668 -0.31 1.09 150 16 0
1.669 -0.31099999 1.0880001 150 16 0
1.673 -0.31299999 1.087 150 16 0
1.674 -0.315 1.085 150 16 0
1.681 -0.31799999 1.086 150 16 0
1.684 -0.31900001 1.084 150 16 0
1.6849999 -0.32100001 1.082 150 16 0
1.693 -0.324 1.0829999 150 16 0
1.694 -0.32499999 1.08 150 16 0
1.697 -0.32699999 1.0779999 150 16 0
1.7 -0.32800001 1.077 150 16 0
1.702 -0.33000001 1.074 150 16 0
1.707 -0.33199999 1.073 150 16 0
1.7079999 -0.333 1.0700001 150 16 0
1.712 -0.33500001 1.068 150 16 0
1.716 -0.336 1.067 150 16 0
1.7180001 -0.338 1.064 150 16 0
1.721 -0.33899999 1.061 150 16 0
1.724 -0.34099999 1.059 150 16 0
1.725 -0.34200001 1.056 150 16 0
1.745 -0.34599999 1.063 150 18 0
1.748 -0.34799999 1.061 146 16 0
1.7589999 -0.34999999 1.062 128 16 0
1.76 -0.35100001 1.059 115 16 0
1.765 -0.35299999 1.057 146 16 0
1.7690001 -0.354 1.054 150 16 0
1.771 -0.35499999 1.051 150 16 0
1.775 -0.35600001 1.049 150 16 0
1.783 -0.35800001 1.048 150 16 0
1.7869999 -0.36000001 1.046 150 16 0
1.789 -0.36000001 1.0420001 150 16 0
1.794 -0.36199999 1.04 150 16 0
1.801 -0.36300001 1.039 150 16 0
1.804 -0.36399999 1.035 150 16 0
1.811 -0.366 1.034 150 16 0
1.814 -0.36700001 1.031 150 16 0
1.8200001 -0.368 1.028 150 16 0
1.8279999 -0.37 1.028 150 16 0
1.83 -0.37 1.023 150 16 0
1.842 -0.373 1.024 150 16 0
1.848 -0.37400001 1.022 150 16 0
1.853 -0.375 1.02 150 16 0
1.857 -0.37599999 1.016 150 16 0
1.862 -0.377 1.013 150 16 0
1.87 -0.37799999 1.012 150 16 0
1.876 -0.37900001 1.0089999 150 16 0
1.881 -0.38 1.006 150 16 0
1.886 -0.38 1.003 150 16 0
1.893 -0.38100001 1.001 150 16 0
1.901 -0.38299999 0.99900001 150 16 0
1.905 -0.38299999 0.995 150 16 0
1.909 -0.38299999 0.991 150 16 0
1.92 -0.38499999 0.991 150 16 0
1.926 -0.38600001 0.98799998 150 16 0
1.932 -0.38600001 0.98500001 150 16 0
1.938 -0.38699999 0.98199999 150 16 0
1.946 -0.38800001 0.98000002 150 16 0
1.95 -0.38800001 0.97500002 150 16 0
1.954 -0.38800001 0.97100002 150 16 0
1.974 -0.39199999 0.97500002 150 19 0
1.978 -0.391 0.97000003 150 16 0
1.988 -0.39300001 0.96899998 150 16 0
1.992 -0.39199999 0.96399999 150 16 0
2.003 -0.39399999 0.963 150 16 0
2.0079999 -0.39399999 0.95899999 150 16 0
2.0150001 -0.39399999 0.95499998 150 16 0
2.0209999 -0.39399999 0.95200002 150 16 0
2.03 -0.39500001 0.949 150 16 0
2.0369999 -0.39500001 0.94599998 150 16 0
2.0439999 -0.396 0.94300002 150 16 0
2.053 -0.396 0.94 150 16 0
2.0610001 -0.396 0.93699998 150 16 0
2.066 -0.396 0.93300003 150 16 0
2.0739999 -0.396 0.92900002 150 16 0
2.0810001 -0.39700001 0.926 130 16 0
2.089 -0.39700001 0.92199999 140 16 0
2.0999999 -0.39700001 0.92000002 143 16 0
2.105 -0.39700001 0.91500002 145 16 0
2.1140001 -0.39700001 0.912 150 16 0
2.119 -0.39700001 0.90799999 116 16 0
2.125 -0.396 0.903 117 16 0
2.138 -0.39700001 0.90100002 118 16 0
2.1459999 -0.39700001 0.898 115 16 0
2.155 -0.39700001 0.89499998 113 16 0
2.1630001 -0.39700001 0.88999999 118 16 0
2.1719999 -0.39700001 0.88700002 89 16 0
2.184 -0.39700001 0.88499999 84 16 0
2.187 -0.396 0.87900001 75 16 0
2.1949999 -0.39500001 0.875 78 16 0
2.204 -0.39500001 0.87099999 71 16 0
2.217 -0.396 0.86900002 92 16 0
2.2260001 -0.39500001 0.86500001 90 16 0
2.234 -0.39500001 0.861 82 16 0
2.243 -0.39399999 0.85699999 83 16 0
2.253 -0.39399999 0.85299999 81 16 0
2.2620001 -0.39399999 0.84899998 76 16 0
2.27 -0.39300001 0.84500003 78 16 0
2.2809999 -0.39300001 0.84100002 79 16 0
2.29 -0.39199999 0.83700001 70 16 0
2.299 -0.391 0.833 74 16 0
2.3110001 -0.391 0.82999998 83 16 0
2.3180001 -0.38999999 0.82499999 85 16 0
2.3280001 -0.38999999 0.82099998 84 16 0
2.336 -0.389 0.81599998 78 16 0
2.3469999 -0.38800001 0.81199998 74 16 0
2.3559999 -0.38699999 0.80800003 75 16 0
2.3670001 -0.38600001 0.80400002 75 16 0
2.375 -0.38499999 0.79900002 72 16 0
2.3829999 -0.384 0.79400003 72 16 0
2.3940001 -0.38299999 0.78899997 70 16 0
2.3989999 -0.38100001 0.78399998 68 16 0
2.4130001 -0.38100001 0.77999997 58 16 0
2.4219999 -0.38 0.77499998 72 16 0
2.4319999 -0.37900001 0.77100003 62 16 0
2.444 -0.37799999 0.76700002 63 16 0
2.4560001 -0.377 0.76300001 68 16 0
2.4660001 -0.37599999 0.75800002 60 16 0
2.4749999 -0.37400001 0.75300002 59 16 0
2.487 -0.373 0.74800003 55 16 0
2.4990001 -0.37200001 0.74400002 62 16 0
2.5079999 -0.37099999 0.73799998 60 16 0
2.5209999 -0.37 0.73400003 66 16 0
2.533 -0.368 0.73000002 61 16 0
2.536 -0.366 0.72299999 51 16 0
2.553 -0.36500001 0.71899998 35 16 0
2.5650001 -0.36399999 0.71499997 35 16 0
2.5810001 -0.36300001 0.71100003 38 16 0
2.5869999 -0.361 0.704 36 16 0
2.596 -0.359 0.699 34 16 0
2.6099999 -0.35699999 0.69400001 34 16 0
2.625 -0.35600001 0.69 36 16 0
2.6300001 -0.35299999 0.68300003 34 16 0
2.642 -0.352 0.67799997 32 16 0
2.6530001 -0.34999999 0.67299998 34 16 0
2.6589999 -0.347 0.66600001 33 16 0
2.6789999 -0.34599999 0.66299999 33 16 0
2.687 -0.34400001 0.65600002 32 16 0
2.698 -0.34200001 0.64999998 34 16 0
2.71 -0.34 0.64499998 34 16 0
2.724 -0.338 0.63999999 33 16 0
2.7360001 -0.336 0.634 32 16 0
2.75 -0.33399999 0.62900001 33 16 0
2.7620001 -0.33199999 0.62300003 34 16 0
2.7750001 -0.33000001 0.61799997 34 16 0
2.779 -0.32600001 0.61000001 33 16 0
2.793 -0.324 0.60500002 30 16 0
2.8110001 -0.32300001 0.60000002 32 16 0
2.825 -0.31999999 0.59399998 33 16 0
2.836 -0.31799999 0.588 31 16 0
2.8469999 -0.315 0.58099997 33 16 0
2.8670001 -0.31299999 0.57700002 33 16 0
2.8740001 -0.31 0.56999999 33 16 0
2.891 -0.308 0.56400001 32 16 0
2.9030001 -0.30500001 0.55800003 33 16 0
2.9189999 -0.303 0.55199999 33 16 0
2.9300001 -0.30000001 0.54500002 32 16 0
2.9419999 -0.29699999 0.53899997 39 16 0
2.9619999 -0.29499999 0.53399998 37 16 0
2.973 -0.29100001 0.52700001 37 16 0
2.9779999 -0.28799999 0.51899999 31 16 0
2.9860001 -0.28400001 0.51099998 27 16 0
2.99 -0.28 0.50300002 24 16 0
2.9979999 -0.27700001 0.495 24 16 0
3.0079999 -0.273 0.48800001 24 16 0
3.0139999 -0.26899999 0.47999999 23 16 0
3.0150001 -0.26499999 0.47099999 23 16 0
3.023 -0.26100001 0.46399999 23 16 0
3.0309999 -0.257 0.456 23 16 0
3.036 -0.25299999 0.44800001 23 16 0
3.0420001 -0.249 0.44 23 16 0
3.0480001 -0.245 0.43200001 21 16 0
3.052 -0.241 0.42300001 22 16 0
3.0569999 -0.237 0.41499999 22 16 0
3.0610001 -0.233 0.40700001 21 16 0
3.0650001 -0.228 0.398 21 16 0
3.079 -0.22499999 0.391 22 16 0
3.086 -0.22 0.38299999 22 16 0
3.0880001 -0.21600001 0.37400001 22 16 0
3.102 -0.212 0.36700001 23 16 0
3.1029999 -0.207 0.35800001 22 16 0
3.1110001 -0.20299999 0.34999999 23 16 0
3.1170001 -0.199 0.34200001 23 16 0
3.119 -0.19400001 0.333 22 16 0
3.1300001 -0.19 0.32499999 23 16 0
3.141 -0.186 0.317 23 16 0
3.1470001 -0.18099999 0.30899999 23 16 0
3.152 -0.177 0.301 22 16 0
3.161 -0.17200001 0.292 23 16 0
3.1619999 -0.167 0.28299999 22 16 0
3.1730001 -0.163 0.27500001 22 16 0
3.1830001 -0.15800001 0.26699999 23 16 0
3.1860001 -0.153 0.25799999 22 16 0
3.194 -0.149 0.25 23 16 0
3.201 -0.14399999 0.241 22 16 0
3.2049999 -0.139 0.23199999 23 16 0
3.2179999 -0.134 0.22400001 23 16 0
3.2260001 -0.12899999 0.21600001 24 16 0
3.2290001 -0.124 0.207 23 16 0
3.2420001 -0.12 0.199 23 16 0
3.25 -0.114 0.19 24 16 0
3.2520001 -0.109 0.18099999 23 16 0
3.2639999 -0.104 0.17200001 23 16 0
3.2739999 -0.098999999 0.164 23 16 0
3.28 -0.093999997 0.155 23 16 0
3.2880001 -0.089000002 0.146 23 16 0
3.2980001 -0.083999999 0.13699999 24 16 0
3.3080001 -0.078000002 0.12899999 24 16 0
3.3139999 -0.072999999 0.119 29 16 0
3.316 -0.068000004 0.11 51 16 0
3.309 -0.061999999 0.101 98 16 0
3.3039999 -0.056000002 0.092 84 16 0
3.3010001 -0.050999999 0.082000002 76 16 0
3.2909999 -0.045000002 0.072999999 72 16 0
3.283 -0.039000001 0.064000003 68 16 0
3.276 -0.034000002 0.055 68 16 0
3.2709999 -0.028000001 0.046 80 16 0
3.257 -0.023 0.035999998 51 16 0
3.2590001 -0.017000001 0.027000001 29 16 0
3.2609999 -0.011 0.017999999 18 16 0
3.2720001 -0.0060000001 0.0099999998 15 16 0
3.2820001 0 0.001 16 16 0
3.2909999 0.0049999999 -0.0070000002 16 16 0
3.299 0.0099999998 -0.017000001 16 16 0
3.3110001 0.016000001 -0.026000001 18 16 0
3.3169999 0.022 -0.035 27 16 0
3.312 0.028000001 -0.044 41 16 0
3.2939999 0.033 -0.052000001 48 16 0
3.293 0.039000001 -0.061000001 48 16 0
3.283 0.045000002 -0.07 46 16 0
3.2820001 0.050000001 -0.079000004 37 16 0
3.276 0.056000002 -0.088 37 16 0
3.2709999 0.061999999 -0.097000003 46 16 0
3.2620001 0.068000004 -0.105 50 16 0
3.2539999 0.072999999 -0.114 51 16 0
3.2490001 0.079000004 -0.122 50 16 0
3.2420001 0.083999999 -0.131 51 16 0
3.2379999 0.090000004 -0.139 51 16 0
3.2320001 0.096000001 -0.148 50 16 0
3.221 0.101 -0.156 52 16 0
3.2149999 0.107 -0.164 58 16 0
3.2079999 0.113 -0.17299999 52 16 0
3.2019999 0.118 -0.18099999 58 16 0
3.1930001 0.124 -0.189 55 16 0
3.187 0.12899999 -0.197 48 16 0
3.1800001 0.13500001 -0.205 50 16 0
3.1700001 0.14 -0.213 50 16 0
3.1659999 0.146 -0.221 53 16 0
3.1600001 0.152 -0.229 51 16 0
3.154 0.15700001 -0.237 47 16 0
3.1470001 0.163 -0.245 49 16 0
3.138 0.168 -0.25299999 53 16 0
3.1340001 0.17399999 -0.26100001 50 16 0
3.1289999 0.17900001 -0.26899999 55 16 0
3.119 0.185 -0.27599999 54 16 0
3.112 0.19 -0.28400001 53 16 0
3.108 0.19599999 -0.292 52 16 0
3.1040001 0.20200001 -0.29899999 50 16 0
3.0940001 0.207 -0.30700001 58 16 0
3.0910001 0.213 -0.315 58 16 0
3.0799999 0.21799999 -0.322 59 16 0
3.0710001 0.223 -0.329 64 16 0
3.0669999 0.229 -0.336 76 16 0
3.059 0.234 -0.34400001 81 16 0
3.0580001 0.23999999 -0.352 83 16 0
3.0510001 0.245 -0.359 89 16 0
3.0450001 0.25099999 -0.366 72 16 0
3.0380001 0.25600001 -0.373 85 16 0
3.0309999 0.26199999 -0.38 81 16 0
3.0190001 0.26699999 -0.38699999 76 16 0
3.016 0.27200001 -0.39399999 69 16 0
3.0139999 0.278 -0.40200001 84 16 0
3.0079999 0.28400001 -0.40900001 93 16 0
3.0020001 0.289 -0.41600001 79 16 0
3.0009999 0.29499999 -0.42399999 95 16 0
2.9890001 0.30000001 -0.43000001 86 16 0
2.9820001 0.30500001 -0.43700001 62 16 0
2.9790001 0.31099999 -0.44400001 87 16 0
2.9719999 0.31600001 -0.44999999 87 16 0
2.9649999 0.322 -0.45699999 82 16 0
2.957 0.32699999 -0.46399999 75 16 0
2.9560001 0.333 -0.47099999 97 16 0
2.95 0.338 -0.47799999 100 16 0
2.944 0.34400001 -0.484 98 16 0
2.9349999 0.34900001 -0.49000001 95 16 0
2.9289999 0.354 -0.49700001 109 16 0
2.9260001 0.36000001 -0.50400001 100 16 0
2.9200001 0.36500001 -0.50999999 105 16 0
2.9070001 0.36899999 -0.51599997 101 16 0
2.9030001 0.375 -0.52200001 105 16 0
2.8970001 0.38100001 -0.52899998 100 16 0
2.8900001 0.38600001 -0.53500003 99 16 0
2.8870001 0.391 -0.542 106 16 0
2.8840001 0.39700001 -0.54799998 110 16 0
2.878 0.403 -0.55500001 109 16 0
2.8759999 0.40900001 -0.56199998 104 16 0
2.8640001 0.41299999 -0.56599998 103 16 0
2.8599999 0.419 -0.57300001 113 16 0
2.8510001 0.42300001 -0.57800001 100 16 0
2.846 0.42899999 -0.58499998 117 16 0
2.8380001 0.43399999 -0.58999997 114 16 0
2.836 0.44 -0.597 134 16 0
2.8299999 0.44499999 -0.60299999 132 16 0
2.825 0.45100001 -0.60900003 140 16 0
2.8239999 0.45699999 -0.616 124 16 0
2.813 0.461 -0.62 136 16 0
2.809 0.46700001 -0.62699997 141 16 0
2.802 0.472 -0.63200003 142 16 0
2.7969999 0.47799999 -0.63800001 150 16 0
2.7950001 0.48300001 -0.64399999 150 16 0
2.79 0.48899999 -0.64999998 150 16 0
2.777 0.493 -0.65399998 150 16 0
2.7720001 0.498 -0.66000003 150 16 0
2.77 0.505 -0.66600001 150 16 0
2.766 0.50999999 -0.67199999 150 16 0
2.757 0.51499999 -0.67699999 150 16 0
2.7550001 0.52100003 -0.68300003 150 16 0
2.7520001 0.52700001 -0.68900001 150 16 0
2.7420001 0.53100002 -0.69300002 150 16 0
2.7360001 0.53600001 -0.69800001 150 16 0
2.7309999 0.542 -0.704 150 16 0
2.723 0.54699999 -0.708 150 16 0
2.721 0.55299997 -0.71499997 150 16 0
2.7179999 0.55800003 -0.72000003 150 16 0
2.71 0.56300002 -0.72500002 150 16 0
2.7049999 0.56900001 -0.73000002 150 16 0
2.7 0.574 -0.73500001 150 16 0
2.6930001 0.579 -0.74000001 150 16 0
2.688 0.58499998 -0.745 150 16 0
2.6889999 0.59100002 -0.75199997 150 16 0
2.6830001 0.59600002 -0.75599998 150 16 0
2.677 0.602 -0.76099998 150 16 0
2.6719999 0.60699999 -0.76599997 150 16 0
2.665 0.61199999 -0.76999998 150 16 0
2.6630001 0.61799997 -0.77600002 150 16 0
2.658 0.62300003 -0.77999997 150 16 0
2.651 0.62900001 -0.78500003 150 16 0
2.645 0.634 -0.78899997 150 16 0
2.645 0.63999999 -0.79500002 150 16 0
2.641 0.64600003 -0.80000001 150 16 0
2.6300001 0.64999998 -0.80299997 150 16 0
2.625 0.65499997 -0.80699998 150 16 0
2.6210001 0.66100001 -0.81199998 150 16 0
2.618 0.667 -0.81699997 150 16 0
2.612 0.67199999 -0.82099998 150 16 0
2.6029999 0.676 -0.82499999 150 16 0
2.5999999 0.68199998 -0.829 150 16 0
2.5969999 0.68800002 -0.83399999 150 16 0
2.5940001 0.69400001 -0.83899999 150 16 0
2.5910001 0.69999999 -0.84399998 150 16 0
2.5880001 0.70499998 -0.84899998 150 16 0
2.5780001 0.70899999 -0.85100001 150 16 0
2.575 0.71499997 -0.85600001 150 16 0
2.562 0.71799999 -0.85699999 150 16 0
2.559 0.72399998 -0.86199999 150 16 0
2.556 0.73000002 -0.866 150 16 0
2.55 0.73500001 -0.87 150 16 0
2.549 0.741 -0.875 150 16 0
2.5439999 0.74699998 -0.87900001 150 16 0
2.5380001 0.75199997 -0.88200003 150 16 0
2.5409999 0.759 -0.88800001 67 16 0
2.5420001 0.76599997 -0.89399999 18 16 0
2.54 0.77200001 -0.89899999 4 16 0
2.5480001 0.78200001 -0.90700001 0 16 0
2.6140001 0.80900002 -0.93599999 0 17 0
2.602 0.81199998 -0.93599999 0 16 0
2.5699999 0.80900002 -0.93000001 0 18 0
2.441 0.77499998 -0.88800001 2 17 0
2.444 0.78200001 -0.89399999 6 16 0
2.4360001 0.78600001 -0.89600003 10 16 0
2.437 0.79299998 -0.90200001 13 16 0
2.4389999 0.801 -0.90700001 13 16 0
2.4660001 0.81599998 -0.92199999 21 18 0
2.471 0.824 -0.92799997 48 16 0
2.4749999 0.83200002 -0.93400002 150 16 0
2.473 0.83899999 -0.93900001 150 16 0
2.47 0.84399998 -0.94199997 150 16 0
2.4660001 0.85000002 -0.94499999 150 16 0
2.4630001 0.85500002 -0.94800001 150 16 0
2.46 0.861 -0.95200002 150 16 0
2.454 0.866 -0.954 150 16 0
2.4530001 0.87199998 -0.958 150 16 0
2.4460001 0.87599999 -0.95999998 150 16 0
2.4430001 0.88200003 -0.963 150 16 0
2.437 0.88700002 -0.96499997 150 16 0
2.434 0.89200002 -0.96700001 150 16 0
2.4349999 0.89899999 -0.972 150 16 0
2.428 0.903 -0.97299999 150 16 0
2.4230001 0.90799999 -0.97500002 150 16 0
2.4219999 0.91399997 -0.97899997 150 16 0
2.4170001 0.91900003 -0.98000002 150 16 0
2.4089999 0.92299998 -0.98100001 150 16 0
2.405 0.92699999 -0.98299998 150 16 0
2.4030001 0.93300003 -0.986 150 16 0
2.398 0.93800002 -0.98799998 150 16 0
2.3940001 0.94300002 -0.99000001 150 16 0
2.411 0.95599997 -1 150 19 0
2.4089999 0.96200001 -1.003 151 16 0
2.398 0.96399999 -1.001 151 16 0
2.382 0.96399999 -0.99800003 150 16 0
2.3800001 0.97000003 -1.001 150 16 0
2.3710001 0.97299999 -1 150 16 0
2.368 0.97799999 -1.002 150 16 0
2.3670001 0.98400003 -1.005 150 16 0
2.3629999 0.98799998 -1.006 150 16 0
2.3599999 0.99299997 -1.007 150 16 0
2.3570001 0.99800003 -1.0089999 150 16 0
2.352 1.003 -1.01 150 16 0
2.3510001 1.008 -1.012 150 16 0
2.3469999 1.013 -1.013 150 16 0
2.3440001 1.018 -1.0140001 150 16 0
2.3380001 1.021 -1.0140001 150 16 0
2.339 1.027 -1.017 150 16 0
2.3310001 1.03 -1.016 150 16 0
2.3280001 1.035 -1.017 150 16 0
2.325 1.04 -1.018 150 16 0
2.3280001 1.0470001 -1.021 151 16 0
2.322 1.05 -1.021 150 16 0
2.3180001 1.054 -1.021 150 16 0
2.3169999 1.0599999 -1.022 150 16 0
2.313 1.063 -1.022 150 16 0
2.3099999 1.068 -1.023 151 16 0
2.3099999 1.073 -1.024 151 16 0
2.3050001 1.077 -1.024 151 16 0
2.303 1.082 -1.024 150 16 0
2.3010001 1.086 -1.025 151 16 0
2.2969999 1.09 -1.024 151 16 0
2.2969999 1.095 -1.026 151 16 0
2.2939999 1.1 -1.026 151 16 0
2.2920001 1.104 -1.026 151 16 0
2.2909999 1.109 -1.026 151 16 0
2.289 1.113 -1.026 151 16 0
2.2880001 1.117 -1.027 151 16 0
2.2839999 1.1210001 -1.026 151 16 0
2.2820001 1.125 -1.026 151 16 0
2.28 1.1289999 -1.026 151 16 0
2.2780001 1.133 -1.025 151 16 0
2.277 1.138 -1.025 151 16 0
2.2750001 1.141 -1.024 151 16 0
2.2739999 1.145 -1.024 151 16 0
2.2720001 1.149 -1.024 151 16 0
2.2679999 1.152 -1.022 151 16 0
2.2690001 1.1569999 -1.023 151 16 0
2.267 1.16 -1.022 151 16 0
2.266 1.164 -1.021 151 16 0
2.263 1.1670001 -1.02 151 16 0
2.263 1.171 -1.0190001 151 16 0
2.2590001 1.173 -1.017 151 16 0
2.26 1.178 -1.017 151 16 0
2.256 1.1799999 -1.0140001 151 16 0
2.257 1.1849999 -1.0140001 151 16 0
2.257 1.189 -1.0140001 151 16 0
2.256 1.192 -1.012 151 16 0
2.2550001 1.1950001 -1.011 151 16 0
2.2520001 1.197 -1.0089999 151 16 0
2.2520001 1.201 -1.008 151 16 0
2.247 1.202 -1.0039999 151 16 0
2.2509999 1.207 -1.005 151 16 0
2.2509999 1.21 -1.003 151 16 0
2.2479999 1.212 -1.001 151 16 0
2.2479999 1.215 -0.99900001 151 16 0
2.2479999 1.2180001 -0.99800003 151 16 0
2.2460001 1.22 -0.995 151 16 0
2.247 1.224 -0.99400002 151 16 0
2.244 1.224 -0.99000001 151 16 0
2.2449999 1.228 -0.98900002 151 16 0
2.243 1.229 -0.986 151 16 0
2.244 1.232 -0.98500001 151 16 0
2.2420001 1.233 -0.98100001 151 16 0
2.2409999 1.2359999 -0.97899997 151 16 0
2.2449999 1.24 -0.97799999 151 16 0
2.2420001 1.24 -0.97500002 151 16 0
2.2449999 1.244 -0.97399998 151 16 0
2.244 1.245 -0.97000003 151 16 0
2.2449999 1.248 -0.96799999 151 16 0
2.244 1.249 -0.96499997 151 16 0
2.244 1.25 -0.963 151 16 0
2.2420001 1.251 -0.95899999 151 16 0
2.244 1.253 -0.95700002 151 16 0
2.244 1.255 -0.954 151 16 0
2.2449999 1.257 -0.95099998 151 16 0
2.2460001 1.258 -0.94800001 151 16 0
2.2449999 1.2589999 -0.94499999 151 16 0
2.247 1.26 -0.94199997 151 16 0
2.247 1.262 -0.93900001 150 16 0
2.2479999 1.263 -0.93599999 150 16 0
2.2479999 1.263 -0.93300003 150 16 0
2.2509999 1.266 -0.93000001 150 16 0
2.2479999 1.2640001 -0.92500001 150 16 0
2.2509999 1.266 -0.92299998 150 16 0
2.2520001 1.267 -0.92000002 151 16 0
2.256 1.2690001 -0.91799998 150 16 0
2.256 1.2690001 -0.91399997 150 16 0
2.256 1.2690001 -0.91000003 150 16 0
2.2620001 1.272 -0.90799999 150 16 0
2.263 1.272 -0.90499997 150 16 0
2.2639999 1.273 -0.90100002 150 16 0
2.2679999 1.274 -0.898 150 16 0
2.273 1.276 -0.89600003 92 16 0
2.2750001 1.277 -0.89300001 20 16 0
2.2750001 1.276 -0.88800001 5 16 0
2.289 1.283 -0.889 1 19 0
2.2780001 1.276 -0.88099998 1 16 0
2.2839999 1.278 -0.87900001 1 16 0
2.2839999 1.276 -0.87400001 1 16 0
2.2969999 1.283 -0.875 1 19 0
2.3 1.283 -0.87099999 2 16 0
2.3 1.2819999 -0.86699998 3 16 0
2.3010001 1.28 -0.86199999 3 16 0
2.3080001 1.283 -0.86000001 3 16 0
2.303 1.278 -0.85299999 3 16 0
2.3110001 1.281 -0.852 3 16 0
2.3099999 1.278 -0.84600002 3 16 0
2.3099999 1.276 -0.84200001 3 16 0
2.3110001 1.274 -0.83700001 3 16 0
2.316 1.275 -0.83399999 2 16 0
2.3139999 1.271 -0.82800001 1 16 0
2.326 1.275 -0.82700002 1 16 0
2.3199999 1.2690001 -0.81999999 1 16 0
2.3280001 1.271 -0.81800002 2 16 0
2.323 1.266 -0.81099999 6 16 0
2.322 1.262 -0.80500001 29 16 0
2.322 1.2589999 -0.80000001 150 16 0
2.323 1.257 -0.79500002 150 16 0
2.325 1.255 -0.79100001 150 16 0
2.325 1.251 -0.78500003 150 16 0
2.3269999 1.249 -0.78100002 150 16 0
2.332 1.249 -0.77700001 150 16 0
2.336 1.247 -0.773 150 16 0
2.3369999 1.244 -0.76899999 150 16 0
2.3429999 1.244 -0.76499999 150 16 0
2.3429999 1.24 -0.75999999 150 16 0
2.3469999 1.239 -0.75599998 107 16 0
2.3499999 1.2359999 -0.75099999 104 16 0
2.355 1.235 -0.74800003 119 16 0
2.3559999 1.232 -0.74199998 150 16 0
2.3599999 1.229 -0.73799998 150 16 0
2.362 1.226 -0.73299998 150 16 0
2.369 1.226 -0.73000002 150 16 0
2.372 1.223 -0.72600001 150 16 0
2.375 1.22 -0.72100002 150 16 0
2.3770001 1.217 -0.71600002 150 16 0
2.3800001 1.214 -0.71200001 150 16 0
2.3829999 1.211 -0.70700002 139 16 0
2.385 1.207 -0.70200002 123 16 0
2.3940001 1.207 -0.699 150 16 0
2.395 1.202 -0.69400001 150 16 0
2.3940001 1.197 -0.68800002 94 16 0
2.4059999 1.198 -0.68599999 56 16 0
2.4070001 1.194 -0.68099999 36 16 0
2.411 1.191 -0.67699999 36 16 0
2.418 1.189 -0.67299998 53 16 0
2.411 1.1799999 -0.66500002 76 16 0
2.4189999 1.179 -0.662 150 16 0
2.4260001 1.177 -0.65899998 150 16 0
2.424 1.171 -0.653 150 16 0
2.431 1.169 -0.64899999 150 16 0
2.437 1.166 -0.64499998 150 16 0
2.4360001 1.16 -0.639 150 16 0
2.4419999 1.1569999 -0.63499999 150 16 0
2.447 1.154 -0.63099998 150 16 0
2.4489999 1.149 -0.62599999 150 16 0
2.461 1.149 -0.62400001 150 16 0
2.457 1.141 -0.61699998 150 16 0
2.4660001 1.14 -0.61400002 150 16 0
2.467 1.1339999 -0.60900003 150 16 0
2.4660001 1.128 -0.60299999 150 16 0
2.473 1.125 -0.59899998 150 16 0
2.4809999 1.122 -0.59600002 150 16 0
2.4849999 1.118 -0.59100002 150 16 0
2.4879999 1.113 -0.58600003 150 16 0
2.49 1.108 -0.58200002 150 16 0
2.4979999 1.105 -0.57800001 150 16 0
2.4979999 1.099 -0.57300001 150 16 0
2.5009999 1.094 -0.56800002 150 16 0
2.5079999 1.09 -0.56400001 150 16 0
2.5109999 1.085 -0.55900002 150 16 0
2.5150001 1.081 -0.55500001 150 16 0
2.5209999 1.077 -0.551 150 16 0
2.5220001 1.0700001 -0.546 150 16 0
2.5280001 1.066 -0.542 150 16 0
2.5309999 1.061 -0.537 150 16 0
2.5339999 1.056 -0.53200001 150 16 0
2.539 1.051 -0.528 150 16 0
2.5420001 1.045 -0.523 150 16 0
2.546 1.04 -0.51899999 150 16 0
2.549 1.034 -0.514 150 16 0
2.5639999 1.033 -0.51200002 150 16 0
2.5639999 1.027 -0.50700003 150 16 0
2.575 1.024 -0.50400001 150 16 0
2.5780001 1.018 -0.49900001 150 16 0
2.5810001 1.012 -0.495 150 16 0
2.586 1.007 -0.49000001 150 16 0
2.592 1.002 -0.486 150 16 0
2.592 0.995 -0.48100001 150 16 0
2.598 0.99000001 -0.477 150 16 0
2.6029999 0.98500001 -0.47299999 150 16 0
2.6070001 0.97899997 -0.46900001 150 16 0
2.619 0.97600001 -0.46599999 150 16 0
2.6370001 0.97500002 -0.46399999 150 16 0
2.641 0.96899998 -0.45899999 150 16 0
2.6340001 0.95899999 -0.45300001 150 16 0
2.6370001 0.95300001 -0.449 150 16 0
2.6359999 0.94499999 -0.44299999 150 16 0
2.6459999 0.94099998 -0.44 150 16 0
2.6470001 0.93400002 -0.435 150 16 0
2.6530001 0.92900002 -0.43099999 150 16 0
2.6570001 0.92299998 -0.42699999 150 16 0
2.664 0.917 -0.42300001 150 16 0
2.668 0.91100001 -0.419 150 16 0
2.674 0.90499997 -0.41499999 150 16 0
2.681 0.89999998 -0.41100001 150 16 0
2.6830001 0.89300001 -0.40700001 150 16 0
2.688 0.88700002 -0.40200001 150 16 0
2.691 0.88 -0.398 150 16 0
2.6949999 0.87400001 -0.39399999 150 16 0
2.7049999 0.86900002 -0.38999999 150 16 0
2.707 0.86199999 -0.38600001 150 16 0
2.707 0.85399997 -0.38100001 150 16 0
2.7149999 0.84799999 -0.37799999 150 16 0
2.72 0.84200001 -0.373 150 16 0
2.7219999 0.83499998 -0.36899999 150 16 0
2.7320001 0.82999998 -0.366 150 16 0
2.7420001 0.82499999 -0.36199999 150 16 0
2.7420001 0.81699997 -0.35800001 150 16 0
2.7509999 0.81099999 -0.354 150 16 0
2.7590001 0.80599999 -0.35100001 150 16 0
2.7620001 0.79799998 -0.34599999 150 16 0
2.766 0.79100001 -0.34200001 150 16 0
2.7720001 0.78500003 -0.338 150 16 0
2.7739999 0.77700001 -0.33399999 150 16 0
2.7780001 0.76999998 -0.33000001 150 16 0
2.7839999 0.764 -0.32600001 150 16 0
2.7920001 0.75800002 -0.32300001 150 16 0
2.796 0.75 -0.31900001 150 16 0
2.802 0.74400002 -0.315 150 16 0
2.8080001 0.73699999 -0.31099999 150 16 0
2.8150001 0.73000002 -0.30700001 150 16 0
2.8169999 0.72299999 -0.303 150 16 0
2.8210001 0.71499997 -0.29899999 150 16 0
2.8340001 0.70999998 -0.296 150 16 0
2.836 0.70200002 -0.292 150 16 0
2.8410001 0.69499999 -0.28799999 150 16 0
2.8429999 0.68699998 -0.28400001 150 16 0
2.8510001 0.68000001 -0.28 150 16 0
2.8540001 0.67199999 -0.27599999 150 16 0
2.8570001 0.66500002 -0.27200001 150 16 0
2.8659999 0.65799999 -0.26899999 150 16 0
2.8729999 0.65100002 -0.26499999 150 16 0
2.878 0.64399999 -0.26100001 150 16 0
2.882 0.63599998 -0.257 150 16 0
2.885 0.62800002 -0.25299999 150 16 0
2.8870001 0.62 -0.249 150 16 0
2.901 0.61400002 -0.24600001 150 16 0
2.9059999 0.60600001 -0.243 150 16 0
2.9089999 0.59799999 -0.23800001 150 16 0
2.921 0.59200001 -0.235 150 16 0
2.9200001 0.583 -0.23100001 150 16 0
2.931 0.57599998 -0.228 150 16 0
2.941 0.56999999 -0.22400001 150 16 0
2.9360001 0.56 -0.22 149 16 0
2.948 0.55299997 -0.21699999 150 16 0
2.9530001 0.54500002 -0.213 150 16 0
2.9530001 0.53600001 -0.20900001 150 16 0
2.9630001 0.52899998 -0.206 150 16 0
2.9649999 0.52100003 -0.20200001 150 16 0
2.9749999 0.51300001 -0.198 150 16 0
2.9790001 0.505 -0.19400001 150 16 0
2.9879999 0.498 -0.191 150 16 0
2.9909999 0.48899999 -0.18700001 150 16 0
2.9979999 0.48100001 -0.184 150 16 0
3.0009999 0.47299999 -0.18000001 150 16 0
3.0109999 0.465 -0.177 150 16 0
3.0190001 0.45699999 -0.17299999 150 16 0
3.0209999 0.44800001 -0.169 140 16 0
3.0239999 0.44 -0.16599999 150 16 0
3.0350001 0.43200001 -0.162 142 16 0
3.039 0.42399999 -0.15899999 134 16 0
3.0469999 0.41600001 -0.155 150 16 0
3.052 0.40700001 -0.15099999 134 16 0
3.059 0.39899999 -0.148 148 16 0
3.0599999 0.38999999 -0.14399999 143 16 0
3.0699999 0.382 -0.141 143 16 0
3.076 0.373 -0.13699999 132 16 0
3.079 0.36399999 -0.134 121 16 0
3.0899999 0.35600001 -0.13 134 16 0
3.0969999 0.347 -0.127 137 16 0
3.102 0.33899999 -0.123 129 16 0
3.1110001 0.33000001 -0.12 130 16 0
3.118 0.32100001 -0.116 124 16 0
3.1210001 0.31200001 -0.113 107 16 0
3.1270001 0.303 -0.109 101 16 0
3.135 0.29499999 -0.106 103 16 0
3.138 0.285 -0.102 120 16 0
3.1500001 0.27700001 -0.098999999 125 16 0
3.1589999 0.26800001 -0.094999999 127 16 0
3.1630001 0.259 -0.092 107 16 0
3.1700001 0.25 -0.088 99 16 0
3.175 0.23999999 -0.085000001 107 16 0
3.1819999 0.23100001 -0.081 100 16 0
3.1860001 0.222 -0.078000002 108 16 0
3.1960001 0.213 -0.074000001 104 16 0
3.204 0.204 -0.071000002 112 16 0
3.2119999 0.19400001 -0.067000002 95 16 0
3.22 0.185 -0.064000003 107 16 0
3.223 0.175 -0.059999999 105 16 0
3.23 0.16599999 -0.057 101 16 0
3.243 0.15700001 -0.054000001 88 16 0
3.2460001 0.147 -0.050000001 92 16 0
3.25 0.13699999 -0.046999998 98 16 0
3.2550001 0.12800001 -0.043000001 89 16 0
3.2639999 0.118 -0.039999999 94 16 0
3.27 0.108 -0.035999998 88 16 0
3.2780001 0.097999997 -0.033 81 16 0
3.2850001 0.089000002 -0.029999999 83 16 0
3.2920001 0.079000004 -0.026000001 79 16 0
3.2939999 0.068999998 -0.023 84 16 0
3.3050001 0.059 -0.018999999 44 16 0
3.3080001 0.048999999 -0.016000001 62 16 0
3.3180001 0.039000001 -0.013 97 16 0
3.325 0.028999999 -0.0089999996 46 16 0
3.313 0.017999999 -0.0060000001 22 16 0
3.296 0.0080000004 -0.0020000001 20 16 0
3.2709999 -0.001 0 18 16 0
3.2460001 -0.011 0.003 25 16 0
3.25 -0.021 0.0070000002 131 16 0
3.2579999 -0.030999999 0.0099999998 150 16 0
3.2650001 -0.041000001 0.013 150 16 0
3.266 -0.052000001 0.016000001 150 16 0
3.2750001 -0.061999999 0.02 150 16 0
3.2709999 -0.071999997 0.023 46 16 0
3.253 -0.081 0.026000001 32 16 0
3.23 -0.090999998 0.028999999 31 16 0
3.211 -0.1 0.032000002 31 16 0
3.194 -0.11 0.035 32 16 0
3.1700001 -0.119 0.037 31 16 0
3.151 -0.12800001 0.039999999 31 16 0
3.135 -0.13699999 0.043000001 31 16 0
3.1129999 -0.145 0.045000002 30 16 0
3.0940001 -0.154 0.048 30 16 0
3.0780001 -0.163 0.050999999 30 16 0
3.0580001 -0.171 0.052999999 31 16 0
3.04 -0.18000001 0.056000002 31 16 0
3.0250001 -0.18799999 0.057999998 30 16 0
3 -0.19599999 0.059999999 30 16 0
2.98 -0.204 0.063000001 29 16 0
2.9690001 -0.213 0.064999998 29 16 0
2.947 -0.22 0.067000002 31 16 0
2.937 -0.229 0.07 32 16 0
2.914 -0.236 0.071999997 33 16 0
2.8940001 -0.244 0.074000001 32 16 0
2.882 -0.252 0.075999998 32 16 0
2.8670001 -0.259 0.078000002 32 16 0
2.846 -0.266 0.079999998 32 16 0
2.8310001 -0.27399999 0.082000002 33 16 0
2.819 -0.28200001 0.083999999 33 16 0
2.802 -0.289 0.086000003 33 16 0
2.7920001 -0.296 0.088 36 16 0
2.773 -0.303 0.089000002 35 16 0
2.76 -0.31 0.090999998 34 16 0
2.7390001 -0.317 0.093000002 35 16 0
2.7349999 -0.32499999 0.094999999 37 16 0
2.7190001 -0.33199999 0.096000001 37 16 0
2.711 -0.33899999 0.097999997 35 16 0
2.6919999 -0.345 0.1 39 16 0
2.678 -0.352 0.101 36 16 0
2.6700001 -0.36000001 0.103 40 16 0
2.6489999 -0.36500001 0.104 40 16 0
2.631 -0.37099999 0.106 41 16 0
2.6199999 -0.37799999 0.107 41 16 0
2.6040001 -0.384 0.109 50 16 0
2.589 -0.38999999 0.11 51 16 0
2.576 -0.396 0.111 52 16 0
2.566 -0.403 0.113 53 16 0
2.5439999 -0.40799999 0.114 58 16 0
2.5339999 -0.414 0.115 58 16 0
2.5239999 -0.421 0.116 62 16 0
2.51 -0.426 0.118 66 16 0
2.4990001 -0.433 0.119 56 16 0
2.4890001 -0.43900001 0.12 69 16 0
2.471 -0.44299999 0.121 65 16 0
2.461 -0.44999999 0.122 71 16 0
2.454 -0.456 0.124 75 16 0
2.4400001 -0.46200001 0.125 74 16 0
2.425 -0.46700001 0.125 65 16 0
2.4130001 -0.472 0.126 63 16 0
2.398 -0.477 0.127 66 16 0
2.3929999 -0.484 0.12899999 72 16 0
2.3770001 -0.48800001 0.12899999 71 16 0
2.3659999 -0.49399999 0.13 82 16 0
2.352 -0.498 0.131 62 16 0
2.3380001 -0.50300002 0.132 69 16 0
2.332 -0.509 0.133 75 16 0
2.3199999 -0.514 0.133 78 16 0
2.309 -0.51999998 0.134 77 16 0
2.296 -0.52399999 0.13500001 80 16 0
2.2809999 -0.528 0.13500001 83 16 0
2.2709999 -0.53299999 0.13600001 74 16 0
2.2620001 -0.53899997 0.13699999 85 16 0
2.253 -0.54400003 0.138 88 16 0
2.2409999 -0.54900002 0.138 91 16 0
2.2309999 -0.55299997 0.139 94 16 0
2.2190001 -0.55800003 0.139 108 16 0
2.2130001 -0.56400001 0.14 98 16 0
2.197 -0.56699997 0.14 93 16 0
2.1900001 -0.57200003 0.141 111 16 0
2.1800001 -0.57700002 0.141 103 16 0
2.1659999 -0.58099997 0.142 101 16 0
2.1600001 -0.58600003 0.142 98 16 0
2.1530001 -0.59100002 0.14300001 115 16 0
2.131 -0.59200001 0.142 112 19 0
2.1259999 -0.59799999 0.14300001 141 16 0
2.1199999 -0.60299999 0.14399999 150 16 0
2.109 -0.60699999 0.14399999 150 16 0
2.096 -0.61000001 0.14399999 150 16 0
2.089 -0.61500001 0.14399999 150 16 0
2.076 -0.61900002 0.145 143 16 0
2.0710001 -0.62400001 0.145 150 16 0
2.062 -0.62800002 0.145 150 16 0
2.0510001 -0.63200003 0.145 150 16 0
2.046 -0.63700002 0.146 150 16 0
2.026 -0.63800001 0.145 150 19 0
2.0239999 -0.64399999 0.146 150 16 0
2.013 -0.64700001 0.146 150 16 0
2.0039999 -0.65100002 0.146 150 16 0
1.9960001 -0.65499997 0.146 150 16 0
1.989 -0.66000003 0.146 150 16 0
1.983 -0.66399997 0.146 150 16 0
1.971 -0.667 0.146 150 16 0
1.9630001 -0.671 0.146 150 16 0
1.954 -0.67400002 0.146 150 16 0
1.944 -0.67799997 0.146 150 16 0
1.928 -0.67900002 0.145 150 16 0
1.923 -0.68300003 0.145 150 16 0
1.9170001 -0.68800002 0.145 150 16 0
1.913 -0.69300002 0.146 150 16 0
1.901 -0.69499999 0.145 150 16 0
1.896 -0.69999999 0.145 150 16 0
1.888 -0.70300001 0.145 150 16 0
1.8789999 -0.70599997 0.145 150 16 0
1.874 -0.71100003 0.145 150 16 0
1.863 -0.713 0.14399999 150 16 0
1.8559999 -0.71600002 0.14399999 150 16 0
1.848 -0.72000003 0.14399999 150 16 0
1.841 -0.72299999 0.14300001 150 16 0
1.836 -0.727 0.14300001 150 16 0
1.825 -0.72899997 0.14300001 150 16 0
1.8150001 -0.73199999 0.142 150 16 0
1.809 -0.73500001 0.142 150 16 0
1.806 -0.74000001 0.142 150 16 0
1.796 -0.74199998 0.141 150 16 0
1.794 -0.74699998 0.141 150 16 0
1.7819999 -0.74900001 0.14 150 16 0
1.778 -0.75300002 0.14 77 0 0
1.77 -0.755 0.139 150 16 0
1.7589999 -0.75700003 0.139 150 16 0
1.756 -0.76200002 0.138 85 0 0
1.744 -0.76200002 0.13699999 80 0 0
1.743 -0.76800001 0.13699999 150 16 0
1.7359999 -0.76999998 0.13699999 106 0 0
1.733 -0.77499998 0.13600001 87 0 0
1.725 -0.77700001 0.13600001 99 0 0
1.7180001 -0.77999997 0.13500001 127 0 0
1.716 -0.78500003 0.13500001 95 0 0
1.696 -0.78100002 0.133 80 3 0
1.694 -0.78600001 0.133 88 0 0
1.681 -0.78600001 0.132 83 0 0
1.679 -0.79000002 0.131 116 0 0
1.677 -0.79500002 0.131 96 0 0
1.666 -0.796 0.13 106 0 0
1.663 -0.80000001 0.12899999 115 0 0
1.658 -0.80299997 0.12800001 145 0 0
1.65 -0.80500001 0.127 128 0 0
1.646 -0.80800003 0.127 150 0 0
1.641 -0.81099999 0.126 150 0 0
1.633 -0.81199998 0.125 125 0 0
1.628 -0.815 0.124 139 0 0
1.62 -0.81699997 0.123 127 0 0
1.615 -0.81999999 0.122 123 0 0
1.608 -0.82099998 0.121 136 0 0
1.599 -0.82200003 0.12 124 0 0
1.59 -0.82200003 0.119 137 0 0
1.5880001 -0.82700002 0.118 104 0 0
1.586 -0.83099997 0.117 142 0 0
1.581 -0.833 0.116 134 0 0
1.575 -0.83499998 0.115 141 0 0
1.571 -0.838 0.114 150 0 0
1.566 -0.83999997 0.113 129 0 0
1.562 -0.84299999 0.112 138 0 0
1.557 -0.84500003 0.111 123 0 0
1.548 -0.84500003 0.11 150 0 0
1.546 -0.84899998 0.109 150 0 0
1.5369999 -0.84899998 0.107 141 0 0
1.5319999 -0.85100001 0.106 135 0 0
1.531 -0.85500002 0.105 133 0 0
1.523 -0.85500002 0.104 126 0 0
1.517 -0.85699999 0.102 150 0 0
1.513 -0.85900003 0.101 136 0 0
1.512 -0.86299998 0.1 136 0 0
1.5089999 -0.866 0.098999999 141 0 0
1.502 -0.866 0.097999997 128 0 0
1.497 -0.86799997 0.096000001 123 0 0
1.492 -0.86900002 0.094999999 139 0 0
1.4859999 -0.87 0.093999997 150 0 0
1.484 -0.87300003 0.093000002 150 0 0
1.479 -0.875 0.090999998 150 0 0
1.473 -0.875 0.090000004 111 0 0
1.47 -0.87800002 0.088 150 0 0
1.466 -0.87900001 0.086999997 133 0 0
1.46 -0.88 0.086000003 135 0 0
1.457 -0.88200003 0.083999999 150 0 0
1.452 -0.88300002 0.082999997 150 0 0
1.45 -0.88599998 0.081 150 0 0
1.441 -0.884 0.079999998 150 0 0
1.439 -0.88700002 0.078000002 136 0 0
1.436 -0.889 0.077 119 0 0
1.433 -0.89099997 0.075000003 134 0 0
1.428 -0.89200002 0.074000001 150 0 0
1.4220001 -0.89200002 0.071999997 126 0 0
1.42 -0.89399999 0.071000002 120 0 0
1.418 -0.89600003 0.068999998 150 0 0
1.414 -0.89700001 0.068000004 128 0 0
1.413 -0.89999998 0.066 141 0 0
1.4069999 -0.89899999 0.064000003 150 0 0
1.406 -0.90200001 0.063000001 144 0 0
1.403 -0.90399998 0.061000001 128 0 0
1.397 -0.903 0.059999999 125 0 0
1.395 -0.90399998 0.057999998 96 0 0
1.3890001 -0.90399998 0.056000002 128 0 0
1.388 -0.90600002 0.055 130 0 0
1.387 -0.90799999 0.052999999 150 0 0
1.3839999 -0.91000003 0.052000001 150 0 0
1.381 -0.91000003 0.050000001 125 0 0
1.375 -0.90899998 0.048 140 0 0
1.373 -0.91100001 0.046 115 0 0
1.372 -0.912 0.045000002 125 0 0
1.37 -0.91399997 0.043000001 148 0 0
1.37 -0.91600001 0.041000001 138 0 0
1.368 -0.917 0.039999999 150 0 0
1.364 -0.917 0.037999999 109 0 0
1.3609999 -0.91799998 0.035999998 115 0 0
1.36 -0.91900003 0.034000002 138 0 0
1.359 -0.92000002 0.033 113 0 0
1.358 -0.92199999 0.030999999 135 0 0
1.353 -0.92000002 0.028999999 114 0 0
1.3559999 -0.92500001 0.027000001 146 0 0
1.348 -0.92199999 0.026000001 142 0 0
1.347 -0.92299998 0.024 139 0 0
1.346 -0.92400002 0.022 112 0 0
1.346 -0.92500001 0.02 126 0 0
1.345 -0.92699999 0.017999999 150 0 0
1.342 -0.926 0.017000001 118 0 0
1.3380001 -0.92500001 0.015 137 0 0
1.337 -0.926 0.013 141 0 0
1.339 -0.92799997 0.011 146 0 0
1.3329999 -0.926 0.0089999996 150 0 0
1.3329999 -0.92699999 0.0070000002 131 0 0
1.332 -0.92799997 0.0049999999 111 0 0
1.331 -0.92799997 0.0040000002 106 0 0
1.325 -0.92500001 0.0020000001 134 3 0
1.331 -0.93000001 0 117 0 0
1.3279999 -0.92900002 -0.001 139 0 0
1.327 -0.92900002 -0.003 87 0 0
1.329 -0.93099999 -0.0049999999 106 0 0
1.327 -0.93000001 -0.0060000001 147 0 0
1.326 -0.93000001 -0.0080000004 119 0 0
1.326 -0.93099999 -0.0099999998 115 0 0
1.313 -0.92199999 -0.012 120 1 0
1.311 -0.921 -0.014 100 0 0
1.322 -0.92900002 -0.016000001 123 1 0
1.322 -0.93000001 -0.017999999 150 0 0
1.322 -0.93000001 -0.02 147 0 0
1.319 -0.92799997 -0.021 150 0 0
1.322 -0.93000001 -0.023 137 0 0
1.309 -0.921 -0.025 108 1 0
1.309 -0.92000002 -0.027000001 110 0 0
1.309 -0.92000002 -0.028999999 125 0 0
1.322 -0.92900002 -0.030999999 150 1 0
1.3200001 -0.92699999 -0.033 150 0 0
1.3200001 -0.92699999 -0.034000002 150 0 0
1.309 -0.91900003 -0.035999998 96 1 0
1.3099999 -0.91900003 -0.037999999 126 0 0
1.323 -0.92799997 -0.039999999 140 1 0
1.3099999 -0.91799998 -0.041000001 132 3 0
1.324 -0.92699999 -0.044 126 3 0
1.311 -0.917 -0.045000002 94 3 0
1.324 -0.92500001 -0.046999998 150 3 0
1.309 -0.91399997 -0.048999999 131 3 0
1.321 -0.921 -0.050999999 150 3 0
1.313 -0.91399997 -0.052000001 93 0 0
1.326 -0.92199999 -0.055 150 0 0
1.312 -0.91100001 -0.056000002 98 0 0
1.327 -0.921 -0.057999998 147 0 0
1.325 -0.91799998 -0.059999999 150 0 0
1.3150001 -0.90899998 -0.061000001 90 1 0
1.329 -0.917 -0.064000003 140 3 0
1.3279999 -0.91500002 -0.064999998 150 0 0
1.331 -0.91500002 -0.067000002 150 0 0
1.332 -0.91399997 -0.068999998 150 0 0
1.335 -0.91399997 -0.071000002 128 0 0
1.334 -0.912 -0.071999997 133 0 0
1.339 -0.91299999 -0.074000001 127 0 0
1.335 -0.90899998 -0.075999998 126 0 0
1.336 -0.90799999 -0.077 150 0 0
1.341 -0.90899998 -0.079000004 150 0 0
1.346 -0.91000003 -0.081 141 0 0
1.341 -0.90399998 -0.082000002 145 0 0
1.34 -0.90100002 -0.083999999 150 0 0
1.35 -0.90499997 -0.086000003 150 2 0
1.347 -0.90100002 -0.086999997 144 0 0
1.348 -0.89899999 -0.089000002 142 0 0
1.354 -0.90100002 -0.090999998 150 0 0
1.3559999 -0.89899999 -0.092 150 0 0
1.357 -0.89700001 -0.093999997 150 0 0
1.363 -0.898 -0.096000001 150 0 0
1.365 -0.89700001 -0.097000003 150 0 0
1.368 -0.89600003 -0.098999999 150 0 0
1.368 -0.89300001 -0.1 123 0 0
1.37 -0.89200002 -0.102 148 0 0
1.372 -0.88999999 -0.103 150 0 0
1.3710001 -0.88599998 -0.105 150 0 0
1.38 -0.88800001 -0.107 150 0 0
1.377 -0.88300002 -0.108 150 0 0
1.38 -0.88200003 -0.109 150 0 0
1.3839999 -0.88099998 -0.111 150 0 0
1.385 -0.87900001 -0.112 137 0 0
1.388 -0.87699997 -0.114 150 0 0
1.39 -0.875 -0.115 150 0 0
1.391 -0.87199998 -0.116 150 0 0
1.395 -0.87099999 -0.118 140 0 0
1.397 -0.86900002 -0.119 142 0 0
1.401 -0.86799997 -0.12 150 0 0
1.404 -0.866 -0.122 150 0 0
1.408 -0.86500001 -0.123 150 0 0
1.416 -0.86500001 -0.125 150 0 0
1.4170001 -0.86199999 -0.126 150 0 0
1.419 -0.86000001 -0.127 141 0 0
1.42 -0.85600001 -0.12800001 150 0 0
1.424 -0.85399997 -0.12899999 150 0 0
1.4299999 -0.85399997 -0.131 150 0 0
1.4349999 -0.85299999 -0.132 150 0 0
1.436 -0.85000002 -0.133 150 0 0
