# .PCD v0.7 - Point Cloud Data file format
VERSION 0.7
FIELDS x y z intensity tag line
SIZE 4 4 4 4 1 1
TYPE F F F F U U
COUNT 1 1 1 1 1 1
WIDTH 1364
HEIGHT 1
VIEWPOINT 0 0 0 1 0 0 0
POINTS 1364
DATA ascii
2.7079999 0.87400001 -0.36899999 150 16 0
2.711 0.86699998 -0.36399999 150 16 0
2.7179999 0.861 -0.361 150 16 0
2.7179999 0.85299999 -0.35600001 150 16 0
2.733 0.84899998 -0.354 150 16 0
2.7349999 0.84200001 -0.34900001 150 16 0
2.7379999 0.83499998 -0.345 150 16 0
2.7509999 0.83099997 -0.34200001 150 16 0
2.7550001 0.824 -0.338 150 16 0
2.7579999 0.81599998 -0.33399999 150 16 0
2.76 0.80900002 -0.33000001 150 16 0
2.7679999 0.80299997 -0.32699999 150 16 0
2.77 0.79500002 -0.322 150 16 0
2.776 0.78799999 -0.31900001 150 16 0
2.7809999 0.78100002 -0.315 150 16 0
2.786 0.77499998 -0.31099999 150 16 0
2.7909999 0.76800001 -0.30700001 150 16 0
2.7969999 0.76099998 -0.30399999 150 16 0
2.802 0.75400001 -0.30000001 150 16 0
2.8099999 0.74699998 -0.296 150 16 0
2.8150001 0.74000001 -0.29300001 150 16 0
2.816 0.73199999 -0.28799999 150 16 0
2.826 0.72600001 -0.285 150 16 0
2.822 0.71700001 -0.28099999 150 16 0
2.835 0.71200001 -0.278 150 16 0
2.8399999 0.704 -0.27399999 150 16 0
2.8469999 0.69700003 -0.27000001 150 16 0
2.8510001 0.69 -0.26699999 150 16 0
2.8540001 0.68199998 -0.26300001 150 16 0
2.8629999 0.676 -0.259 150 16 0
2.868 0.66799998 -0.25600001 150 16 0
2.872 0.66000003 -0.252 150 16 0
2.8789999 0.653 -0.248 150 16 0
2.881 0.64499998 -0.244 150 16 0
2.8840001 0.63700002 -0.241 150 16 0
2.895 0.63 -0.23800001 150 16 0
2.8989999 0.62300003 -0.234 150 16 0
2.908 0.616 -0.23100001 150 16 0
2.9130001 0.60799998 -0.227 150 16 0
2.921 0.60100001 -0.22400001 150 16 0
2.928 0.59299999 -0.22 150 16 0
2.9319999 0.58499998 -0.21699999 150 16 0
2.9360001 0.57700002 -0.213 150 16 0
2.9430001 0.56999999 -0.20900001 150 16 0
2.947 0.56099999 -0.206 150 16 0
2.95 0.55299997 -0.20200001 150 16 0
2.9590001 0.546 -0.199 150 16 0
2.967 0.53799999 -0.19499999 150 16 0
2.9690001 0.52899998 -0.192 150 16 0
2.974 0.52100003 -0.18799999 150 16 0
2.9809999 0.51300001 -0.185 150 16 0
2.9849999 0.505 -0.18099999 150 16 0
2.994 0.49700001 -0.178 150 16 0
2.9979999 0.48899999 -0.17399999 150 16 0
2.9990001 0.47999999 -0.171 150 16 0
3.01 0.47299999 -0.168 150 16 0
3.017 0.465 -0.164 138 16 0
3.02 0.456 -0.161 148 16 0
3.0250001 0.447 -0.15700001 142 16 0
3.0369999 0.44 -0.154 138 16 0
3.036 0.43000001 -0.15000001 150 16 0
3.04 0.42199999 -0.147 142 16 0
3.0510001 0.414 -0.14399999 137 16 0
3.0550001 0.405 -0.14 125 16 0
3.066 0.39700001 -0.13699999 139 16 0
3.069 0.38800001 -0.134 138 16 0
3.076 0.38 -0.13 140 16 0
3.085 0.37099999 -0.127 116 16 0
3.086 0.36199999 -0.123 143 16 0
3.098 0.354 -0.12 140 16 0
3.102 0.345 -0.117 144 16 0
3.1099999 0.33700001 -0.114 135 16 0
3.112 0.32699999 -0.11 118 16 0
3.1199999 0.31900001 -0.107 119 16 0
3.1270001 0.31 -0.104 105 16 0
3.1289999 0.30000001 -0.1 107 16 0
3.1370001 0.292 -0.097000003 119 16 0
3.1459999 0.28299999 -0.093999997 141 16 0
3.1500001 0.273 -0.090000004 111 16 0
3.1619999 0.26499999 -0.086999997 108 16 0
3.1700001 0.25600001 -0.083999999 125 16 0
3.174 0.24600001 -0.081 102 16 0
3.1819999 0.237 -0.077 109 16 0
3.1849999 0.228 -0.074000001 105 16 0
3.1949999 0.219 -0.071000002 92 16 0
3.204 0.20900001 -0.068000004 100 16 0
3.2160001 0.2 -0.064999998 111 16 0
3.2149999 0.19 -0.061000001 92 16 0
3.2260001 0.18099999 -0.057999998 105 16 0
3.2349999 0.17200001 -0.055 101 16 0
3.2349999 0.162 -0.050999999 93 16 0
3.2460001 0.152 -0.048 95 16 0
3.25 0.142 -0.045000002 87 16 0
3.253 0.132 -0.041999999 97 16 0
3.2639999 0.123 -0.039000001 94 16 0
3.2720001 0.113 -0.035 88 16 0
3.2739999 0.103 -0.032000002 85 16 0
3.2820001 0.093000002 -0.028999999 89 16 0
3.289 0.082999997 -0.026000001 80 16 0
3.293 0.072999999 -0.022 90 16 0
3.3039999 0.063000001 -0.018999999 51 16 0
3.306 0.052999999 -0.016000001 49 16 0
3.313 0.043000001 -0.013 72 16 0
3.3239999 0.033 -0.0099999998 63 16 0
3.323 0.022 -0.0070000002 27 16 0
3.299 0.012 -0.003 19 16 0
3.279 0.0020000001 0 19 16 0
3.2550001 -0.0070000002 0.0020000001 20 16 0
3.2460001 -0.017000001 0.0049999999 49 16 0
3.2550001 -0.027000001 0.0080000004 150 16 0
3.263 -0.037999999 0.011 150 16 0
3.263 -0.048 0.014 150 16 0
3.27 -0.057999998 0.017000001 150 16 0
3.2750001 -0.068000004 0.02 81 16 0
3.256 -0.078000002 0.023 31 16 0
3.237 -0.088 0.026000001 31 16 0
3.2179999 -0.097000003 0.028000001 30 16 0
3.204 -0.107 0.030999999 30 16 0
3.1789999 -0.116 0.034000002 31 16 0
3.1600001 -0.125 0.035999998 31 16 0
3.1359999 -0.134 0.039000001 31 16 0
3.1170001 -0.14300001 0.041000001 30 16 0
3.099 -0.152 0.044 30 16 0
3.0810001 -0.16 0.046 30 16 0
3.062 -0.169 0.048 30 16 0
3.039 -0.177 0.050999999 31 16 0
3.0220001 -0.186 0.052999999 31 16 0
3.0009999 -0.19400001 0.055 31 16 0
2.987 -0.20200001 0.057 31 16 0
2.9690001 -0.20999999 0.059 30 16 0
2.9560001 -0.219 0.061000001 30 16 0
2.9389999 -0.227 0.063000001 31 16 0
2.9130001 -0.234 0.064999998 32 16 0
2.9030001 -0.242 0.067000002 32 16 0
2.8870001 -0.25 0.068999998 33 16 0
2.8670001 -0.257 0.071000002 31 16 0
2.846 -0.264 0.072999999 33 16 0
2.8340001 -0.27200001 0.075000003 33 16 0
2.8139999 -0.27900001 0.075999998 32 16 0
2.803 -0.287 0.078000002 33 16 0
2.79 -0.294 0.079999998 34 16 0
2.77 -0.301 0.082000002 33 16 0
2.7620001 -0.30899999 0.082999997 35 16 0
2.7409999 -0.315 0.085000001 35 16 0
2.73 -0.32300001 0.086999997 35 16 0
2.7190001 -0.33000001 0.088 36 16 0
2.7049999 -0.33700001 0.090000004 36 16 0
2.6860001 -0.34299999 0.090999998 36 16 0
2.674 -0.34999999 0.093000002 38 16 0
2.6589999 -0.35699999 0.093999997 37 16 0
2.6440001 -0.36300001 0.094999999 37 16 0
2.632 -0.37 0.097000003 38 16 0
2.6170001 -0.37599999 0.097999997 49 16 0
2.5999999 -0.382 0.098999999 36 16 0
2.589 -0.389 0.101 50 16 0
2.573 -0.39500001 0.102 45 16 0
2.563 -0.40099999 0.103 49 16 0
2.549 -0.40700001 0.104 59 16 0
2.533 -0.41299999 0.105 59 16 0
2.5250001 -0.41999999 0.106 55 16 0
2.506 -0.42500001 0.107 69 16 0
2.4990001 -0.43200001 0.109 66 16 0
2.4849999 -0.43700001 0.11 65 16 0
2.471 -0.44299999 0.11 67 16 0
2.4590001 -0.449 0.112 68 16 0
2.447 -0.454 0.112 69 16 0
2.437 -0.461 0.113 72 16 0
2.4219999 -0.46599999 0.114 67 16 0
2.4119999 -0.47099999 0.115 60 16 0
2.401 -0.477 0.116 68 16 0
2.385 -0.48199999 0.117 75 16 0
2.369 -0.486 0.117 66 16 0
2.3610001 -0.49200001 0.118 75 16 0
2.3510001 -0.498 0.119 70 16 0
2.3369999 -0.50300002 0.12 74 16 0
2.329 -0.509 0.121 81 16 0
2.319 -0.514 0.121 80 16 0
2.3010001 -0.51800001 0.122 78 16 0
2.2950001 -0.52399999 0.123 80 16 0
2.276 -0.52700001 0.123 81 16 0
2.27 -0.53299999 0.124 80 16 0
2.2579999 -0.53799999 0.124 84 16 0
2.2479999 -0.54299998 0.125 78 16 0
2.2379999 -0.54799998 0.125 76 16 0
2.227 -0.55299997 0.126 89 16 0
2.2160001 -0.55699998 0.126 85 16 0
2.2060001 -0.56199998 0.127 82 16 0
2.1930001 -0.56599998 0.127 90 16 0
2.1819999 -0.56999999 0.127 103 16 0
2.177 -0.57599998 0.12800001 108 16 0
2.164 -0.57999998 0.12800001 104 16 0
2.155 -0.58499998 0.12800001 130 16 0
2.138 -0.58700001 0.12800001 130 16 0
2.1289999 -0.59200001 0.12899999 142 16 0
2.119 -0.59600002 0.12899999 141 16 0
2.1099999 -0.60100001 0.12899999 142 16 0
2.0969999 -0.60399997 0.12899999 148 16 0
2.092 -0.60900003 0.13 141 16 0
2.0840001 -0.61400002 0.13 150 16 0
2.0739999 -0.61799997 0.13 150 16 0
2.066 -0.62300003 0.13 150 16 0
2.053 -0.62599999 0.13 150 16 0
2.0439999 -0.63 0.13 150 16 0
2.0380001 -0.63499999 0.131 150 16 0
2.027 -0.63800001 0.131 150 16 0
2.0190001 -0.64200002 0.131 150 16 0
2.007 -0.64600003 0.131 150 16 0
1.998 -0.64999998 0.131 150 16 0
1.99 -0.653 0.131 150 16 0
1.9859999 -0.65899998 0.131 150 16 0
1.974 -0.662 0.131 150 16 0
1.962 -0.66399997 0.13 150 16 0
1.957 -0.66900003 0.13 150 16 0
1.947 -0.67299998 0.13 150 16 0
1.931 -0.67400002 0.13 150 16 0
1.926 -0.67799997 0.13 150 16 0
1.92 -0.68300003 0.13 150 16 0
1.914 -0.68699998 0.13 150 16 0
1.904 -0.69 0.12899999 150 16 0
1.9 -0.69499999 0.12899999 150 16 0
1.891 -0.69800001 0.12899999 150 16 0
1.881 -0.70099998 0.12899999 150 16 0
1.877 -0.70599997 0.12899999 150 16 0
1.865 -0.70700002 0.12800001 150 16 0
1.8559999 -0.70999998 0.12800001 150 16 0
1.853 -0.71600002 0.12800001 150 16 0
1.848 -0.72000003 0.12800001 150 16 0
1.841 -0.72399998 0.127 150 16 0
1.826 -0.72399998 0.126 150 16 0
1.818 -0.727 0.126 150 16 0
1.813 -0.73100001 0.126 150 16 0
1.807 -0.73500001 0.125 150 16 0
1.801 -0.73799998 0.125 150 16 0
1.794 -0.74199998 0.124 150 16 0
1.785 -0.74400002 0.124 150 16 0
1.781 -0.74900001 0.124 150 16 0
1.772 -0.75099999 0.123 150 16 0
1.763 -0.75300002 0.122 150 16 0
1.758 -0.75700003 0.122 150 16 0
1.755 -0.76200002 0.121 150 16 0
1.743 -0.76200002 0.12 68 0 0
1.738 -0.76599997 0.12 95 0 0
1.7309999 -0.76899999 0.119 119 0 0
1.723 -0.77100003 0.119 70 0 0
1.721 -0.77600002 0.118 92 0 0
1.7130001 -0.778 0.117 86 0 0
1.697 -0.77700001 0.116 97 0 0
1.694 -0.78100002 0.116 87 0 0
1.686 -0.78299999 0.115 89 0 0
1.682 -0.787 0.114 101 0 0
1.679 -0.79100001 0.114 85 0 0
1.67 -0.792 0.112 96 0 0
1.663 -0.79400003 0.112 98 0 0
1.661 -0.79900002 0.111 108 0 0
1.653 -0.801 0.11 112 0 0
1.649 -0.80400002 0.109 99 0 0
1.638 -0.80500001 0.108 94 0 0
1.633 -0.80699998 0.107 94 0 0
1.626 -0.80900002 0.106 115 0 0
1.623 -0.81300002 0.106 150 0 0
1.615 -0.815 0.105 141 0 0
1.6109999 -0.81800002 0.104 122 0 0
1.603 -0.81900001 0.103 108 0 0
1.5930001 -0.81900001 0.101 131 0 0
1.585 -0.81999999 0.1 111 0 0
1.5829999 -0.824 0.098999999 105 0 0
1.5779999 -0.82700002 0.097999997 113 0 0
1.5779999 -0.83200002 0.097999997 139 0 0
1.576 -0.83600003 0.097000003 97 0 0
1.568 -0.83700001 0.096000001 133 0 0
1.562 -0.838 0.093999997 127 0 0
1.556 -0.83999997 0.093000002 130 0 0
1.549 -0.84100002 0.092 120 0 0
1.546 -0.84500003 0.090999998 127 0 0
1.543 -0.847 0.090000004 136 0 0
1.534 -0.84799999 0.089000002 143 0 0
1.528 -0.84899998 0.086999997 141 0 0
1.524 -0.852 0.086000003 150 0 0
1.521 -0.85399997 0.085000001 123 0 0
1.516 -0.85600001 0.083999999 150 0 0
1.513 -0.85900003 0.082999997 115 0 0
1.506 -0.86000001 0.081 123 0 0
1.503 -0.86199999 0.079999998 130 0 0
1.495 -0.86199999 0.078000002 117 0 0
1.49 -0.86400002 0.077 133 0 0
1.488 -0.86699998 0.075999998 150 0 0
1.478 -0.866 0.074000001 150 0 0
1.479 -0.87 0.072999999 132 0 0
1.472 -0.87 0.071999997 150 0 0
1.47 -0.87400001 0.07 150 0 0
1.466 -0.87599999 0.068999998 150 0 0
1.459 -0.875 0.067000002 150 0 0
1.456 -0.87800002 0.066 150 0 0
1.454 -0.88099998 0.064999998 150 0 0
1.448 -0.88099998 0.063000001 105 0 0
1.443 -0.88200003 0.061999999 150 0 0
1.439 -0.88300002 0.059999999 140 0 0
1.4400001 -0.88700002 0.059 150 0 0
1.4349999 -0.88800001 0.057 145 0 0
1.426 -0.88700002 0.056000002 130 0 0
1.424 -0.889 0.054000001 150 0 0
1.42 -0.88999999 0.052999999 137 0 0
1.421 -0.89399999 0.050999999 150 0 0
1.4119999 -0.89200002 0.050000001 140 0 0
1.41 -0.89399999 0.048 133 0 0
1.408 -0.89700001 0.046999998 127 0 0
1.4069999 -0.89899999 0.045000002 150 0 0
1.4 -0.898 0.043000001 130 0 0
1.396 -0.898 0.041999999 136 0 0
1.398 -0.903 0.039999999 142 0 0
1.391 -0.90200001 0.037999999 129 0 0
1.39 -0.90399998 0.037 132 0 0
1.383 -0.903 0.035 119 0 0
1.382 -0.90499997 0.034000002 149 0 0
1.381 -0.90700001 0.032000002 145 0 0
1.38 -0.90899998 0.029999999 131 0 0
1.374 -0.90799999 0.028000001 150 0 0
1.373 -0.91000003 0.027000001 128 0 0
1.372 -0.912 0.025 148 0 0
1.3660001 -0.91100001 0.023 124 0 0
1.367 -0.91399997 0.022 150 0 0
1.364 -0.91399997 0.02 107 0 0
1.362 -0.91600001 0.017999999 137 0 0
1.3609999 -0.917 0.016000001 108 0 0
1.36 -0.91900003 0.015 115 0 0
1.352 -0.91600001 0.013 135 3 0
1.3559999 -0.92000002 0.011 137 0 0
1.353 -0.92000002 0.0089999996 142 0 0
1.349 -0.91900003 0.0080000004 148 0 0
1.348 -0.921 0.0060000001 98 0 0
1.344 -0.92000002 0.0040000002 94 0 0
1.346 -0.92299998 0.0020000001 110 0 0
1.344 -0.92299998 0 134 0 0
1.341 -0.92299998 -0.001 123 0 0
1.339 -0.92299998 -0.0020000001 101 0 0
1.336 -0.92299998 -0.0040000002 150 0 0
1.335 -0.92400002 -0.0060000001 125 0 0
1.334 -0.92500001 -0.0080000004 143 0 0
1.331 -0.92400002 -0.0099999998 130 0 0
1.332 -0.926 -0.012 150 0 0
1.332 -0.92699999 -0.013 136 0 0
1.329 -0.926 -0.015 125 0 0
1.329 -0.92699999 -0.017000001 132 0 0
1.3279999 -0.92799997 -0.018999999 107 0 0
1.3279999 -0.92799997 -0.021 150 0 0
1.3279999 -0.92900002 -0.023 141 0 0
1.321 -0.92500001 -0.025 140 3 0
1.321 -0.926 -0.026000001 133 0 0
1.323 -0.92799997 -0.028000001 98 0 0
1.323 -0.92799997 -0.029999999 150 0 0
1.3099999 -0.91900003 -0.032000002 107 1 0
1.309 -0.91900003 -0.034000002 92 0 0
1.309 -0.92000002 -0.035 85 0 0
1.307 -0.91799998 -0.037 139 0 0
1.307 -0.91900003 -0.039000001 137 0 0
1.306 -0.91799998 -0.041000001 130 0 0
1.306 -0.91799998 -0.043000001 129 0 0
1.306 -0.91799998 -0.045000002 124 0 0
1.306 -0.91799998 -0.046 141 0 0
1.307 -0.91799998 -0.048 133 0 0
1.3049999 -0.91600001 -0.050000001 116 0 0
1.307 -0.91799998 -0.052000001 139 0 0
1.307 -0.917 -0.054000001 107 0 0
1.309 -0.91799998 -0.056000002 126 0 0
1.307 -0.91600001 -0.057999998 118 0 0
1.3049999 -0.91399997 -0.059 132 0 0
1.308 -0.91500002 -0.061000001 122 0 0
1.309 -0.91500002 -0.063000001 102 0 0
1.308 -0.91399997 -0.064999998 101 0 0
1.307 -0.912 -0.066 101 0 0
1.309 -0.91299999 -0.068000004 123 0 0
1.312 -0.91399997 -0.07 131 0 0
1.308 -0.91000003 -0.071999997 150 0 0
1.3099999 -0.91000003 -0.074000001 129 0 0
1.311 -0.91000003 -0.075000003 111 0 0
1.311 -0.90899998 -0.077 131 0 0
1.324 -0.91600001 -0.079999998 138 1 0
1.326 -0.91600001 -0.081 150 0 0
1.313 -0.90499997 -0.082000002 106 1 0
1.33 -0.91500002 -0.085000001 142 3 0
1.326 -0.91100001 -0.086000003 138 0 0
1.329 -0.91100001 -0.088 150 0 0
1.33 -0.91000003 -0.090000004 144 0 0
1.3329999 -0.91000003 -0.092 150 0 0
1.3329999 -0.90899998 -0.093000002 121 0 0
1.3329999 -0.90600002 -0.094999999 150 0 0
1.335 -0.90600002 -0.097000003 150 0 0
1.334 -0.903 -0.097999997 150 0 0
1.337 -0.903 -0.1 150 0 0
1.339 -0.90200001 -0.102 150 0 0
1.345 -0.903 -0.104 150 0 0
1.3430001 -0.89999998 -0.105 150 0 0
1.345 -0.89899999 -0.107 150 0 0
1.347 -0.89700001 -0.108 130 0 0
1.352 -0.898 -0.11 150 0 0
1.353 -0.89600003 -0.112 150 0 0
1.357 -0.89600003 -0.113 134 0 0
1.357 -0.89399999 -0.115 150 0 0
1.359 -0.89200002 -0.116 150 0 0
1.363 -0.89200002 -0.118 150 0 0
1.367 -0.89099997 -0.12 143 0 0
1.37 -0.88999999 -0.121 150 0 0
1.37 -0.88700002 -0.122 150 0 0
1.3710001 -0.88499999 -0.124 150 0 0
1.374 -0.88300002 -0.125 150 0 0
1.378 -0.88300002 -0.127 150 0 0
1.3789999 -0.88 -0.12800001 150 0 0
1.378 -0.87599999 -0.12899999 145 0 0
1.385 -0.87699997 -0.131 144 0 0
1.387 -0.875 -0.132 150 0 0
1.388 -0.87300003 -0.134 150 0 0
1.39 -0.87 -0.13500001 117 0 0
1.3940001 -0.86900002 -0.13600001 150 0 0
1.396 -0.86699998 -0.138 150 0 0
1.4 -0.866 -0.139 150 0 0
1.404 -0.86400002 -0.14 150 0 0
1.404 -0.86000001 -0.141 150 0 0
1.413 -0.86199999 -0.14300001 150 0 0
1.414 -0.85900003 -0.14399999 150 0 0
1.416 -0.85600001 -0.146 150 0 0
1.42 -0.85500002 -0.147 150 0 0
1.423 -0.852 -0.148 150 0 0
1.427 -0.85100001 -0.149 150 0 0
1.431 -0.84899998 -0.15000001 150 0 0
1.436 -0.84799999 -0.152 150 0 0
1.437 -0.84500003 -0.153 146 0 0
1.441 -0.84299999 -0.154 150 0 0
1.444 -0.83999997 -0.155 150 0 0
1.451 -0.83999997 -0.156 150 0 0
1.4579999 -0.83999997 -0.15800001 148 0 0
1.462 -0.83700001 -0.15899999 126 0 0
1.464 -0.83399999 -0.16 124 0 0
1.469 -0.833 -0.161 113 0 0
1.471 -0.829 -0.162 135 0 0
1.475 -0.82700002 -0.163 146 0 0
1.482 -0.82599998 -0.164 150 0 0
1.488 -0.82499999 -0.16500001 138 0 0
1.489 -0.82099998 -0.16599999 150 0 0
1.494 -0.81900001 -0.167 150 0 0
1.498 -0.81599998 -0.168 111 0 0
1.505 -0.81599998 -0.169 138 0 0
1.511 -0.81400001 -0.17 150 0 0
1.513 -0.81 -0.17 150 0 0
1.522 -0.81 -0.17200001 150 0 0
1.527 -0.80800003 -0.17299999 150 0 0
1.529 -0.80400002 -0.17299999 150 0 0
1.535 -0.80199999 -0.17399999 129 0 0
1.539 -0.79900002 -0.175 130 0 0
1.543 -0.796 -0.176 150 0 0
1.549 -0.79400003 -0.176 113 0 0
1.554 -0.792 -0.177 143 0 0
1.563 -0.792 -0.178 126 0 0
1.566 -0.78799999 -0.17900001 142 0 0
1.573 -0.78600001 -0.18000001 130 0 0
1.577 -0.78299999 -0.18000001 150 0 0
1.586 -0.78200001 -0.18099999 150 0 0
1.591 -0.77899998 -0.182 150 0 0
1.5930001 -0.77499998 -0.182 121 0 0
1.601 -0.773 -0.183 150 16 0
1.602 -0.76899999 -0.183 142 0 0
1.609 -0.76599997 -0.184 108 0 0
1.6109999 -0.76200002 -0.184 118 0 0
1.615 -0.759 -0.184 5 0 0
1.619 -0.755 -0.185 148 0 0
1.633 -0.75599998 -0.186 3 0 0
1.635 -0.75199997 -0.186 90 0 0
1.645 -0.75099999 -0.18700001 88 0 0
1.648 -0.74699998 -0.18700001 113 0 0
1.661 -0.74599999 -0.18799999 4 0 0
1.663 -0.74199998 -0.18799999 3 0 0
1.6720001 -0.74000001 -0.189 94 0 0
1.677 -0.73699999 -0.189 5 0 0
1.684 -0.73400003 -0.19 150 16 0
1.689 -0.73100001 -0.19 150 16 0
1.692 -0.72600001 -0.19 2 0 0
1.704 -0.72600001 -0.191 150 16 0
1.7079999 -0.722 -0.191 150 16 0
1.717 -0.71899998 -0.191 150 16 0
1.724 -0.71700001 -0.191 150 16 0
1.7359999 -0.71600002 -0.192 66 0 0
1.739 -0.71100003 -0.192 150 16 0
1.7460001 -0.708 -0.192 150 16 0
1.7539999 -0.70499998 -0.192 56 0 0
1.76 -0.70200002 -0.192 65 0 0
1.763 -0.69700003 -0.192 57 0 0
1.772 -0.69499999 -0.192 42 0 0
1.784 -0.69300002 -0.193 39 0 0
1.79 -0.68900001 -0.193 1 0 0
1.794 -0.685 -0.193 1 0 0
1.802 -0.68199998 -0.193 2 0 0
1.811 -0.67900002 -0.193 150 16 0
1.818 -0.676 -0.193 1 0 0
1.824 -0.67199999 -0.192 150 16 0
1.835 -0.67000002 -0.193 150 16 0
1.84 -0.66500002 -0.192 150 16 0
1.851 -0.66299999 -0.193 150 16 0
1.86 -0.66000003 -0.193 150 16 0
1.864 -0.65499997 -0.192 150 16 0
1.873 -0.65200001 -0.192 150 16 0
1.8839999 -0.64899999 -0.192 150 16 0
1.891 -0.64499998 -0.192 1 0 0
1.904 -0.64300001 -0.192 1 0 0
1.9119999 -0.63999999 -0.192 1 0 0
1.916 -0.63499999 -0.191 147 16 0
1.924 -0.63099998 -0.191 149 16 0
1.927 -0.625 -0.19 146 16 0
1.9349999 -0.62099999 -0.19 136 16 0
1.942 -0.61699998 -0.189 134 16 0
1.959 -0.616 -0.19 150 16 0
1.966 -0.61199999 -0.189 135 16 0
1.974 -0.60799998 -0.18799999 143 16 0
1.987 -0.60500002 -0.18799999 122 16 0
1.994 -0.60100001 -0.18799999 110 16 0
2.0079999 -0.59799999 -0.18799999 121 16 0
2.01 -0.59200001 -0.18700001 115 16 0
2.02 -0.588 -0.186 117 16 0
2.0339999 -0.58499998 -0.186 110 16 0
2.036 -0.57999998 -0.185 106 16 0
2.04 -0.574 -0.184 108 16 0
2.0580001 -0.57200003 -0.184 108 16 0
2.066 -0.56800002 -0.183 107 16 0
2.0799999 -0.565 -0.183 108 16 0
2.085 -0.55900002 -0.182 96 16 0
2.0999999 -0.55599999 -0.18099999 100 16 0
2.1029999 -0.55000001 -0.18000001 94 16 0
2.1170001 -0.54699999 -0.18000001 89 16 0
2.1329999 -0.54400003 -0.17900001 91 16 0
2.141 -0.53899997 -0.178 95 16 0
2.1470001 -0.53399998 -0.177 95 16 0
2.158 -0.52899998 -0.176 93 16 0
2.178 -0.52700001 -0.176 86 16 0
2.1860001 -0.52200001 -0.175 83 16 0
2.1960001 -0.51700002 -0.17399999 81 16 0
2.21 -0.51300001 -0.17299999 86 16 0
2.2190001 -0.50800002 -0.17200001 80 16 0
2.233 -0.50400001 -0.171 78 16 0
2.2420001 -0.49900001 -0.17 77 16 0
2.25 -0.49399999 -0.169 69 16 0
2.263 -0.48899999 -0.168 72 16 0
2.2739999 -0.484 -0.167 70 16 0
2.2880001 -0.47999999 -0.16599999 73 16 0
2.299 -0.47499999 -0.16500001 68 16 0
2.309 -0.46900001 -0.163 68 16 0
2.322 -0.465 -0.162 63 16 0
2.332 -0.45899999 -0.161 60 16 0
2.349 -0.45500001 -0.16 68 16 0
2.3599999 -0.449 -0.15800001 52 16 0
2.3729999 -0.44499999 -0.15700001 47 16 0
2.3800001 -0.43799999 -0.155 40 16 0
2.3970001 -0.43399999 -0.154 58 16 0
2.4130001 -0.42899999 -0.153 57 16 0
2.4219999 -0.42300001 -0.15099999 57 16 0
2.4319999 -0.417 -0.15000001 59 16 0
2.451 -0.41299999 -0.149 50 16 0
2.461 -0.40599999 -0.147 55 16 0
2.473 -0.40099999 -0.145 51 16 0
2.4849999 -0.39500001 -0.14300001 45 16 0
2.5009999 -0.389 -0.142 31 16 0
2.5120001 -0.38299999 -0.14 31 16 0
2.529 -0.37799999 -0.138 31 16 0
2.5420001 -0.37200001 -0.13699999 30 16 0
2.5569999 -0.366 -0.13500001 29 16 0
2.573 -0.36000001 -0.133 30 16 0
2.5810001 -0.35299999 -0.131 30 16 0
2.598 -0.34799999 -0.12899999 29 16 0
2.6110001 -0.34099999 -0.127 29 16 0
2.6300001 -0.336 -0.125 29 16 0
2.6440001 -0.329 -0.123 30 16 0
2.654 -0.322 -0.121 29 16 0
2.675 -0.31600001 -0.119 29 16 0
2.688 -0.31 -0.117 29 16 0
2.704 -0.303 -0.115 30 16 0
2.721 -0.29699999 -0.113 28 16 0
2.733 -0.289 -0.11 26 16 0
2.743 -0.28200001 -0.108 28 16 0
2.766 -0.27599999 -0.106 28 16 0
2.777 -0.26800001 -0.103 27 16 0
2.7950001 -0.26199999 -0.101 27 16 0
2.8099999 -0.255 -0.097999997 28 16 0
2.829 -0.248 -0.096000001 27 16 0
2.8469999 -0.23999999 -0.093000002 28 16 0
2.8640001 -0.233 -0.090999998 26 16 0
2.882 -0.226 -0.088 26 16 0
2.8989999 -0.21799999 -0.085000001 26 16 0
2.9189999 -0.211 -0.082999997 27 16 0
2.9360001 -0.20299999 -0.079999998 27 16 0
2.9549999 -0.19499999 -0.077 26 16 0
2.973 -0.18799999 -0.074000001 26 16 0
2.994 -0.18000001 -0.071000002 25 16 0
3.01 -0.17200001 -0.068000004 26 16 0
3.0380001 -0.164 -0.064999998 27 16 0
3.0550001 -0.156 -0.061999999 27 16 0
3.076 -0.147 -0.059 26 16 0
3.095 -0.139 -0.056000002 26 16 0
3.118 -0.13 -0.052000001 26 16 0
3.135 -0.122 -0.048999999 27 16 0
3.1570001 -0.113 -0.046 26 16 0
3.177 -0.104 -0.041999999 27 16 0
3.2 -0.094999999 -0.037999999 26 16 0
3.22 -0.086000003 -0.035 25 16 0
3.24 -0.077 -0.030999999 30 16 0
3.2609999 -0.068000004 -0.027000001 121 16 0
3.263 -0.057999998 -0.024 150 16 0
3.256 -0.048 -0.02 133 16 0
3.2539999 -0.037999999 -0.016000001 125 16 0
3.2509999 -0.028000001 -0.011 127 16 0
3.243 -0.018999999 -0.0070000002 42 16 0
3.2520001 -0.0089999996 -0.003 19 16 0
3.28 0 0 18 16 0
3.302 0.0099999998 0.0040000002 18 16 0
3.325 0.02 0.0080000004 22 16 0
3.339 0.029999999 0.012 47 16 0
3.3269999 0.039000001 0.016000001 61 16 0
3.325 0.048999999 0.021 53 16 0
3.3269999 0.059 0.025 41 16 0
3.3269999 0.068999998 0.028999999 58 16 0
3.3180001 0.079000004 0.033 65 16 0
3.3169999 0.089000002 0.037999999 54 16 0
3.3150001 0.097999997 0.041999999 62 16 0
3.3069999 0.108 0.046 63 16 0
3.3110001 0.118 0.050000001 63 16 0
3.277 0.126 0.054000001 88 19 0
3.237 0.13500001 0.057999998 106 16 0
3.233 0.14399999 0.061999999 107 16 0
3.2320001 0.154 0.066 103 16 0
3.2290001 0.163 0.071000002 99 16 0
3.2279999 0.17200001 0.075000003 105 16 0
3.217 0.18099999 0.079000004 93 16 0
3.2149999 0.191 0.082999997 90 16 0
3.214 0.2 0.088 98 16 0
3.2130001 0.20900001 0.092 93 16 0
3.2090001 0.219 0.096000001 92 16 0
3.207 0.228 0.1 77 16 0
3.2290001 0.23899999 0.106 80 16 0
3.247 0.25 0.111 131 16 0
3.25 0.25999999 0.115 53 16 0
3.23 0.26800001 0.119 28 16 0
3.221 0.27599999 0.123 30 16 0
3.237 0.287 0.12800001 41 16 0
3.233 0.296 0.133 40 16 0
3.2219999 0.30500001 0.13699999 38 16 0
3.2090001 0.31299999 0.141 35 16 0
3.2049999 0.322 0.145 34 16 0
3.1919999 0.33000001 0.149 32 16 0
3.1849999 0.33899999 0.154 33 16 0
3.1719999 0.34599999 0.15800001 31 16 0
3.165 0.35499999 0.162 33 16 0
3.155 0.36300001 0.16599999 32 16 0
3.138 0.37 0.17 36 16 0
3.1300001 0.37799999 0.17399999 40 16 0
3.122 0.38699999 0.178 58 16 0
3.1159999 0.39500001 0.182 110 16 0
3.1070001 0.403 0.186 150 16 0
3.1059999 0.412 0.191 150 16 0
3.1040001 0.421 0.19599999 150 16 0
3.0999999 0.42899999 0.2 150 16 0
3.102 0.43799999 0.205 150 16 0
3.0999999 0.447 0.20900001 150 16 0
3.095 0.45500001 0.214 150 16 0
3.0940001 0.46399999 0.219 150 16 0
3.0910001 0.47299999 0.223 150 16 0
3.0929999 0.48199999 0.228 150 16 0
3.0880001 0.49000001 0.233 150 16 0
3.086 0.49900001 0.237 150 16 0
3.0780001 0.50599998 0.241 150 16 0
3.079 0.51599997 0.24600001 150 16 0
3.076 0.52399999 0.25099999 150 16 0
3.0739999 0.53299999 0.25600001 150 16 0
3.072 0.54100001 0.26100001 150 16 0
3.0680001 0.54900002 0.26499999 150 16 0
3.066 0.55800003 0.27000001 150 16 0
3.066 0.56699997 0.27500001 150 16 0
3.062 0.57499999 0.28 150 16 0
3.0599999 0.583 0.28400001 150 16 0
3.0599999 0.59200001 0.289 150 16 0
3.056 0.60000002 0.294 150 16 0
3.049 0.60699999 0.29800001 150 16 0
3.0539999 0.61699998 0.30399999 150 16 0
3.05 0.625 0.30899999 150 16 0
3.049 0.634 0.31400001 150 16 0
3.0469999 0.64200002 0.31900001 150 16 0
3.0450001 0.64999998 0.324 150 16 0
3.043 0.65899998 0.329 150 16 0
3.04 0.667 0.33399999 150 16 0
3.0380001 0.67500001 0.33899999 150 16 0
3.036 0.68300003 0.34299999 150 16 0
3.033 0.69099998 0.34799999 150 16 0
3.0309999 0.699 0.35299999 150 16 0
3.0280001 0.708 0.359 150 16 0
3.026 0.71600002 0.36399999 150 16 0
3.023 0.72399998 0.36899999 150 16 0
3.0250001 0.73299998 0.37400001 150 16 0
3.0179999 0.74000001 0.37900001 150 16 0
3.0139999 0.74699998 0.384 150 16 0
3.0179999 0.75700003 0.38999999 150 16 0
3.016 0.76499999 0.39500001 150 16 0
3.016 0.773 0.40000001 150 16 0
3.0109999 0.77999997 0.405 150 16 0
3.01 0.78899997 0.41100001 150 16 0
3.0090001 0.79699999 0.41600001 150 16 0
3.0079999 0.80500001 0.421 150 16 0
3.0039999 0.81300002 0.426 150 16 0
3.0020001 0.82099998 0.43200001 150 16 0
3 0.829 0.43700001 150 16 0
2.997 0.83600003 0.442 150 16 0
2.994 0.84399998 0.447 150 16 0
2.9979999 0.85299999 0.454 150 16 0
2.993 0.86000001 0.45899999 150 16 0
2.99 0.86799997 0.46399999 150 16 0
2.9820001 0.87400001 0.46900001 150 16 0
2.9860001 0.88300002 0.47499999 150 16 0
2.9820001 0.88999999 0.47999999 150 16 0
2.98 0.898 0.486 150 16 0
2.9809999 0.90700001 0.49200001 150 16 0
2.9779999 0.91399997 0.49700001 150 16 0
2.977 0.92199999 0.50300002 150 16 0
2.9719999 0.92799997 0.50800002 128 16 0
2.9630001 0.93400002 0.51200002 49 16 0
2.948 0.93699998 0.51599997 43 16 0
2.941 0.94300002 0.51999998 41 16 0
2.9319999 0.94800001 0.52499998 39 16 0
2.925 0.954 0.52999997 41 16 0
2.9100001 0.95700002 0.53299999 40 16 0
2.901 0.96200001 0.537 39 16 0
2.8959999 0.96799999 0.542 40 16 0
2.8829999 0.97100002 0.54500002 42 16 0
2.875 0.97600001 0.55000001 43 16 0
2.8659999 0.98100001 0.55400002 42 16 0
2.852 0.98400003 0.55800003 42 16 0
2.8440001 0.98900002 0.56199998 42 16 0
2.8340001 0.99299997 0.56599998 42 16 0
2.825 0.99699998 0.56999999 42 16 0
2.8139999 1.001 0.574 41 16 0
2.8010001 1.0039999 0.57700002 42 16 0
2.7939999 1.0089999 0.58200002 43 16 0
2.786 1.013 0.58600003 42 16 0
2.7709999 1.015 0.58899999 42 16 0
2.7609999 1.018 0.59299999 42 16 0
2.7520001 1.022 0.597 41 16 0
2.7460001 1.027 0.602 41 16 0
2.737 1.031 0.60600001 44 16 0
2.7290001 1.035 0.61000001 45 16 0
2.7179999 1.038 0.61400002 46 16 0
2.7060001 1.04 0.61699998 55 16 0
2.697 1.044 0.62099999 56 16 0
2.6900001 1.048 0.62599999 52 16 0
2.6800001 1.05 0.62900001 60 16 0
2.6730001 1.054 0.634 55 16 0
2.6630001 1.057 0.63700002 55 16 0
2.654 1.0599999 0.64099997 63 16 0
2.642 1.062 0.64499998 59 16 0
2.6359999 1.066 0.64899999 58 16 0
2.625 1.068 0.65200001 60 16 0
2.6170001 1.071 0.65700001 64 16 0
2.612 1.076 0.66100001 61 16 0
2.5999999 1.077 0.66399997 63 16 0
2.5910001 1.079 0.66799998 62 16 0
2.5840001 1.0829999 0.67199999 57 16 0
2.575 1.085 0.676 60 16 0
2.562 1.086 0.67900002 57 16 0
2.5550001 1.089 0.68300003 53 16 0
2.5510001 1.0930001 0.68800002 58 16 0
2.54 1.094 0.69099998 60 16 0
2.5339999 1.097 0.69499999 58 16 0
2.5239999 1.099 0.69800001 60 16 0
2.513 1.099 0.70099998 55 16 0
2.5050001 1.102 0.70499998 57 16 0
2.493 1.102 0.708 55 16 0
2.4860001 1.104 0.71200001 58 16 0
2.4779999 1.1059999 0.71499997 56 16 0
2.4749999 1.11 0.72000003 54 16 0
2.464 1.11 0.72299999 49 16 0
2.454 1.1109999 0.72600001 52 16 0
2.4460001 1.113 0.73000002 57 16 0
2.4400001 1.115 0.73400003 61 16 0
2.434 1.117 0.73799998 52 16 0
2.4260001 1.119 0.74199998 62 16 0
2.414 1.118 0.74400002 57 16 0
2.4070001 1.12 0.74800003 53 16 0
2.402 1.122 0.75199997 53 16 0
2.3940001 1.123 0.755 60 16 0
2.3900001 1.126 0.75999999 51 16 0
2.381 1.126 0.76300001 51 16 0
2.3740001 1.127 0.76599997 51 16 0
2.3670001 1.1289999 0.76999998 54 16 0
2.3599999 1.1289999 0.773 71 16 0
2.3499999 1.1289999 0.77600002 75 16 0
2.3429999 1.13 0.77899998 86 16 0
2.336 1.131 0.78299999 67 16 0
2.329 1.131 0.78600001 70 16 0
2.3199999 1.131 0.78899997 64 16 0
2.3150001 1.132 0.792 63 16 0
2.3099999 1.1339999 0.796 61 16 0
2.302 1.133 0.79900002 62 16 0
2.29 1.132 0.801 71 16 0
2.28 1.13 0.80299997 72 16 0
2.2750001 1.131 0.80599999 76 16 0
2.2679999 1.131 0.80900002 77 16 0
2.263 1.132 0.81300002 72 16 0
2.257 1.132 0.81599998 69 16 0
2.25 1.132 0.81900001 68 16 0
2.2409999 1.131 0.82099998 65 16 0
2.234 1.13 0.824 63 16 0
2.2290001 1.131 0.82800001 74 16 0
2.221 1.1289999 0.82999998 65 16 0
2.217 1.13 0.83399999 76 16 0
2.211 1.13 0.83600003 73 16 0
2.204 1.1289999 0.83899999 68 16 0
2.201 1.13 0.84299999 75 16 0
2.1960001 1.1289999 0.84600002 70 16 0
2.1889999 1.128 0.84799999 77 16 0
2.1800001 1.126 0.85000002 63 16 0
2.1760001 1.126 0.85299999 76 16 0
2.164 1.122 0.85299999 72 16 0
2.161 1.122 0.85699999 72 16 0
2.154 1.1210001 0.86000001 72 16 0
2.1500001 1.12 0.86299998 65 16 0
2.1470001 1.1210001 0.866 71 16 0
2.1400001 1.119 0.86799997 79 16 0
2.1329999 1.117 0.87 74 16 0
2.131 1.117 0.87400001 74 16 0
2.122 1.114 0.875 72 16 0
2.119 1.114 0.87800002 73 16 0
2.1159999 1.113 0.88099998 68 16 0
2.1070001 1.11 0.88200003 76 16 0
2.102 1.108 0.884 75 16 0
2.098 1.107 0.88599998 79 16 0
2.095 1.107 0.88999999 77 16 0
2.085 1.102 0.889 77 16 0
2.0829999 1.102 0.89300001 79 16 0
2.0810001 1.101 0.89600003 85 16 0
2.076 1.099 0.898 99 16 0
2.0710001 1.097 0.89999998 85 16 0
2.069 1.096 0.903 95 16 0
2.059 1.091 0.90200001 88 19 0
2.0569999 1.09 0.90499997 89 16 0
2.0550001 1.089 0.90799999 86 16 0
2.052 1.0880001 0.91000003 89 16 0
2.0480001 1.085 0.912 82 16 0
2.0450001 1.084 0.91399997 91 16 0
2.04 1.081 0.91500002 89 16 0
2.0339999 1.077 0.91600001 88 16 0
2.0339999 1.077 0.91900003 98 16 0
2.027 1.073 0.92000002 96 16 0
2.0239999 1.0700001 0.921 101 16 0
2.0209999 1.068 0.92299998 96 16 0
2.0179999 1.066 0.92500001 97 16 0
2.017 1.064 0.92699999 98 16 0
2.0120001 1.061 0.92799997 98 16 0
2.0079999 1.058 0.92900002 92 16 0
2.003 1.054 0.93000001 91 16 0
2.003 1.053 0.93199998 94 16 0
2.003 1.051 0.935 88 16 0
1.995 1.046 0.93400002 93 19 0
1.995 1.044 0.93599999 103 16 0
1.99 1.04 0.93599999 95 16 0
1.99 1.039 0.93800002 97 16 0
1.985 1.034 0.93800002 103 16 0
1.983 1.0319999 0.94 82 16 0
1.983 1.029 0.94199997 85 16 0
1.975 1.024 0.94 91 19 0
1.975 1.022 0.94199997 84 16 0
1.979 1.021 0.94499999 93 16 0
1.979 1.0190001 0.94700003 93 16 0
1.973 1.0140001 0.94599998 100 19 0
1.97 1.01 0.94599998 101 16 0
1.969 1.007 0.94800001 110 16 0
1.964 1.002 0.94700003 107 16 0
1.9630001 0.99900001 0.94700003 102 16 0
1.9630001 0.99599999 0.949 97 16 0
1.964 0.99400002 0.94999999 112 16 0
1.9630001 0.991 0.95099998 108 16 0
1.957 0.98500001 0.949 108 19 0
1.956 0.98100001 0.94999999 101 16 0
1.954 0.977 0.94999999 108 16 0
1.957 0.97600001 0.95200002 108 16 0
1.954 0.972 0.95200002 114 16 0
1.955 0.96899998 0.95300001 101 16 0
1.956 0.96600002 0.954 109 16 0
1.954 0.96200001 0.95300001 102 16 0
1.956 0.95899999 0.95499998 118 16 0
1.954 0.95499998 0.954 107 16 0
1.951 0.94999999 0.95300001 109 16 0
1.956 0.949 0.95599997 108 16 0
1.95 0.94300002 0.95300001 113 16 0
1.951 0.93900001 0.95300001 121 16 0
1.952 0.93599999 0.954 110 16 0
1.951 0.93199998 0.95300001 122 16 0
1.952 0.92799997 0.95300001 119 16 0
1.954 0.926 0.954 125 16 0
1.954 0.921 0.954 122 16 0
1.952 0.917 0.95200002 121 16 0
1.955 0.91399997 0.95300001 125 16 0
1.956 0.91100001 0.954 118 16 0
1.9579999 0.90700001 0.954 128 16 0
1.957 0.903 0.95300001 124 16 0
1.959 0.89899999 0.95300001 130 16 0
1.9579999 0.89499998 0.95099998 121 16 0
1.964 0.89300001 0.954 134 16 0
1.962 0.88800001 0.95099998 137 16 0
1.9630001 0.884 0.95099998 123 16 0
1.961 0.87900001 0.949 135 16 0
1.9630001 0.875 0.94800001 128 16 0
1.967 0.87199998 0.949 139 16 0
1.966 0.86699998 0.94700003 111 16 0
1.969 0.86400002 0.94700003 118 16 0
1.971 0.86000001 0.94599998 122 16 0
1.97 0.85500002 0.94400001 128 16 0
1.971 0.85100001 0.94300002 119 16 0
1.971 0.84600002 0.94099998 116 16 0
1.973 0.84200001 0.94099998 126 16 0
1.983 0.84200001 0.94400001 121 16 0
1.98 0.83499998 0.94 127 16 0
1.985 0.833 0.94 115 16 0
1.983 0.82700002 0.93699998 124 16 0
1.987 0.824 0.93699998 128 16 0
1.994 0.82200003 0.93800002 136 16 0
1.9960001 0.81800002 0.93699998 132 16 0
1.9960001 0.81300002 0.935 131 16 0
2.0009999 0.81 0.93400002 138 16 0
2.003 0.80500001 0.93300003 132 16 0
2.01 0.80299997 0.93400002 131 16 0
2.0090001 0.79699999 0.93099999 121 16 0
2.0109999 0.79299998 0.92900002 122 16 0
2.0139999 0.78899997 0.92699999 113 16 0
2.02 0.78600001 0.92799997 128 16 0
2.02 0.78100002 0.92500001 127 16 0
2.023 0.77700001 0.92299998 117 16 0
2.0309999 0.77499998 0.92400002 123 16 0
2.036 0.77200001 0.92299998 120 16 0
2.0380001 0.76700002 0.921 127 16 0
2.0409999 0.76300001 0.91900003 120 16 0
2.0439999 0.759 0.917 117 16 0
2.0480001 0.755 0.91600001 117 16 0
2.049 0.75 0.91299999 123 16 0
2.0550001 0.74699998 0.912 144 16 0
2.0569999 0.74199998 0.90899998 135 16 0
2.062 0.73799998 0.90799999 143 16 0
2.072 0.736 0.90899998 139 16 0
2.0699999 0.73000002 0.90499997 148 16 0
2.0769999 0.72799999 0.90399998 128 16 0
2.0799999 0.72299999 0.90100002 128 16 0
2.0829999 0.71899998 0.89899999 130 16 0
2.0899999 0.71600002 0.898 124 16 0
2.0969999 0.713 0.898 126 16 0
2.098 0.70700002 0.89399999 122 16 0
2.1010001 0.70300001 0.89099997 130 16 0
2.1070001 0.699 0.889 131 16 0
2.109 0.69499999 0.88700002 125 16 0
2.1129999 0.69099998 0.884 122 16 0
2.1210001 0.68800002 0.88300002 143 16 0
2.1259999 0.68400002 0.88099998 144 16 0
2.1289999 0.67900002 0.87800002 139 16 0
2.138 0.67699999 0.87699997 146 16 0
2.142 0.67199999 0.875 136 16 0
2.1459999 0.66799998 0.87199998 145 16 0
2.1530001 0.66500002 0.87 148 16 0
2.1559999 0.66000003 0.86699998 140 16 0
2.1659999 0.65700001 0.866 146 16 0
2.1700001 0.653 0.86299998 150 16 0
2.1789999 0.65100002 0.86199999 148 16 0
2.1819999 0.64600003 0.85900003 141 16 0
2.1860001 0.64099997 0.85500002 144 16 0
2.1919999 0.63800001 0.85299999 138 16 0
2.197 0.63300002 0.85000002 135 16 0
2.2019999 0.62900001 0.847 140 16 0
2.2060001 0.625 0.84399998 142 16 0
2.2190001 0.62300003 0.84399998 143 16 0
2.2219999 0.61799997 0.83999997 128 16 0
2.233 0.616 0.83899999 128 16 0
2.2360001 0.611 0.83499998 121 16 0
2.247 0.60799998 0.83399999 128 16 0
2.25 0.60399997 0.82999998 124 16 0
2.2579999 0.60000002 0.82700002 123 16 0
2.263 0.59600002 0.824 120 16 0
2.266 0.59100002 0.81999999 101 16 0
2.2780001 0.58899999 0.81900001 100 16 0
2.2839999 0.58499998 0.81599998 104 16 0
2.2909999 0.58099997 0.81300002 99 16 0
2.2969999 0.57700002 0.81 103 16 0
2.3069999 0.574 0.80699998 111 16 0
2.3150001 0.56999999 0.80500001 113 16 0
2.319 0.56599998 0.80000001 114 16 0
2.3239999 0.56099999 0.79699999 106 16 0
2.3329999 0.55800003 0.79400003 113 16 0
2.3369999 0.55299997 0.79000002 118 16 0
2.3429999 0.54900002 0.78600001 114 16 0
2.352 0.546 0.78299999 107 16 0
2.3640001 0.54299998 0.78100002 101 16 0
2.3699999 0.53899997 0.778 103 16 0
2.3770001 0.53500003 0.77399999 103 16 0
2.381 0.52999997 0.76899999 85 16 0
2.392 0.52700001 0.76700002 100 16 0
2.398 0.523 0.76300001 101 16 0
2.411 0.51999998 0.76099998 97 16 0
2.4230001 0.51700002 0.759 97 16 0
2.427 0.51200002 0.75400001 92 16 0
2.4330001 0.50800002 0.74900001 94 16 0
2.4460001 0.505 0.74699998 93 16 0
2.454 0.50099999 0.74299997 90 16 0
2.4619999 0.49700001 0.74000001 79 16 0
2.4649999 0.49200001 0.73400003 93 16 0
2.4779999 0.48899999 0.73199999 72 16 0
2.4860001 0.48500001 0.72799999 85 16 0
2.497 0.48199999 0.72399998 84 16 0
2.5009999 0.477 0.71899998 72 16 0
2.516 0.47499999 0.71700001 88 16 0
2.5280001 0.47099999 0.71399999 81 16 0
2.5309999 0.46599999 0.708 80 16 0
2.5420001 0.463 0.704 73 16 0
2.5510001 0.45899999 0.69999999 87 16 0
2.5610001 0.45500001 0.69599998 78 16 0
2.5780001 0.45300001 0.69400001 76 16 0
2.5810001 0.44800001 0.68800002 75 16 0
2.5899999 0.44400001 0.68400002 51 16 0
2.6010001 0.44 0.68000001 48 16 0
2.6129999 0.43599999 0.676 51 16 0
2.619 0.43200001 0.671 58 16 0
2.6329999 0.42899999 0.667 69 16 0
2.6429999 0.42500001 0.66299999 54 16 0
2.6500001 0.41999999 0.65799999 38 16 0
2.6570001 0.41600001 0.65200001 55 16 0
2.6659999 0.412 0.64700001 45 16 0
2.681 0.40900001 0.64399999 39 16 0
2.6930001 0.405 0.63999999 38 16 0
2.701 0.40099999 0.634 46 16 0
2.7130001 0.39700001 0.63 42 16 0
2.724 0.39300001 0.625 38 16 0
2.7379999 0.389 0.62099999 39 16 0
2.7449999 0.38499999 0.61500001 37 16 0
2.756 0.38100001 0.61000001 39 16 0
2.766 0.377 0.60500002 39 16 0
2.779 0.373 0.60000002 38 16 0
2.79 0.36899999 0.59500003 38 16 0
2.802 0.36500001 0.58999997 39 16 0
2.8150001 0.361 0.58499998 39 16 0
2.8269999 0.35699999 0.57999998 37 16 0
2.8380001 0.35299999 0.57499999 36 16 0
2.8469999 0.34900001 0.56900001 37 16 0
2.8640001 0.345 0.565 38 16 0
2.878 0.34099999 0.56 36 16 0
2.888 0.33700001 0.55400002 37 16 0
2.9000001 0.333 0.54799998 36 16 0
2.915 0.329 0.54299998 35 16 0
2.924 0.324 0.537 36 16 0
2.9319999 0.31999999 0.52999997 34 16 0
2.954 0.317 0.52600002 37 16 0
2.9660001 0.31200001 0.51999998 35 16 0
2.977 0.308 0.514 35 16 0
2.9879999 0.303 0.50800002 36 16 0
3.003 0.29899999 0.50199997 35 16 0
3.0179999 0.29499999 0.49599999 35 16 0
3.0309999 0.29100001 0.49000001 36 16 0
3.046 0.287 0.484 35 16 0
3.0569999 0.28200001 0.47799999 34 16 0
3.073 0.278 0.472 35 16 0
3.0910001 0.27399999 0.46599999 33 16 0
3.105 0.27000001 0.45899999 34 16 0
3.125 0.266 0.454 35 16 0
3.138 0.26100001 0.447 31 16 0
3.1570001 0.257 0.44100001 31 16 0
3.171 0.25299999 0.43399999 33 16 0
3.1830001 0.248 0.42699999 32 16 0
3.2 0.244 0.41999999 32 16 0
3.2190001 0.23899999 0.414 33 16 0
3.23 0.235 0.40700001 31 16 0
3.2460001 0.23 0.39899999 31 16 0
3.2639999 0.226 0.39300001 33 16 0
3.2820001 0.221 0.38600001 50 16 0
3.2850001 0.21600001 0.377 150 16 0
3.286 0.20999999 0.368 141 16 0
3.2839999 0.204 0.35800001 104 16 0
3.2820001 0.198 0.34900001 117 16 0
3.2820001 0.193 0.34 117 16 0
3.283 0.18700001 0.331 121 16 0
3.279 0.182 0.32100001 132 16 0
3.283 0.176 0.31299999 132 16 0
3.279 0.17 0.303 127 16 0
3.28 0.16500001 0.294 121 16 0
3.2750001 0.15899999 0.28400001 139 16 0
3.2460001 0.153 0.273 150 19 0
3.2720001 0.148 0.266 125 16 0
3.273 0.14300001 0.257 128 16 0
3.27 0.13699999 0.24699999 134 16 0
3.2709999 0.132 0.23800001 133 16 0
3.267 0.127 0.229 126 16 0
3.2679999 0.121 0.22 142 16 0
3.267 0.116 0.20999999 141 16 0
3.2609999 0.11 0.20100001 121 16 0
3.2620001 0.105 0.192 139 16 0
3.263 0.1 0.183 143 16 0
3.26 0.094999999 0.17299999 144 16 0
3.26 0.089000002 0.164 126 16 0
3.2620001 0.083999999 0.155 131 16 0
3.2579999 0.079000004 0.146 140 16 0
3.256 0.074000001 0.13600001 147 16 0
3.253 0.068999998 0.127 56 16 0
3.2720001 0.064000003 0.118 31 16 0
3.293 0.059 0.11 28 16 0
3.3139999 0.054000001 0.101 30 16 0
3.325 0.048999999 0.092 21 16 0
3.346 0.044 0.082999997 10 16 0
3.3540001 0.039000001 0.074000001 20 16 0
3.359 0.034000002 0.064000003 45 16 0
3.3570001 0.028999999 0.055 66 16 0
3.3440001 0.024 0.045000002 32 16 0
3.3310001 0.017999999 0.035 20 16 0
3.3139999 0.013 0.026000001 17 16 0
3.302 0.0080000004 0.016000001 17 16 0
3.2869999 0.003 0.0070000002 16 16 0
3.2750001 -0.001 -0.0020000001 16 16 0
3.2620001 -0.0060000001 -0.011 16 16 0
3.247 -0.0099999998 -0.02 17 16 0
3.2279999 -0.015 -0.029999999 23 16 0
3.23 -0.02 -0.039000001 40 16 0
3.2290001 -0.025 -0.048 84 16 0
3.2219999 -0.029999999 -0.057 105 16 0
3.2219999 -0.034000002 -0.067000002 120 16 0
3.221 -0.039000001 -0.075999998 108 16 0
3.2149999 -0.044 -0.085000001 120 16 0
3.2149999 -0.048 -0.093999997 99 16 0
3.214 -0.052999999 -0.104 125 16 0
3.2130001 -0.057999998 -0.113 128 16 0
3.207 -0.061999999 -0.122 150 16 0
3.2060001 -0.067000002 -0.131 149 16 0
3.2 -0.071000002 -0.14 67 16 0
3.197 -0.075999998 -0.149 38 16 0
3.1889999 -0.079999998 -0.15800001 27 16 0
3.1689999 -0.083999999 -0.167 25 16 0
3.158 -0.088 -0.175 25 16 0
3.142 -0.092 -0.184 25 16 0
3.1289999 -0.096000001 -0.192 24 16 0
3.1159999 -0.1 -0.2 24 16 0
3.102 -0.104 -0.208 24 16 0
3.089 -0.108 -0.21699999 23 16 0
3.082 -0.112 -0.22499999 24 16 0
3.0710001 -0.116 -0.234 24 16 0
3.052 -0.119 -0.241 24 16 0
3.0469999 -0.123 -0.25 23 16 0
3.03 -0.127 -0.257 24 16 0
3.0209999 -0.131 -0.26499999 23 16 0
3.013 -0.134 -0.27399999 24 16 0
2.993 -0.13699999 -0.28099999 24 16 0
2.9879999 -0.141 -0.289 24 16 0
2.974 -0.145 -0.29699999 23 16 0
2.961 -0.148 -0.30399999 23 16 0
2.957 -0.152 -0.31200001 23 16 0
2.9460001 -0.155 -0.31999999 23 16 0
2.931 -0.15800001 -0.32699999 24 16 0
2.9230001 -0.162 -0.33500001 24 16 0
2.9100001 -0.16500001 -0.34200001 23 16 0
2.8989999 -0.168 -0.34999999 27 16 0
2.8959999 -0.171 -0.35800001 27 16 0
2.8829999 -0.17399999 -0.36500001 26 16 0
2.8710001 -0.177 -0.37200001 27 16 0
2.8559999 -0.18000001 -0.37900001 25 16 0
2.848 -0.183 -0.38600001 26 16 0
2.839 -0.186 -0.39399999 26 16 0
2.832 -0.19 -0.40099999 26 16 0
2.823 -0.193 -0.40900001 26 16 0
2.8169999 -0.19599999 -0.41600001 26 16 0
2.803 -0.198 -0.42300001 26 16 0
2.789 -0.20100001 -0.42899999 25 16 0
2.7850001 -0.204 -0.43700001 26 16 0
2.777 -0.207 -0.44400001 26 16 0
2.7679999 -0.20999999 -0.45100001 26 16 0
2.7609999 -0.212 -0.45899999 27 16 0
2.7520001 -0.215 -0.46599999 27 16 0
2.7420001 -0.21799999 -0.472 26 16 0
2.733 -0.22 -0.479 27 16 0
2.7249999 -0.223 -0.486 26 16 0
2.7179999 -0.226 -0.493 26 16 0
2.704 -0.228 -0.49900001 26 16 0
2.697 -0.23 -0.50599998 27 16 0
2.6919999 -0.233 -0.51300001 26 16 0
2.687 -0.236 -0.52100003 27 16 0
2.678 -0.23800001 -0.52700001 25 16 0
2.674 -0.241 -0.53500003 26 16 0
2.6659999 -0.243 -0.542 27 16 0
2.6559999 -0.245 -0.54799998 26 16 0
2.6489999 -0.248 -0.55500001 29 16 0
2.6389999 -0.25 -0.56099999 27 16 0
2.6300001 -0.252 -0.56699997 26 16 0
2.6240001 -0.25400001 -0.574 26 16 0
2.6170001 -0.257 -0.58099997 26 16 0
2.612 -0.259 -0.588 25 16 0
2.5999999 -0.26100001 -0.59299999 26 16 0
2.5929999 -0.26300001 -0.60000002 27 16 0
2.582 -0.26499999 -0.60600001 27 16 0
2.579 -0.26699999 -0.61299998 27 16 0
2.5699999 -0.26899999 -0.61900002 29 16 0
2.562 -0.271 -0.625 27 16 0
2.5599999 -0.273 -0.63300002 28 16 0
2.553 -0.27500001 -0.639 28 16 0
2.54 -0.27700001 -0.64399999 28 16 0
2.5380001 -0.27900001 -0.65200001 28 16 0
2.5339999 -0.28099999 -0.65899998 28 16 0
2.5190001 -0.28200001 -0.66299999 33 16 0
2.513 -0.28400001 -0.67000002 37 16 0
2.5109999 -0.28600001 -0.67699999 39 16 0
2.5039999 -0.28799999 -0.68300003 35 16 0
2.4960001 -0.28999999 -0.68900001 33 16 0
2.487 -0.29100001 -0.69499999 33 16 0
2.484 -0.29300001 -0.70200002 36 16 0
2.4809999 -0.29499999 -0.70899999 34 16 0
2.471 -0.296 -0.71399999 36 16 0
2.4679999 -0.29800001 -0.72100002 35 16 0
2.4590001 -0.30000001 -0.727 40 16 0
2.4489999 -0.301 -0.73199999 39 16 0
2.4419999 -0.30199999 -0.73799998 42 16 0
2.444 -0.30500001 -0.74599999 42 16 0
2.4400001 -0.30700001 -0.75300002 41 16 0
2.4289999 -0.30700001 -0.75800002 48 16 0
2.4260001 -0.30899999 -0.764 47 16 0
2.4159999 -0.31 -0.76899999 41 16 0
2.4130001 -0.31200001 -0.77600002 38 16 0
2.4070001 -0.31299999 -0.78200001 36 16 0
2.4059999 -0.315 -0.79000002 43 16 0
2.3940001 -0.315 -0.79400003 40 16 0
2.3889999 -0.317 -0.80000001 45 16 0
2.3870001 -0.31799999 -0.80699998 40 16 0
2.3800001 -0.31999999 -0.81300002 43 16 0
2.378 -0.32100001 -0.81999999 45 16 0
2.372 -0.322 -0.82599998 47 16 0
2.369 -0.324 -0.83200002 43 16 0
2.358 -0.324 -0.83700001 44 16 0
2.3559999 -0.32600001 -0.84299999 47 16 0
2.349 -0.32699999 -0.84899998 44 16 0
2.346 -0.32800001 -0.85600001 46 16 0
2.345 -0.329 -0.86299998 48 16 0
2.3380001 -0.33000001 -0.86799997 48 16 0
2.335 -0.331 -0.875 43 16 0
2.332 -0.333 -0.88200003 49 16 0
2.325 -0.333 -0.88700002 45 16 0
2.316 -0.333 -0.89099997 47 16 0
2.316 -0.33500001 -0.89899999 49 16 0
2.3099999 -0.336 -0.90399998 47 16 0
2.303 -0.336 -0.90899998 48 16 0
2.299 -0.33700001 -0.91500002 49 16 0
2.296 -0.338 -0.92199999 46 16 0
2.293 -0.33899999 -0.92799997 40 16 0
2.2909999 -0.34 -0.935 50 16 0
2.2869999 -0.34099999 -0.94099998 65 16 0
2.2820001 -0.34099999 -0.94700003 67 16 0
2.2809999 -0.34299999 -0.954 71 16 0
2.277 -0.34299999 -0.95999998 63 16 0
2.2650001 -0.34299999 -0.96200001 61 16 0
2.2679999 -0.34400001 -0.97100002 67 16 0
2.2650001 -0.345 -0.97799999 67 16 0
2.2620001 -0.345 -0.98400003 67 16 0
2.253 -0.345 -0.98799998 67 16 0
2.256 -0.347 -0.99599999 66 16 0
2.2479999 -0.34599999 -1 58 16 0
2.2479999 -0.34799999 -1.008 68 16 0
2.2420001 -0.34799999 -1.012 61 16 0
2.2390001 -0.34799999 -1.0190001 65 16 0
2.2349999 -0.34799999 -1.024 66 16 0
2.2320001 -0.34900001 -1.031 69 16 0
2.2290001 -0.34900001 -1.0369999 65 16 0
2.221 -0.34799999 -1.04 64 16 0
2.2219999 -0.34900001 -1.048 63 16 0
2.2219999 -0.34999999 -1.0549999 92 16 0
2.2179999 -0.34999999 -1.061 86 16 0
2.22 -0.35100001 -1.069 90 16 0
2.21 -0.34999999 -1.072 86 16 0
2.207 -0.34999999 -1.0779999 94 16 0
2.207 -0.35100001 -1.085 87 16 0
2.204 -0.35100001 -1.09 88 16 0
2.198 -0.34999999 -1.095 84 16 0
2.198 -0.34999999 -1.102 79 16 0
2.1960001 -0.34999999 -1.108 83 16 0
2.1930001 -0.34999999 -1.114 79 16 0
2.1900001 -0.34999999 -1.119 73 16 0
2.187 -0.34999999 -1.125 80 16 0
2.184 -0.34999999 -1.13 76 16 0
2.1819999 -0.34999999 -1.136 77 16 0
2.1800001 -0.34900001 -1.142 80 16 0
2.1789999 -0.34900001 -1.149 71 16 0
2.1819999 -0.34999999 -1.1569999 77 16 0
2.174 -0.34799999 -1.16 73 16 0
2.178 -0.34900001 -1.169 81 16 0
2.1730001 -0.34799999 -1.173 72 16 0
2.1700001 -0.34799999 -1.178 73 16 0
2.171 -0.34799999 -1.1849999 74 16 0
2.165 -0.347 -1.189 71 16 0
2.164 -0.34599999 -1.1950001 71 16 0
2.1670001 -0.34599999 -1.2029999 73 16 0
2.1619999 -0.345 -1.207 72 16 0
2.1619999 -0.345 -1.214 78 16 0
2.1600001 -0.34400001 -1.219 76 16 0
2.1619999 -0.34400001 -1.227 78 16 0
2.1589999 -0.34299999 -1.232 75 16 0
2.1570001 -0.34200001 -1.237 71 16 0
2.154 -0.34099999 -1.2410001 72 16 0
2.1559999 -0.34099999 -1.249 75 16 0
2.1570001 -0.34099999 -1.256 75 16 0
2.1570001 -0.34 -1.262 75 16 0
2.155 -0.33899999 -1.267 68 16 0
2.154 -0.338 -1.272 73 16 0
2.152 -0.33700001 -1.277 66 16 0
2.152 -0.336 -1.283 62 16 0
2.151 -0.33500001 -1.288 63 16 0
2.1500001 -0.33399999 -1.294 61 16 0
2.1500001 -0.333 -1.3 64 16 0
2.155 -0.333 -1.309 66 16 0
2.151 -0.331 -1.312 63 16 0
2.152 -0.33000001 -1.318 61 16 0
2.1500001 -0.32800001 -1.323 60 16 0
2.1530001 -0.32800001 -1.33 56 16 0
2.1500001 -0.32600001 -1.334 58 16 0
2.1530001 -0.32499999 -1.341 58 16 0
2.151 -0.324 -1.345 47 16 0
2.1559999 -0.32300001 -1.354 51 16 0
2.151 -0.32100001 -1.3559999 49 16 0
2.1530001 -0.31999999 -1.362 49 16 0
2.151 -0.31799999 -1.3660001 47 16 0
2.158 -0.317 -1.376 47 16 0
2.1570001 -0.31600001 -1.38 49 16 0
2.1570001 -0.31400001 -1.385 49 16 0
2.1600001 -0.31299999 -1.391 55 16 0
2.158 -0.31099999 -1.395 55 16 0
2.1630001 -0.31 -1.403 47 16 0
2.1630001 -0.308 -1.4069999 45 16 0
2.1619999 -0.30599999 -1.411 41 16 0
2.1630001 -0.30399999 -1.416 44 16 0
2.1670001 -0.303 -1.423 45 16 0
2.171 -0.301 -1.4299999 41 16 0
2.1730001 -0.30000001 -1.4349999 45 16 0
2.171 -0.29699999 -1.438 42 16 0
2.175 -0.296 -1.444 36 16 0
2.1760001 -0.294 -1.449 41 16 0
2.177 -0.292 -1.454 40 16 0
2.181 -0.28999999 -1.46 37 16 0
2.1830001 -0.28799999 -1.465 49 16 0
2.1860001 -0.28600001 -1.471 38 16 0
2.1849999 -0.28400001 -1.473 37 16 0
2.188 -0.28200001 -1.478 42 16 0
2.194 -0.28 -1.4859999 42 16 0
2.1989999 -0.278 -1.492 42 16 0
2.2 -0.27599999 -1.4960001 40 16 0
2.2019999 -0.273 -1.5 41 16 0
2.201 -0.271 -1.502 35 16 0
2.207 -0.26899999 -1.5089999 36 16 0
2.2079999 -0.266 -1.512 36 16 0
2.2130001 -0.264 -1.5190001 36 16 0
2.2149999 -0.26199999 -1.522 39 16 0
2.223 -0.25999999 -1.53 40 19 0
2.2249999 -0.25799999 -1.533 36 16 0
2.2279999 -0.255 -1.538 36 16 0
2.2279999 -0.252 -1.54 36 16 0
2.2349999 -0.25 -1.546 36 16 0
2.237 -0.24699999 -1.549 35 16 0
2.2390001 -0.245 -1.552 34 16 0
2.2409999 -0.242 -1.5549999 34 16 0
2.2550001 -0.23999999 -1.5650001 35 18 0
2.256 -0.237 -1.568 36 16 0
2.256 -0.234 -1.568 36 16 0
2.2590001 -0.23199999 -1.572 34 16 0
2.2639999 -0.229 -1.576 34 16 0
2.27 -0.226 -1.581 34 16 0
2.273 -0.22400001 -1.584 32 16 0
2.2780001 -0.221 -1.5880001 32 16 0
2.2839999 -0.21799999 -1.592 34 16 0
2.2880001 -0.215 -1.595 33 16 0
