# .PCD v0.7 - Point Cloud Data file format
VERSION 0.7
FIELDS x y z intensity tag line
SIZE 4 4 4 4 1 1
TYPE F F F F U U
COUNT 1 1 1 1 1 1
WIDTH 1371
HEIGHT 1
VIEWPOINT 0 0 0 1 0 0 0
POINTS 1371
DATA ascii
2.605 0.64700001 -0.87199998 150 16 0
2.596 0.65100002 -0.875 150 16 0
2.5899999 0.65600002 -0.87900001 150 16 0
2.5869999 0.662 -0.884 150 16 0
2.586 0.66799998 -0.88999999 150 16 0
2.5810001 0.67299998 -0.89399999 150 16 0
2.5780001 0.67900002 -0.89899999 143 16 0
2.576 0.68400002 -0.90399998 24 16 0
2.5739999 0.69099998 -0.91000003 7 16 0
2.5680001 0.69499999 -0.91399997 0 16 0
2.651 0.72399998 -0.949 0 17 0
2.6489999 0.73100001 -0.954 0 16 0
2.6300001 0.73199999 -0.95300001 0 16 0
2.619 0.736 -0.95499998 0 16 0
2.6240001 0.74400002 -0.963 0 16 0
2.605 0.745 -0.96200001 0 16 0
2.6099999 0.75300002 -0.96899998 0 16 0
2.595 0.755 -0.96899998 0 16 0
2.605 0.76499999 -0.97899997 0 16 0
2.602 0.77100003 -0.98299998 0 16 0
2.546 0.76099998 -0.96799999 0 17 0
0 0 0 0 16 0
2.572 0.78200001 -0.98799998 0 16 0
2.572 0.78899997 -0.99400002 0 16 0
2.497 0.77200001 -0.97000003 0 17 0
2.494 0.778 -0.97399998 4 16 0
2.49 0.78299999 -0.97799999 22 16 0
2.49 0.78899997 -0.98299998 96 16 0
2.4790001 0.792 -0.98299998 150 16 0
2.4779999 0.79799998 -0.98799998 150 16 0
2.473 0.80299997 -0.991 150 16 0
2.4679999 0.80800003 -0.99400002 150 16 0
2.4649999 0.81400001 -0.99800003 150 16 0
2.4590001 0.81800002 -1 150 16 0
2.454 0.82300001 -1.003 150 16 0
2.4489999 0.82800001 -1.005 150 16 0
2.4460001 0.833 -1.0089999 150 16 0
2.4419999 0.83899999 -1.011 150 16 0
2.4389999 0.84399998 -1.015 150 16 0
2.4360001 0.84899998 -1.018 150 16 0
2.4300001 0.85399997 -1.02 150 16 0
2.425 0.85799998 -1.022 150 16 0
2.424 0.86400002 -1.026 150 16 0
2.421 0.87 -1.028 150 16 0
2.418 0.875 -1.031 150 16 0
2.4119999 0.87900001 -1.033 150 16 0
2.4030001 0.88200003 -1.033 150 16 0
2.4059999 0.88999999 -1.038 150 16 0
2.401 0.89499998 -1.04 150 16 0
2.398 0.89999998 -1.043 150 16 0
2.391 0.90399998 -1.044 150 16 0
2.391 0.91000003 -1.0470001 150 16 0
2.3889999 0.91500002 -1.05 150 16 0
2.382 0.91900003 -1.051 150 16 0
2.3829999 0.92500001 -1.054 150 16 0
2.3740001 0.92799997 -1.054 150 16 0
2.369 0.93300003 -1.0549999 150 16 0
2.365 0.93699998 -1.056 150 16 0
2.3699999 0.94499999 -1.062 150 16 0
2.3710001 0.95200002 -1.066 151 16 0
2.3770001 0.95999998 -1.071 151 16 0
2.368 0.963 -1.0700001 151 16 0
2.3570001 0.96499997 -1.069 150 16 0
2.3499999 0.96700001 -1.068 150 16 0
2.3469999 0.972 -1.069 150 16 0
2.3399999 0.97500002 -1.069 150 16 0
2.3369999 0.98000002 -1.0700001 150 16 0
2.336 0.986 -1.073 150 16 0
2.332 0.99000001 -1.073 150 16 0
2.3280001 0.99400002 -1.074 150 16 0
2.325 0.99900001 -1.075 150 16 0
2.322 1.003 -1.075 150 16 0
2.3150001 1.006 -1.075 150 16 0
2.312 1.01 -1.075 150 16 0
2.3099999 1.015 -1.076 150 16 0
2.3080001 1.02 -1.077 150 16 0
2.3050001 1.024 -1.0779999 150 16 0
2.302 1.028 -1.0779999 150 16 0
2.3010001 1.033 -1.079 150 16 0
2.2980001 1.0369999 -1.08 150 16 0
2.296 1.0420001 -1.08 150 16 0
2.2939999 1.046 -1.081 150 16 0
2.2909999 1.05 -1.081 150 16 0
2.29 1.0549999 -1.082 150 16 0
2.2880001 1.059 -1.082 150 16 0
2.286 1.063 -1.082 150 16 0
2.2839999 1.067 -1.082 150 16 0
2.2850001 1.073 -1.084 150 16 0
2.28 1.076 -1.082 150 16 0
2.2780001 1.08 -1.082 150 16 0
2.276 1.084 -1.082 150 16 0
2.2739999 1.0880001 -1.082 151 16 0
2.27 1.09 -1.08 151 16 0
2.2709999 1.095 -1.081 151 16 0
2.2690001 1.099 -1.08 151 16 0
2.2690001 1.104 -1.081 151 16 0
2.2679999 1.108 -1.08 151 16 0
2.266 1.1109999 -1.079 151 16 0
2.263 1.114 -1.0779999 151 16 0
2.2620001 1.118 -1.077 150 16 0
2.26 1.1210001 -1.076 151 16 0
2.2590001 1.125 -1.075 151 16 0
2.256 1.127 -1.074 151 16 0
2.2550001 1.131 -1.073 151 16 0
2.2539999 1.1339999 -1.072 151 16 0
2.253 1.137 -1.0700001 151 16 0
2.256 1.143 -1.071 151 16 0
2.2479999 1.142 -1.067 151 16 0
2.25 1.147 -1.067 151 16 0
2.2490001 1.15 -1.0650001 151 16 0
2.2479999 1.153 -1.064 151 16 0
2.247 1.156 -1.062 151 16 0
2.25 1.16 -1.062 151 16 0
2.247 1.1619999 -1.0599999 151 16 0
2.2449999 1.164 -1.057 151 16 0
2.2449999 1.1670001 -1.0549999 151 16 0
2.244 1.17 -1.054 151 16 0
2.244 1.1720001 -1.052 151 16 0
2.2449999 1.176 -1.05 151 16 0
2.243 1.177 -1.048 151 16 0
2.243 1.1799999 -1.045 151 16 0
2.2420001 1.182 -1.043 151 16 0
2.244 1.1849999 -1.0420001 151 16 0
2.2420001 1.187 -1.039 151 16 0
2.244 1.1900001 -1.0369999 151 16 0
2.2420001 1.191 -1.034 151 16 0
2.2420001 1.193 -1.0319999 151 16 0
2.244 1.196 -1.03 151 16 0
2.244 1.198 -1.027 151 16 0
2.2449999 1.2 -1.025 151 16 0
2.244 1.201 -1.022 151 16 0
2.2449999 1.204 -1.02 151 16 0
2.243 1.204 -1.016 151 16 0
2.2449999 1.206 -1.0140001 151 16 0
2.244 1.207 -1.01 151 16 0
2.247 1.21 -1.0089999 151 16 0
2.247 1.211 -1.005 151 16 0
2.2479999 1.212 -1.002 151 16 0
2.2479999 1.2130001 -0.99900001 151 16 0
2.247 1.214 -0.995 151 16 0
2.25 1.216 -0.99299997 151 16 0
2.2509999 1.217 -0.99000001 151 16 0
2.2520001 1.2180001 -0.98699999 151 16 0
2.253 1.2180001 -0.98299998 151 16 0
2.2520001 1.2180001 -0.97899997 151 16 0
2.2550001 1.22 -0.97600001 151 16 0
2.2539999 1.22 -0.972 151 16 0
2.2550001 1.22 -0.96899998 151 16 0
2.2579999 1.222 -0.96600002 151 16 0
2.2609999 1.223 -0.963 151 16 0
2.2609999 1.223 -0.95899999 151 16 0
2.2620001 1.223 -0.95499998 151 16 0
2.2639999 1.223 -0.95099998 151 16 0
2.263 1.222 -0.94700003 150 16 0
2.267 1.224 -0.94400001 151 16 0
2.266 1.222 -0.93900001 150 16 0
2.27 1.223 -0.93599999 150 16 0
2.2709999 1.223 -0.93199998 151 16 0
2.273 1.223 -0.92900002 151 16 0
2.2720001 1.222 -0.92400002 150 16 0
2.2809999 1.225 -0.92199999 150 16 0
2.279 1.223 -0.917 150 16 0
2.28 1.222 -0.91299999 151 16 0
2.2820001 1.221 -0.90899998 150 16 0
2.2869999 1.222 -0.90600002 150 16 0
2.2939999 1.224 -0.903 129 16 0
2.3010001 1.226 -0.90100002 19 16 0
2.3 1.223 -0.89600003 4 16 0
2.312 1.228 -0.89600003 2 16 0
2.325 1.232 -0.89499998 2 16 0
2.3210001 1.228 -0.889 2 16 0
2.3239999 1.227 -0.88499999 3 16 0
2.326 1.226 -0.88 3 16 0
2.3239999 1.222 -0.87400001 4 16 0
2.325 1.22 -0.86900002 4 16 0
2.332 1.221 -0.86699998 3 16 0
2.3299999 1.217 -0.861 4 16 0
2.335 1.217 -0.85699999 4 16 0
2.339 1.216 -0.85299999 4 16 0
2.335 1.211 -0.84600002 4 16 0
2.348 1.215 -0.84500003 3 16 0
2.349 1.212 -0.83999997 3 16 0
2.3499999 1.209 -0.83499998 3 16 0
2.358 1.21 -0.833 4 16 0
2.365 1.21 -0.829 9 16 0
2.3559999 1.202 -0.82099998 23 16 0
2.3510001 1.196 -0.81300002 140 16 0
2.349 1.192 -0.80699998 150 16 0
2.3499999 1.188 -0.80199999 150 16 0
2.3559999 1.187 -0.79799998 150 16 0
2.3599999 1.186 -0.79400003 150 16 0
2.359 1.181 -0.78799999 150 16 0
2.3640001 1.1799999 -0.78399998 150 16 0
2.369 1.178 -0.77999997 150 16 0
2.3740001 1.176 -0.77600002 150 16 0
2.372 1.171 -0.76999998 150 16 0
2.378 1.17 -0.76599997 150 16 0
2.381 1.1670001 -0.76099998 150 16 0
2.3840001 1.164 -0.75599998 150 16 0
2.388 1.1619999 -0.75199997 150 16 0
2.391 1.158 -0.74699998 150 16 0
2.395 1.156 -0.74299997 150 16 0
2.3970001 1.152 -0.73799998 150 16 0
2.4000001 1.149 -0.73299998 150 16 0
2.405 1.146 -0.72799999 150 16 0
2.4100001 1.1440001 -0.72399998 150 16 0
2.4119999 1.14 -0.71899998 150 16 0
2.4219999 1.1390001 -0.71600002 150 16 0
2.425 1.135 -0.71100003 150 16 0
2.428 1.132 -0.70599997 150 16 0
2.4330001 1.1289999 -0.70200002 150 16 0
2.4349999 1.125 -0.69700003 150 16 0
2.438 1.1210001 -0.69199997 150 16 0
2.441 1.117 -0.68699998 150 16 0
2.4449999 1.113 -0.68199998 150 16 0
2.451 1.11 -0.67799997 150 16 0
2.454 1.1059999 -0.67299998 150 16 0
2.4619999 1.104 -0.67000002 150 16 0
2.4630001 1.099 -0.66399997 150 16 0
2.4660001 1.095 -0.65899998 150 16 0
2.47 1.091 -0.65399998 150 16 0
2.473 1.086 -0.64999998 150 16 0
2.483 1.085 -0.64600003 150 16 0
2.483 1.079 -0.64099997 150 16 0
2.487 1.075 -0.63599998 150 16 0
2.4860001 1.068 -0.63 150 16 0
2.4960001 1.066 -0.62699997 150 16 0
2.503 1.063 -0.62300003 150 16 0
2.503 1.057 -0.61699998 150 16 0
2.5079999 1.053 -0.61299998 150 16 0
2.5109999 1.048 -0.60799998 150 16 0
2.5139999 1.043 -0.60299999 150 16 0
2.5209999 1.04 -0.59899998 150 16 0
2.526 1.036 -0.59399998 150 16 0
2.53 1.03 -0.58899999 150 16 0
2.533 1.025 -0.58499998 150 16 0
2.5380001 1.021 -0.57999998 150 16 0
2.5409999 1.016 -0.57499999 150 16 0
2.5439999 1.01 -0.56999999 150 16 0
2.5480001 1.005 -0.56599998 150 16 0
2.552 1 -0.56099999 150 16 0
2.556 0.995 -0.55599999 150 16 0
2.559 0.98900002 -0.551 150 16 0
2.5710001 0.98799998 -0.54900002 150 16 0
2.5769999 0.98299998 -0.54400003 150 16 0
2.585 0.97899997 -0.54000002 150 16 0
2.596 0.977 -0.537 150 16 0
2.6129999 0.97600001 -0.53500003 150 16 0
2.609 0.96700001 -0.52899998 150 16 0
2.5969999 0.95599997 -0.52100003 150 16 0
2.605 0.95200002 -0.51700002 150 16 0
2.608 0.94599998 -0.51200002 150 16 0
2.6110001 0.94 -0.50700003 150 16 0
2.6159999 0.935 -0.50300002 150 16 0
2.619 0.92900002 -0.498 150 16 0
2.6270001 0.92400002 -0.49399999 150 16 0
2.6300001 0.91799998 -0.48899999 150 16 0
2.6329999 0.912 -0.48500001 150 16 0
2.645 0.90899998 -0.48199999 150 16 0
2.6500001 0.90399998 -0.477 150 16 0
2.652 0.89700001 -0.472 150 16 0
2.6559999 0.89099997 -0.46799999 150 16 0
2.6619999 0.88499999 -0.463 150 16 0
2.6689999 0.88 -0.45899999 150 16 0
2.6730001 0.87400001 -0.45500001 150 16 0
2.6760001 0.86799997 -0.44999999 150 16 0
2.6830001 0.86299998 -0.44600001 150 16 0
2.6830001 0.85500002 -0.44100001 150 16 0
2.6930001 0.85100001 -0.43700001 150 16 0
2.6949999 0.84399998 -0.43200001 150 16 0
2.701 0.838 -0.428 150 16 0
2.707 0.83200002 -0.42399999 150 16 0
2.71 0.82499999 -0.419 150 16 0
2.7179999 0.81999999 -0.41499999 150 16 0
2.7190001 0.81300002 -0.41 150 16 0
2.7249999 0.80699998 -0.40599999 150 16 0
2.7260001 0.80000001 -0.40099999 150 16 0
2.734 0.79400003 -0.39700001 150 16 0
2.7379999 0.787 -0.39300001 150 16 0
2.7520001 0.78399998 -0.38999999 150 16 0
2.75 0.77499998 -0.38499999 150 16 0
2.7639999 0.77100003 -0.382 150 16 0
2.7690001 0.76499999 -0.377 150 16 0
2.77 0.75700003 -0.37200001 150 16 0
2.7739999 0.75 -0.368 150 16 0
2.78 0.74400002 -0.36399999 150 16 0
2.783 0.73699999 -0.359 150 16 0
2.79 0.73000002 -0.35499999 150 16 0
2.7920001 0.72299999 -0.35100001 150 16 0
2.8010001 0.71700001 -0.347 150 16 0
2.806 0.70999998 -0.34299999 150 16 0
2.8180001 0.70499998 -0.33899999 150 16 0
2.8180001 0.69700003 -0.33500001 150 16 0
2.823 0.69 -0.33000001 150 16 0
2.832 0.68400002 -0.32600001 150 16 0
2.839 0.67799997 -0.322 150 16 0
2.8410001 0.67000002 -0.31799999 150 16 0
2.8429999 0.662 -0.31299999 150 16 0
2.8499999 0.65499997 -0.30899999 150 16 0
2.855 0.648 -0.30500001 150 16 0
2.862 0.64200002 -0.301 150 16 0
2.869 0.63499999 -0.29699999 150 16 0
2.8710001 0.62699997 -0.29300001 150 16 0
2.8770001 0.62 -0.289 150 16 0
2.8840001 0.61299998 -0.285 150 16 0
2.8859999 0.60500002 -0.28 150 16 0
2.895 0.59799999 -0.27599999 150 16 0
2.901 0.59100002 -0.27200001 150 16 0
2.904 0.583 -0.26800001 150 16 0
2.9130001 0.57599998 -0.264 150 16 0
2.9219999 0.56999999 -0.25999999 150 16 0
2.9260001 0.56199998 -0.25600001 150 16 0
2.9330001 0.55500001 -0.252 150 16 0
2.938 0.54699999 -0.248 150 16 0
2.9389999 0.53899997 -0.244 150 16 0
2.95 0.53200001 -0.23999999 150 16 0
2.954 0.52399999 -0.236 150 16 0
2.9579999 0.51599997 -0.23199999 150 16 0
2.9649999 0.509 -0.228 150 16 0
2.9719999 0.50099999 -0.22400001 150 16 0
2.977 0.493 -0.22 150 16 0
2.983 0.48500001 -0.21600001 150 16 0
2.987 0.477 -0.211 150 16 0
2.9920001 0.46900001 -0.207 150 16 0
3 0.46200001 -0.20299999 150 16 0
3.0090001 0.454 -0.2 150 16 0
3.0120001 0.44600001 -0.19499999 150 16 0
3.017 0.43799999 -0.191 150 16 0
3.0250001 0.43000001 -0.18700001 150 16 0
3.026 0.421 -0.183 150 16 0
3.036 0.41299999 -0.17900001 145 16 0
3.043 0.405 -0.175 150 16 0
3.05 0.39700001 -0.17200001 150 16 0
3.0550001 0.389 -0.168 143 16 0
3.0610001 0.38100001 -0.164 150 16 0
3.0639999 0.37200001 -0.15899999 147 16 0
3.069 0.36300001 -0.155 136 16 0
3.0780001 0.35499999 -0.15099999 150 16 0
3.0840001 0.347 -0.148 134 16 0
3.095 0.33899999 -0.14399999 138 16 0
3.0999999 0.331 -0.14 130 16 0
3.1029999 0.322 -0.13600001 130 16 0
3.1170001 0.31400001 -0.132 129 16 0
3.122 0.30500001 -0.12800001 120 16 0
3.1259999 0.296 -0.124 121 16 0
3.128 0.287 -0.12 108 16 0
3.142 0.27900001 -0.116 125 16 0
3.1470001 0.27000001 -0.112 114 16 0
3.154 0.26100001 -0.108 125 16 0
3.161 0.25299999 -0.104 122 16 0
3.168 0.244 -0.1 104 16 0
3.1719999 0.234 -0.096000001 113 16 0
3.1819999 0.226 -0.093000002 112 16 0
3.1860001 0.21699999 -0.089000002 106 16 0
3.1960001 0.208 -0.085000001 104 16 0
3.2079999 0.199 -0.081 105 16 0
3.2049999 0.189 -0.077 98 16 0
3.2179999 0.18000001 -0.072999999 110 16 0
3.2290001 0.171 -0.068999998 116 16 0
3.2320001 0.162 -0.064999998 109 16 0
3.2379999 0.152 -0.061000001 99 16 0
3.2460001 0.14300001 -0.057 89 16 0
3.2490001 0.133 -0.052999999 96 16 0
3.26 0.124 -0.048999999 92 16 0
3.266 0.115 -0.045000002 96 16 0
3.273 0.105 -0.041999999 89 16 0
3.277 0.094999999 -0.037999999 93 16 0
3.286 0.086000003 -0.034000002 86 16 0
3.2920001 0.075999998 -0.029999999 78 16 0
3.296 0.066 -0.026000001 61 16 0
3.306 0.056000002 -0.022 46 16 0
3.3099999 0.046999998 -0.017999999 80 16 0
3.3180001 0.037 -0.014 73 16 0
3.322 0.027000001 -0.0099999998 38 16 0
3.302 0.017000001 -0.0060000001 20 16 0
3.2820001 0.0070000002 -0.0020000001 18 16 0
3.27 -0.0020000001 0.001 18 16 0
3.2479999 -0.012 0.0040000002 29 16 0
3.2539999 -0.022 0.0080000004 145 16 0
3.2579999 -0.032000002 0.012 150 16 0
3.2650001 -0.041999999 0.016000001 150 16 0
3.2739999 -0.052000001 0.02 150 16 0
3.279 -0.061999999 0.023 150 16 0
3.276 -0.071999997 0.027000001 43 16 0
3.2490001 -0.081 0.029999999 32 16 0
3.2360001 -0.090999998 0.034000002 33 16 0
3.2149999 -0.1 0.037 30 16 0
3.194 -0.109 0.041000001 32 16 0
3.1789999 -0.118 0.044 31 16 0
3.151 -0.126 0.046999998 31 16 0
3.1370001 -0.13600001 0.050000001 31 16 0
3.1170001 -0.14399999 0.052999999 30 16 0
3.095 -0.153 0.056000002 30 16 0
3.0840001 -0.161 0.059999999 29 16 0
3.0680001 -0.17 0.063000001 32 16 0
3.0469999 -0.178 0.064999998 31 16 0
3.0350001 -0.18700001 0.068000004 31 16 0
3.003 -0.19400001 0.071000002 30 19 0
2.99 -0.20200001 0.074000001 31 16 0
2.9719999 -0.20999999 0.075999998 30 16 0
2.9579999 -0.21799999 0.079000004 30 16 0
2.9400001 -0.226 0.082000002 31 16 0
2.9230001 -0.234 0.083999999 32 16 0
2.908 -0.242 0.086999997 33 16 0
2.888 -0.249 0.089000002 31 16 0
2.8759999 -0.257 0.092 34 16 0
2.859 -0.264 0.093999997 32 16 0
2.845 -0.27200001 0.097000003 32 16 0
2.8299999 -0.27900001 0.098999999 33 16 0
2.8099999 -0.28600001 0.101 33 16 0
2.7980001 -0.29300001 0.103 34 16 0
2.7809999 -0.30000001 0.105 33 16 0
2.7709999 -0.308 0.108 34 16 0
2.7520001 -0.31400001 0.11 34 16 0
2.737 -0.32100001 0.112 33 16 0
2.73 -0.329 0.114 37 16 0
2.717 -0.336 0.116 37 16 0
2.704 -0.34200001 0.118 38 16 0
2.6900001 -0.34900001 0.12 42 16 0
2.6760001 -0.35600001 0.122 35 16 0
2.6589999 -0.36199999 0.124 39 16 0
2.648 -0.36899999 0.126 35 16 0
2.6329999 -0.375 0.12800001 40 16 0
2.6210001 -0.38100001 0.12899999 45 16 0
2.599 -0.38600001 0.131 46 16 0
2.5910001 -0.39300001 0.133 45 16 0
2.579 -0.40000001 0.134 53 16 0
2.569 -0.40599999 0.13600001 59 16 0
2.553 -0.412 0.138 66 16 0
2.539 -0.417 0.139 57 16 0
2.5250001 -0.42300001 0.141 69 16 0
2.5090001 -0.428 0.142 58 16 0
2.5 -0.435 0.14399999 60 16 0
2.493 -0.442 0.145 65 16 0
2.4760001 -0.447 0.146 71 16 0
2.4660001 -0.45300001 0.148 74 16 0
2.4549999 -0.458 0.149 71 16 0
2.4430001 -0.46399999 0.15099999 67 16 0
2.4360001 -0.47 0.152 66 16 0
2.418 -0.47499999 0.153 65 16 0
2.405 -0.47999999 0.154 68 16 0
2.392 -0.48500001 0.155 71 16 0
2.3800001 -0.49000001 0.15700001 70 16 0
2.369 -0.49599999 0.15800001 82 16 0
2.3640001 -0.50199997 0.15899999 97 16 0
2.3469999 -0.50599998 0.16 95 16 0
2.335 -0.51099998 0.161 79 16 0
2.322 -0.51599997 0.162 80 16 0
2.3150001 -0.52200001 0.163 94 16 0
2.3039999 -0.52700001 0.164 89 16 0
2.2939999 -0.53200001 0.16500001 93 16 0
2.2809999 -0.53600001 0.16599999 98 16 0
2.266 -0.54000002 0.167 79 16 0
2.2579999 -0.546 0.168 87 16 0
2.2490001 -0.551 0.169 91 16 0
2.237 -0.55500001 0.169 98 16 0
2.2290001 -0.56 0.17 87 16 0
2.2149999 -0.56400001 0.171 100 16 0
2.21 -0.56999999 0.17200001 95 16 0
2.198 -0.574 0.17200001 102 16 0
2.1889999 -0.579 0.17299999 101 16 0
2.1800001 -0.58399999 0.17399999 100 16 0
2.1700001 -0.58899999 0.175 107 16 0
2.161 -0.59299999 0.175 107 16 0
2.1459999 -0.59600002 0.176 116 16 0
2.132 -0.59899998 0.176 117 16 0
2.125 -0.60399997 0.177 118 16 0
2.118 -0.61000001 0.177 114 16 0
2.109 -0.61400002 0.178 124 16 0
2.096 -0.61699998 0.178 117 16 0
2.0869999 -0.62099999 0.17900001 150 16 0
2.072 -0.62400001 0.178 148 16 0
2.069 -0.63 0.17900001 150 16 0
2.0610001 -0.634 0.18000001 150 16 0
2.0539999 -0.639 0.18000001 148 16 0
2.04 -0.64099997 0.18000001 150 16 0
2.033 -0.64600003 0.18099999 150 16 0
2.023 -0.64899999 0.18099999 150 16 0
2.0090001 -0.65200001 0.18099999 150 16 0
2.0009999 -0.65600002 0.18099999 150 16 0
1.997 -0.66100001 0.182 150 16 0
1.989 -0.66500002 0.182 150 16 0
1.982 -0.67000002 0.182 150 16 0
1.967 -0.671 0.182 150 16 0
1.962 -0.676 0.182 150 16 0
1.956 -0.68099999 0.183 150 16 0
1.948 -0.68400002 0.183 150 16 0
1.941 -0.68800002 0.183 150 16 0
1.936 -0.69300002 0.183 150 16 0
1.9170001 -0.69300002 0.182 150 19 0
1.911 -0.69700003 0.183 150 16 0
1.906 -0.70200002 0.183 150 16 0
1.898 -0.70599997 0.183 150 16 0
1.89 -0.70899999 0.183 150 16 0
1.886 -0.71399999 0.183 150 16 0
1.88 -0.71799999 0.183 150 16 0
1.869 -0.72000003 0.183 150 16 0
1.858 -0.722 0.182 150 16 0
1.855 -0.727 0.183 150 16 0
1.846 -0.73000002 0.182 150 16 0
1.841 -0.73400003 0.182 150 16 0
1.8329999 -0.73699999 0.182 2 0 0
1.819 -0.73799998 0.18099999 150 16 0
1.814 -0.74199998 0.18099999 150 16 0
1.811 -0.74699998 0.18099999 3 0 0
1.8 -0.74800003 0.18099999 3 0 0
1.7920001 -0.75099999 0.18000001 2 0 0
1.786 -0.755 0.18000001 66 0 0
1.7819999 -0.759 0.18000001 2 0 0
1.772 -0.76099998 0.17900001 2 0 0
1.761 -0.76200002 0.178 2 0 0
1.755 -0.76599997 0.178 66 0 0
1.753 -0.77100003 0.178 105 0 0
1.743 -0.77200001 0.177 2 0 0
1.734 -0.77399999 0.177 2 0 0
1.729 -0.778 0.176 91 0 0
1.727 -0.78299999 0.176 126 0 0
1.719 -0.78399998 0.176 111 0 0
1.715 -0.78799999 0.175 125 0 0
1.709 -0.792 0.175 125 0 0
1.704 -0.79500002 0.17399999 1 0 0
1.687 -0.79299998 0.17299999 107 3 0
1.6849999 -0.79799998 0.17200001 92 0 0
1.679 -0.80000001 0.17200001 107 0 0
1.6670001 -0.80000001 0.171 128 0 0
1.664 -0.80400002 0.17 122 0 0
1.659 -0.80800003 0.17 150 0 0
1.654 -0.81 0.169 102 0 0
1.649 -0.81300002 0.168 150 0 0
1.641 -0.815 0.167 105 0 0
1.635 -0.81699997 0.16599999 139 0 0
1.628 -0.81900001 0.16599999 127 0 0
1.623 -0.82200003 0.16500001 140 0 0
1.617 -0.824 0.164 150 0 0
1.6109999 -0.82700002 0.163 118 0 0
1.61 -0.83099997 0.163 107 0 0
1.602 -0.83200002 0.161 117 0 0
1.594 -0.833 0.16 148 0 0
1.584 -0.833 0.15899999 150 0 0
1.579 -0.83600003 0.15800001 146 0 0
1.575 -0.83899999 0.15700001 113 0 0
1.572 -0.84200001 0.156 138 0 0
1.568 -0.84500003 0.156 150 0 0
1.562 -0.847 0.154 112 0 0
1.561 -0.85100001 0.154 150 0 0
1.5549999 -0.85299999 0.153 120 0 0
1.551 -0.85500002 0.152 150 0 0
1.543 -0.85600001 0.15000001 150 0 0
1.538 -0.85799998 0.149 150 0 0
1.534 -0.86000001 0.148 150 0 0
1.531 -0.86400002 0.147 138 0 0
1.524 -0.86400002 0.146 141 0 0
1.521 -0.86699998 0.145 150 0 0
1.513 -0.86699998 0.14300001 130 0 0
1.511 -0.87 0.142 117 0 0
1.503 -0.87 0.141 121 0 0
1.502 -0.87400001 0.14 146 0 0
1.499 -0.87699997 0.139 138 0 0
1.492 -0.87699997 0.13699999 145 0 0
1.489 -0.87900001 0.13600001 124 0 0
1.4809999 -0.87900001 0.134 116 0 0
1.476 -0.88 0.133 143 0 0
1.472 -0.88200003 0.132 132 0 0
1.47 -0.88499999 0.131 143 0 0
1.4630001 -0.88499999 0.12899999 150 0 0
1.461 -0.88800001 0.12800001 137 0 0
1.459 -0.89099997 0.127 150 0 0
1.455 -0.89200002 0.125 135 0 0
1.452 -0.89399999 0.124 115 0 0
1.446 -0.89399999 0.122 150 0 0
1.4450001 -0.89700001 0.121 146 0 0
1.438 -0.89700001 0.119 137 0 0
1.431 -0.89600003 0.117 150 0 0
1.429 -0.89899999 0.116 150 0 0
1.42 -0.89600003 0.114 126 0 0
1.425 -0.903 0.113 135 0 0
1.42 -0.903 0.112 108 0 0
1.4170001 -0.90499997 0.11 150 0 0
1.4119999 -0.90499997 0.109 150 0 0
1.409 -0.90700001 0.107 150 0 0
1.406 -0.90700001 0.105 144 0 0
1.4 -0.90700001 0.104 144 0 0
1.399 -0.90899998 0.102 137 0 0
1.396 -0.91100001 0.101 150 0 0
1.395 -0.91299999 0.098999999 150 0 0
1.388 -0.91100001 0.097000003 111 0 0
1.391 -0.91600001 0.096000001 150 0 0
1.386 -0.91600001 0.093999997 150 0 0
1.38 -0.91500002 0.092 140 0 0
1.381 -0.91799998 0.090999998 130 0 0
1.38 -0.92000002 0.089000002 132 0 0
1.374 -0.91900003 0.086999997 141 0 0
1.372 -0.92000002 0.086000003 142 0 0
1.37 -0.92000002 0.083999999 150 0 0
1.369 -0.92199999 0.082000002 150 0 0
1.365 -0.92199999 0.079999998 113 0 0
1.362 -0.92299998 0.079000004 129 0 0
1.3609999 -0.92400002 0.077 127 0 0
1.3609999 -0.926 0.075000003 117 0 0
1.36 -0.92699999 0.074000001 105 0 0
1.3559999 -0.92699999 0.071999997 137 0 0
1.3559999 -0.92799997 0.07 150 0 0
1.352 -0.92799997 0.068000004 142 0 0
1.351 -0.92900002 0.066 137 0 0
1.351 -0.93000001 0.064999998 150 0 0
1.35 -0.93099999 0.063000001 150 0 0
1.349 -0.93199998 0.061000001 142 0 0
1.344 -0.93000001 0.059 133 0 0
1.344 -0.93199998 0.057 129 0 0
1.346 -0.93400002 0.056000002 145 0 0
1.3430001 -0.93400002 0.054000001 117 0 0
1.341 -0.93400002 0.052000001 142 0 0
1.339 -0.93400002 0.050000001 112 0 0
1.3329999 -0.93000001 0.048 140 3 0
1.334 -0.93199998 0.046 124 0 0
1.337 -0.935 0.044 126 0 0
1.332 -0.93199998 0.041999999 139 0 0
1.329 -0.93099999 0.039999999 123 0 0
1.33 -0.93300003 0.039000001 121 0 0
1.331 -0.93400002 0.037 129 0 0
1.3279999 -0.93199998 0.035 106 0 0
1.3279999 -0.93300003 0.033 112 0 0
1.33 -0.935 0.030999999 85 0 0
1.33 -0.935 0.028999999 118 0 0
1.327 -0.93300003 0.027000001 138 0 0
1.3279999 -0.93400002 0.026000001 150 0 0
1.327 -0.93300003 0.024 135 0 0
1.327 -0.93300003 0.022 110 0 0
1.3279999 -0.93400002 0.02 137 0 0
1.3279999 -0.93400002 0.017999999 150 0 0
1.327 -0.93300003 0.016000001 105 0 0
1.327 -0.93300003 0.014 130 0 0
1.326 -0.93199998 0.012 135 0 0
1.326 -0.93099999 0.0099999998 133 0 0
1.3279999 -0.93199998 0.0089999996 142 0 0
1.3279999 -0.93199998 0.0070000002 145 0 0
1.327 -0.93000001 0.0049999999 109 0 0
1.327 -0.93000001 0.003 103 0 0
1.326 -0.92900002 0.001 150 0 0
1.329 -0.93000001 0 150 0 0
1.33 -0.92900002 -0.0020000001 116 0 0
1.325 -0.92500001 -0.003 133 3 0
1.331 -0.92799997 -0.0049999999 145 0 0
1.331 -0.92699999 -0.0070000002 150 0 0
1.332 -0.926 -0.0089999996 150 0 0
1.332 -0.926 -0.011 131 0 0
1.3329999 -0.92500001 -0.013 125 0 0
1.334 -0.92400002 -0.014 150 0 0
1.335 -0.92299998 -0.016000001 137 0 0
1.336 -0.92199999 -0.017999999 125 0 0
1.336 -0.921 -0.02 150 0 0
1.337 -0.92000002 -0.022 126 0 0
1.337 -0.91799998 -0.023 150 0 0
1.339 -0.91799998 -0.025 118 0 0
1.339 -0.91600001 -0.027000001 136 0 0
1.344 -0.917 -0.028999999 143 0 0
1.346 -0.917 -0.030999999 138 0 0
1.344 -0.91299999 -0.032000002 122 0 0
1.345 -0.912 -0.034000002 119 0 0
1.352 -0.91399997 -0.035999998 150 3 0
1.351 -0.912 -0.037 143 0 0
1.354 -0.91100001 -0.039000001 141 0 0
1.3559999 -0.91000003 -0.041000001 118 0 0
1.3559999 -0.90799999 -0.043000001 149 0 0
1.358 -0.90600002 -0.044 149 0 0
1.359 -0.90499997 -0.046 133 0 0
1.364 -0.90600002 -0.048 150 0 0
1.3660001 -0.90399998 -0.048999999 135 0 0
1.369 -0.903 -0.050999999 136 0 0
1.3710001 -0.90100002 -0.052999999 127 0 0
1.372 -0.89899999 -0.054000001 132 0 0
1.373 -0.89700001 -0.056000002 112 0 0
1.374 -0.89499998 -0.057 146 0 0
1.378 -0.89499998 -0.059 122 0 0
1.38 -0.89200002 -0.061000001 135 0 0
1.381 -0.88999999 -0.061999999 150 0 0
1.383 -0.88800001 -0.064000003 150 0 0
1.3839999 -0.88599998 -0.064999998 145 0 0
1.386 -0.884 -0.067000002 117 0 0
1.3890001 -0.88200003 -0.068000004 137 0 0
1.395 -0.88300002 -0.07 141 0 0
1.3940001 -0.87800002 -0.071000002 145 0 0
1.398 -0.87699997 -0.072999999 150 0 0
1.4 -0.875 -0.074000001 140 0 0
1.406 -0.875 -0.075999998 113 0 0
1.408 -0.87300003 -0.077 150 0 0
1.414 -0.87300003 -0.078000002 150 0 0
1.413 -0.86799997 -0.079999998 150 0 0
1.42 -0.86900002 -0.081 145 0 0
1.423 -0.86699998 -0.082999997 143 0 0
1.427 -0.866 -0.083999999 150 0 0
1.429 -0.86299998 -0.085000001 116 0 0
1.431 -0.86000001 -0.086999997 115 0 0
1.439 -0.861 -0.088 150 0 0
1.439 -0.85699999 -0.089000002 146 0 0
1.443 -0.85500002 -0.090999998 126 0 0
1.4450001 -0.852 -0.092 150 0 0
1.45 -0.85000002 -0.093000002 140 0 0
1.452 -0.847 -0.093999997 136 0 0
1.459 -0.847 -0.096000001 146 0 0
1.461 -0.84399998 -0.097000003 150 0 0
1.471 -0.84500003 -0.097999997 139 0 0
1.473 -0.84200001 -0.098999999 125 0 0
1.477 -0.83999997 -0.101 124 0 0
1.483 -0.83899999 -0.102 134 0 0
1.49 -0.838 -0.103 116 0 0
1.488 -0.833 -0.104 84 0 0
1.495 -0.83200002 -0.105 125 0 0
1.5 -0.82999998 -0.106 95 0 0
1.5039999 -0.82800001 -0.107 100 0 0
1.506 -0.824 -0.108 140 0 0
1.511 -0.82200003 -0.109 122 0 0
1.518 -0.82099998 -0.111 117 0 0
1.52 -0.81699997 -0.112 100 0 0
1.528 -0.81699997 -0.113 124 0 0
1.53 -0.81300002 -0.114 150 0 0
1.536 -0.81099999 -0.115 123 0 0
1.54 -0.80800003 -0.116 106 0 0
1.544 -0.80500001 -0.116 107 0 0
1.549 -0.80299997 -0.117 132 0 0
1.557 -0.80199999 -0.118 121 0 0
1.5599999 -0.79799998 -0.119 146 0 0
1.569 -0.79799998 -0.12 138 0 0
1.574 -0.79500002 -0.121 139 0 0
1.582 -0.79400003 -0.122 98 0 0
1.585 -0.79000002 -0.123 134 0 0
1.592 -0.78799999 -0.124 92 0 0
1.594 -0.78399998 -0.124 136 0 0
1.599 -0.78100002 -0.125 127 0 0
1.601 -0.77700001 -0.126 122 0 0
1.6059999 -0.77399999 -0.126 117 0 0
1.612 -0.77100003 -0.127 98 0 0
1.617 -0.76800001 -0.12800001 86 0 0
1.6289999 -0.76800001 -0.12899999 112 0 0
1.633 -0.76499999 -0.12899999 130 0 0
1.643 -0.764 -0.13 114 0 0
1.647 -0.75999999 -0.131 78 0 0
1.655 -0.75800002 -0.132 2 0 0
1.6569999 -0.75400001 -0.132 1 0 0
1.661 -0.75 -0.132 150 16 0
1.671 -0.74900001 -0.133 150 16 0
1.681 -0.74699998 -0.134 150 16 0
1.683 -0.74299997 -0.134 83 0 0
1.6900001 -0.74000001 -0.13500001 150 16 0
1.701 -0.73900002 -0.13600001 88 0 0
1.706 -0.73500001 -0.13600001 97 0 0
1.711 -0.73199999 -0.13699999 77 0 0
1.719 -0.72899997 -0.13699999 69 0 0
1.729 -0.72799999 -0.138 64 0 0
1.7309999 -0.72299999 -0.138 53 0 0
1.744 -0.722 -0.139 77 0 0
1.748 -0.71799999 -0.139 70 0 0
1.758 -0.71600002 -0.14 1 0 0
1.762 -0.71200001 -0.14 1 0 0
1.767 -0.708 -0.14 2 0 0
1.773 -0.704 -0.14 2 0 0
1.785 -0.70300001 -0.141 2 0 0
1.79 -0.69800001 -0.141 1 0 0
1.795 -0.69499999 -0.141 1 0 0
1.8049999 -0.69199997 -0.142 150 16 0
1.812 -0.68900001 -0.142 150 16 0
1.817 -0.68400002 -0.142 150 16 0
1.8279999 -0.68199998 -0.142 150 16 0
1.835 -0.67900002 -0.142 2 0 0
1.84 -0.67400002 -0.142 150 16 0
1.852 -0.67199999 -0.14300001 150 16 0
1.86 -0.66900003 -0.14300001 150 16 0
1.865 -0.66399997 -0.14300001 149 16 0
1.876 -0.662 -0.14300001 150 16 0
1.881 -0.65700001 -0.14300001 150 16 0
1.89 -0.65399998 -0.14300001 150 16 0
1.9 -0.65100002 -0.14300001 150 16 0
1.911 -0.648 -0.14300001 136 16 0
1.914 -0.64300001 -0.14300001 141 16 0
1.921 -0.639 -0.14300001 140 16 0
1.928 -0.634 -0.14300001 150 16 0
1.9349999 -0.63 -0.14300001 141 16 0
1.943 -0.62599999 -0.142 136 16 0
1.96 -0.625 -0.14300001 126 16 0
1.966 -0.62 -0.14300001 129 16 0
1.972 -0.616 -0.142 134 16 0
1.985 -0.61299998 -0.142 140 16 0
1.995 -0.61000001 -0.142 132 16 0
2.0020001 -0.60500002 -0.142 118 16 0
2.0090001 -0.60000002 -0.142 125 16 0
2.0209999 -0.597 -0.142 128 16 0
2.027 -0.59200001 -0.141 127 16 0
2.039 -0.58899999 -0.141 140 16 0
2.0480001 -0.58499998 -0.141 113 16 0
2.0599999 -0.58099997 -0.14 125 16 0
2.066 -0.57599998 -0.14 98 16 0
2.0810001 -0.57300001 -0.14 100 16 0
2.086 -0.56800002 -0.139 95 16 0
2.098 -0.56400001 -0.139 102 16 0
2.109 -0.56 -0.138 95 16 0
2.1170001 -0.55500001 -0.138 86 16 0
2.1289999 -0.551 -0.138 101 16 0
2.1389999 -0.54699999 -0.13699999 90 16 0
2.148 -0.542 -0.13600001 87 16 0
2.1589999 -0.537 -0.13600001 86 16 0
2.1760001 -0.53399998 -0.13600001 90 16 0
2.1830001 -0.52899998 -0.13500001 74 16 0
2.197 -0.52499998 -0.13500001 70 16 0
2.2030001 -0.51899999 -0.134 73 16 0
2.217 -0.51499999 -0.133 67 16 0
2.234 -0.51200002 -0.133 67 16 0
2.24 -0.50599998 -0.132 62 16 0
2.2460001 -0.5 -0.131 59 16 0
2.2590001 -0.495 -0.13 63 16 0
2.2750001 -0.491 -0.13 64 16 0
2.289 -0.48699999 -0.12899999 56 16 0
2.3 -0.48199999 -0.12800001 60 16 0
2.309 -0.47600001 -0.127 58 16 0
2.323 -0.47099999 -0.126 45 16 0
2.332 -0.46599999 -0.125 60 16 0
2.345 -0.461 -0.125 53 16 0
2.3599999 -0.456 -0.124 52 16 0
2.3740001 -0.45100001 -0.123 43 16 0
2.381 -0.44499999 -0.122 55 16 0
2.3929999 -0.43900001 -0.121 48 16 0
2.414 -0.435 -0.12 51 16 0
2.425 -0.42899999 -0.119 55 16 0
2.4389999 -0.42399999 -0.118 50 16 0
2.4549999 -0.419 -0.117 51 16 0
2.461 -0.412 -0.115 42 16 0
2.4749999 -0.40599999 -0.114 45 16 0
2.4890001 -0.40099999 -0.113 45 16 0
2.4990001 -0.39399999 -0.111 40 16 0
2.5179999 -0.389 -0.11 35 16 0
2.5250001 -0.382 -0.109 44 16 0
2.543 -0.377 -0.108 34 16 0
2.5539999 -0.37 -0.106 33 16 0
2.576 -0.36500001 -0.105 34 16 0
2.5869999 -0.359 -0.103 34 16 0
2.6010001 -0.352 -0.102 36 16 0
2.6210001 -0.347 -0.101 34 16 0
2.632 -0.34 -0.098999999 28 16 0
2.645 -0.333 -0.097000003 30 16 0
2.658 -0.32600001 -0.096000001 28 16 0
2.675 -0.31999999 -0.093999997 27 16 0
2.6919999 -0.31299999 -0.092 29 16 0
2.7119999 -0.30700001 -0.090999998 30 16 0
2.724 -0.30000001 -0.089000002 28 16 0
2.7349999 -0.292 -0.086999997 28 16 0
2.7520001 -0.28600001 -0.085000001 28 16 0
2.767 -0.27900001 -0.083999999 27 16 0
2.786 -0.27200001 -0.082000002 27 16 0
2.802 -0.264 -0.079999998 27 16 0
2.816 -0.257 -0.078000002 27 16 0
2.8380001 -0.25 -0.075999998 26 16 0
2.849 -0.242 -0.074000001 27 16 0
2.8670001 -0.235 -0.071999997 26 16 0
2.8889999 -0.227 -0.07 26 16 0
2.908 -0.22 -0.068000004 26 16 0
2.9219999 -0.212 -0.064999998 26 16 0
2.9460001 -0.204 -0.063000001 26 16 0
2.9619999 -0.19599999 -0.061000001 26 16 0
2.9760001 -0.18799999 -0.057999998 26 16 0
3.0020001 -0.18000001 -0.056000002 25 16 0
3.0120001 -0.171 -0.054000001 25 16 0
3.043 -0.164 -0.050999999 25 19 0
3.0650001 -0.155 -0.048999999 27 16 0
3.085 -0.147 -0.046 25 16 0
3.098 -0.138 -0.043000001 26 16 0
3.125 -0.12899999 -0.041000001 26 16 0
3.1459999 -0.12 -0.037999999 26 16 0
3.1670001 -0.111 -0.035 26 16 0
3.1900001 -0.102 -0.033 26 16 0
3.2149999 -0.093000002 -0.029999999 27 16 0
3.234 -0.083999999 -0.027000001 27 16 0
3.257 -0.074000001 -0.024 36 16 0
3.2650001 -0.064000003 -0.021 150 16 0
3.263 -0.054000001 -0.017000001 139 16 0
3.2520001 -0.044 -0.014 118 16 0
3.2509999 -0.034000002 -0.011 131 16 0
3.2490001 -0.024 -0.0080000004 116 16 0
3.2409999 -0.014 -0.0040000002 27 16 0
3.2709999 -0.0040000002 -0.001 17 16 0
3.2920001 0.0049999999 0.001 18 16 0
3.316 0.015 0.0049999999 20 16 0
3.3369999 0.026000001 0.0080000004 38 16 0
3.3280001 0.035999998 0.012 55 16 0
3.325 0.046 0.015 62 16 0
3.3280001 0.056000002 0.018999999 43 16 0
3.323 0.066 0.022 54 16 0
3.316 0.075999998 0.026000001 62 16 0
3.3150001 0.086000003 0.028999999 66 16 0
3.3139999 0.097000003 0.033 66 16 0
3.3080001 0.106 0.035999998 71 16 0
3.3039999 0.116 0.039999999 73 16 0
3.28 0.126 0.043000001 88 16 0
3.234 0.134 0.046 106 16 0
3.2279999 0.14300001 0.048999999 104 16 0
3.2190001 0.153 0.052999999 101 16 0
3.217 0.162 0.056000002 90 16 0
3.2160001 0.17200001 0.059999999 99 16 0
3.2060001 0.18099999 0.063000001 93 16 0
3.2079999 0.191 0.067000002 96 16 0
3.201 0.20100001 0.07 91 16 0
3.201 0.20999999 0.074000001 87 16 0
3.197 0.22 0.078000002 86 16 0
3.1919999 0.229 0.081 81 16 0
3.1889999 0.23899999 0.085000001 91 16 0
3.188 0.248 0.088 91 16 0
3.1819999 0.257 0.092 103 16 0
3.178 0.26699999 0.094999999 95 16 0
3.177 0.27599999 0.098999999 105 16 0
3.175 0.28600001 0.103 117 16 0
3.1719999 0.29499999 0.107 87 16 0
3.175 0.30500001 0.11 97 16 0
3.178 0.315 0.114 134 16 0
3.1849999 0.32499999 0.118 140 16 0
3.1930001 0.336 0.123 142 16 0
3.201 0.34599999 0.127 144 16 0
3.21 0.35699999 0.131 128 16 0
3.221 0.368 0.13500001 123 16 0
3.2149999 0.377 0.139 109 16 0
3.2090001 0.38600001 0.14300001 55 16 0
3.1989999 0.39500001 0.147 44 16 0
3.1930001 0.403 0.15000001 39 16 0
3.1789999 0.41100001 0.154 33 16 0
3.174 0.41999999 0.15700001 31 16 0
3.1670001 0.42899999 0.161 32 16 0
3.151 0.43599999 0.164 30 16 0
3.1500001 0.44600001 0.168 30 16 0
3.1329999 0.45300001 0.171 32 16 0
3.1259999 0.461 0.175 30 16 0
3.1129999 0.46900001 0.178 33 16 0
3.1110001 0.47799999 0.182 32 16 0
3.099 0.48500001 0.186 32 16 0
3.092 0.493 0.19 32 16 0
3.079 0.5 0.193 34 16 0
3.0680001 0.50800002 0.19599999 39 16 0
3.063 0.51599997 0.2 47 16 0
3.0580001 0.52499998 0.204 78 16 0
3.0510001 0.53299999 0.208 139 16 0
3.0469999 0.54100001 0.212 150 16 0
3.0450001 0.55000001 0.21600001 150 16 0
3.0380001 0.55800003 0.219 150 16 0
3.039 0.56699997 0.22400001 150 16 0
3.0350001 0.57499999 0.227 150 16 0
3.033 0.58399999 0.23199999 150 16 0
3.03 0.59299999 0.236 150 16 0
3.0250001 0.60100001 0.23999999 150 16 0
3.0220001 0.60900003 0.244 150 16 0
3.0220001 0.61799997 0.248 150 16 0
3.0190001 0.62699997 0.252 150 16 0
3.0139999 0.63499999 0.25600001 150 16 0
3.0139999 0.64399999 0.25999999 150 16 0
3.013 0.653 0.26499999 150 16 0
3.01 0.66100001 0.26899999 150 16 0
3.0079999 0.66900003 0.273 150 16 0
3.0050001 0.67799997 0.27700001 150 16 0
3.003 0.68599999 0.28200001 150 16 0
2.9979999 0.69400001 0.28600001 150 16 0
2.9949999 0.70300001 0.28999999 150 16 0
2.993 0.71100003 0.29499999 150 16 0
2.9909999 0.71899998 0.29899999 150 16 0
2.9909999 0.72799999 0.303 150 16 0
2.9860001 0.736 0.308 150 16 0
2.983 0.74400002 0.31200001 150 16 0
2.9809999 0.75199997 0.31600001 150 16 0
2.9820001 0.76099998 0.32100001 150 16 0
2.9760001 0.76899999 0.32499999 150 16 0
2.9760001 0.77700001 0.33000001 150 16 0
2.97 0.78500003 0.33399999 150 16 0
2.971 0.79400003 0.33899999 150 16 0
2.9690001 0.80199999 0.34299999 150 16 0
2.9679999 0.81 0.34799999 150 16 0
2.961 0.81699997 0.352 150 16 0
2.96 0.82599998 0.35699999 150 16 0
2.9579999 0.83399999 0.36199999 150 16 0
2.9530001 0.84100002 0.366 150 16 0
2.9549999 0.85100001 0.37099999 150 16 0
2.9460001 0.85600001 0.375 150 16 0
2.9460001 0.86500001 0.38 150 16 0
2.9460001 0.87400001 0.38499999 150 16 0
2.944 0.88200003 0.389 150 16 0
2.9449999 0.89099997 0.39500001 150 16 0
2.938 0.89700001 0.39899999 150 16 0
2.9389999 0.90600002 0.40400001 150 16 0
2.9449999 0.917 0.41 150 16 0
2.9460001 0.92500001 0.41499999 150 16 0
2.9300001 0.92900002 0.41800001 150 16 0
2.9360001 0.93900001 0.42399999 150 16 0
2.9330001 0.94700003 0.42899999 150 16 0
2.9319999 0.95499998 0.43399999 150 16 0
2.931 0.963 0.43900001 150 16 0
2.927 0.97000003 0.44400001 150 16 0
2.925 0.97799999 0.449 150 16 0
2.921 0.98500001 0.454 150 16 0
2.9170001 0.99199998 0.458 150 16 0
2.9200001 1.002 0.46399999 150 16 0
2.9200001 1.01 0.47 150 16 0
2.9170001 1.017 0.47499999 150 16 0
2.9130001 1.024 0.47999999 150 16 0
2.918 1.034 0.486 150 16 0
2.9070001 1.039 0.48899999 150 16 0
2.914 1.049 0.49599999 150 16 0
2.9089999 1.056 0.50099999 150 16 0
2.9070001 1.063 0.50599998 150 16 0
2.9030001 1.0700001 0.51099998 150 16 0
2.9030001 1.0779999 0.51700002 150 16 0
2.901 1.086 0.52200001 150 16 0
2.8989999 1.0930001 0.52700001 150 16 0
2.895 1.1 0.53200001 150 16 0
2.891 1.1059999 0.537 150 16 0
2.8870001 1.113 0.542 79 16 0
2.8800001 1.118 0.54699999 43 16 0
2.8659999 1.12 0.55000001 39 16 0
2.8570001 1.125 0.55400002 38 16 0
2.845 1.127 0.55699998 38 16 0
2.8380001 1.133 0.56199998 37 16 0
2.829 1.137 0.565 37 16 0
2.8199999 1.14 0.56900001 39 16 0
2.8110001 1.1440001 0.57300001 39 16 0
2.803 1.149 0.57800001 40 16 0
2.793 1.152 0.58099997 41 16 0
2.783 1.155 0.58499998 40 16 0
2.7679999 1.1569999 0.588 41 16 0
2.7609999 1.161 0.59200001 41 16 0
2.7550001 1.166 0.597 41 16 0
2.7449999 1.169 0.60000002 41 16 0
2.7360001 1.1720001 0.60399997 43 16 0
2.7260001 1.175 0.60799998 43 16 0
2.707 1.173 0.60900003 42 16 0
2.71 1.181 0.61500001 42 16 0
2.704 1.186 0.62 42 16 0
2.687 1.1849999 0.62199998 40 16 0
2.6819999 1.1900001 0.62699997 42 16 0
2.6719999 1.192 0.63 41 16 0
2.661 1.194 0.63300002 41 16 0
2.655 1.197 0.63800001 42 16 0
2.648 1.201 0.64200002 42 16 0
2.6389999 1.2029999 0.64600003 41 16 0
2.6289999 1.205 0.64899999 40 16 0
2.6210001 1.2079999 0.653 43 16 0
2.6129999 1.21 0.65700001 40 16 0
2.605 1.2130001 0.66000003 40 16 0
2.596 1.215 0.66399997 42 16 0
2.585 1.216 0.667 41 16 0
2.5780001 1.2180001 0.671 42 16 0
2.5699999 1.221 0.67500001 41 16 0
2.5610001 1.222 0.67799997 41 16 0
2.5539999 1.224 0.68199998 43 16 0
2.5450001 1.226 0.68599999 43 16 0
2.536 1.227 0.68900001 41 16 0
2.53 1.23 0.69300002 42 16 0
2.5220001 1.232 0.69700003 42 16 0
2.5090001 1.23 0.699 38 16 0
2.5050001 1.234 0.70300001 41 16 0
2.4949999 1.234 0.70599997 39 16 0
2.4849999 1.235 0.70899999 40 16 0
2.4790001 1.2359999 0.713 39 16 0
2.473 1.239 0.71700001 40 16 0
2.467 1.2410001 0.72100002 39 16 0
2.461 1.242 0.72500002 38 16 0
2.45 1.242 0.727 38 16 0
2.437 1.24 0.72899997 38 16 0
2.434 1.243 0.73400003 38 16 0
2.425 1.243 0.736 39 16 0
2.418 1.244 0.74000001 37 16 0
2.4130001 1.245 0.74400002 38 16 0
2.405 1.2460001 0.74699998 38 16 0
2.395 1.245 0.75 41 16 0
2.3900001 1.2460001 0.75300002 42 16 0
2.3829999 1.247 0.75700003 45 16 0
2.375 1.2460001 0.75999999 47 16 0
2.3699999 1.248 0.764 46 16 0
2.3610001 1.247 0.76599997 47 16 0
2.355 1.248 0.76899999 43 16 0
2.346 1.2460001 0.77200001 44 16 0
2.3369999 1.245 0.77399999 48 16 0
2.3310001 1.245 0.778 47 16 0
2.326 1.2460001 0.78100002 46 16 0
2.3210001 1.247 0.78500003 53 16 0
2.316 1.247 0.78799999 46 16 0
2.3110001 1.248 0.792 53 16 0
2.3050001 1.248 0.79500002 52 16 0
2.299 1.247 0.79799998 55 16 0
2.2939999 1.247 0.801 54 16 0
2.2880001 1.247 0.80400002 58 16 0
2.2780001 1.244 0.80500001 45 16 0
2.273 1.244 0.80900002 45 16 0
2.267 1.243 0.81099999 52 16 0
2.2590001 1.2410001 0.81300002 57 16 0
2.253 1.24 0.81599998 57 16 0
2.2509999 1.2410001 0.81999999 65 16 0
2.2449999 1.239 0.82300001 59 16 0
2.24 1.239 0.82599998 57 16 0
2.2349999 1.238 0.829 56 16 0
2.2179999 1.23 0.82700002 63 18 0
2.221 1.233 0.833 69 16 0
2.2119999 1.23 0.83399999 69 16 0
2.207 1.229 0.83600003 66 16 0
2.2049999 1.229 0.83999997 66 16 0
2.1960001 1.226 0.84100002 65 16 0
2.1919999 1.225 0.84399998 59 16 0
2.1849999 1.222 0.84500003 64 16 0
2.181 1.221 0.84799999 65 16 0
2.174 1.217 0.84899998 63 16 0
2.1719999 1.217 0.85299999 63 16 0
2.164 1.214 0.85399997 67 16 0
2.1630001 1.214 0.85699999 70 16 0
2.158 1.211 0.85900003 72 16 0
2.154 1.209 0.86199999 72 16 0
2.148 1.206 0.86299998 69 16 0
2.1429999 1.204 0.86500001 65 16 0
2.1370001 1.201 0.866 65 16 0
2.1359999 1.2 0.87 56 16 0
2.1289999 1.196 0.87 33 16 0
2.1259999 1.194 0.87300003 26 16 0
2.1229999 1.192 0.875 23 16 0
2.118 1.189 0.87599999 20 16 0
2.1129999 1.186 0.87699997 19 16 0
2.109 1.183 0.87900001 19 16 0
2.1040001 1.1799999 0.88 19 16 0
2.1059999 1.1799999 0.884 21 16 0
2.102 1.177 0.88499999 24 16 0
2.099 1.174 0.88700002 30 16 0
2.0929999 1.17 0.88800001 42 16 0
2.0880001 1.166 0.88800001 53 16 0
2.0840001 1.163 0.88999999 66 16 0
2.082 1.161 0.89099997 90 16 0
2.0810001 1.159 0.89399999 92 16 0
2.079 1.156 0.89499998 95 16 0
2.0769999 1.153 0.89700001 92 16 0
2.073 1.15 0.898 88 16 0
2.0710001 1.147 0.89899999 86 16 0
2.0710001 1.145 0.90100002 87 16 0
2.069 1.142 0.903 88 16 0
2.0610001 1.135 0.90200001 88 19 0
2.063 1.1339999 0.90399998 100 16 0
2.0599999 1.131 0.90499997 94 16 0
2.056 1.126 0.90499997 99 16 0
2.056 1.124 0.90700001 101 16 0
2.0539999 1.12 0.90799999 96 16 0
2.049 1.115 0.90799999 97 16 0
2.05 1.113 0.90899998 97 16 0
2.046 1.108 0.90899998 95 16 0
2.0469999 1.1059999 0.91100001 102 16 0
2.046 1.103 0.912 104 16 0
2.0450001 1.099 0.91299999 108 16 0
2.0450001 1.096 0.91399997 105 16 0
2.0439999 1.092 0.91500002 104 16 0
2.0439999 1.09 0.91600001 107 16 0
2.0420001 1.085 0.91600001 107 16 0
2.039 1.08 0.91600001 104 16 0
2.036 1.075 0.91500002 107 16 0
2.0369999 1.072 0.91600001 107 16 0
2.0369999 1.069 0.917 111 16 0
2.0350001 1.064 0.917 107 16 0
2.0380001 1.062 0.91900003 111 16 0
2.0350001 1.057 0.91799998 112 16 0
2.0350001 1.053 0.91799998 115 16 0
2.0369999 1.05 0.91900003 113 16 0
2.0350001 1.045 0.91900003 107 16 0
2.0369999 1.043 0.92000002 105 16 0
2.033 1.0369999 0.91799998 85 16 0
2.0339999 1.033 0.91799998 94 16 0
2.0350001 1.03 0.91900003 88 16 0
2.0369999 1.026 0.91900003 89 16 0
2.0339999 1.021 0.91799998 94 16 0
2.033 1.016 0.917 99 16 0
2.0380001 1.013 0.91900003 101 16 0
2.0369999 1.0089999 0.91799998 101 16 0
2.0380001 1.005 0.91799998 105 16 0
2.039 1.001 0.91799998 105 16 0
2.0369999 0.995 0.91600001 112 16 0
2.0380001 0.991 0.91600001 101 16 0
2.04 0.98699999 0.91600001 101 16 0
2.0420001 0.98299998 0.91600001 104 16 0
2.0439999 0.98000002 0.91600001 103 16 0
2.0450001 0.97600001 0.91500002 116 16 0
2.043 0.97000003 0.91299999 107 16 0
2.0420001 0.96399999 0.912 107 16 0
2.0469999 0.96200001 0.91299999 105 16 0
2.0539999 0.95999998 0.91399997 115 16 0
2.053 0.954 0.91299999 105 16 0
2.0539999 0.94999999 0.91100001 109 16 0
2.052 0.94400001 0.90899998 118 16 0
2.0550001 0.94 0.90899998 110 16 0
2.0569999 0.93599999 0.90799999 113 16 0
2.0610001 0.93199998 0.90799999 125 16 0
2.0610001 0.92699999 0.90600002 122 16 0
2.0650001 0.92400002 0.90600002 125 16 0
2.0639999 0.91799998 0.90399998 118 16 0
2.0680001 0.91399997 0.90399998 120 16 0
2.0710001 0.91000003 0.90200001 122 16 0
2.073 0.90600002 0.90100002 124 16 0
2.075 0.90100002 0.89999998 115 16 0
2.0799999 0.898 0.89999998 121 16 0
2.0810001 0.89300001 0.898 119 16 0
2.0840001 0.889 0.89700001 131 16 0
2.0869999 0.884 0.89600003 125 16 0
2.0899999 0.88 0.89499998 132 16 0
2.092 0.875 0.89300001 122 16 0
2.095 0.87099999 0.89200002 130 16 0
2.105 0.86900002 0.89300001 130 16 0
2.105 0.86400002 0.88999999 125 16 0
2.1029999 0.85699999 0.88700002 135 16 0
2.1059999 0.85299999 0.88499999 137 16 0
2.1129999 0.85000002 0.88499999 124 16 0
2.1199999 0.847 0.88499999 115 16 0
2.1229999 0.84299999 0.88300002 123 16 0
2.125 0.83700001 0.88099998 116 16 0
2.128 0.833 0.87900001 126 16 0
2.132 0.82800001 0.87699997 114 16 0
2.1329999 0.82300001 0.875 112 16 0
2.138 0.81900001 0.87300003 116 16 0
2.148 0.81699997 0.87400001 119 16 0
2.148 0.81099999 0.87 121 16 0
2.154 0.80800003 0.86900002 117 16 0
2.1589999 0.80299997 0.86799997 118 16 0
2.161 0.79900002 0.86500001 115 16 0
2.171 0.796 0.86500001 120 16 0
2.1760001 0.792 0.86400002 122 16 0
2.177 0.78600001 0.86000001 115 16 0
2.181 0.78200001 0.85799998 124 16 0
2.1860001 0.778 0.85600001 123 16 0
2.191 0.773 0.85399997 119 16 0
2.198 0.76999998 0.85299999 119 16 0
2.2019999 0.76499999 0.85100001 125 16 0
2.2049999 0.75999999 0.84799999 121 16 0
2.214 0.75700003 0.847 124 16 0
2.2190001 0.75300002 0.84500003 138 16 0
2.221 0.74800003 0.84200001 123 16 0
2.227 0.74400002 0.83899999 121 16 0
2.2309999 0.73900002 0.83600003 134 16 0
2.2349999 0.73400003 0.83399999 114 16 0
2.2420001 0.73000002 0.83200002 119 16 0
2.247 0.72600001 0.82999998 118 16 0
2.25 0.72100002 0.82599998 120 16 0
2.2590001 0.71799999 0.82499999 115 16 0
2.2639999 0.713 0.82200003 120 16 0
2.2679999 0.708 0.81900001 117 16 0
2.2750001 0.704 0.81699997 126 16 0
2.286 0.70200002 0.81599998 120 16 0
2.2850001 0.69499999 0.81099999 123 16 0
2.293 0.69199997 0.80900002 122 16 0
2.296 0.68699998 0.80500001 115 16 0
2.3080001 0.68400002 0.80500001 126 16 0
2.3110001 0.67900002 0.801 114 16 0
2.319 0.67500001 0.79900002 120 16 0
2.3239999 0.67000002 0.79500002 115 16 0
2.3310001 0.66600001 0.79299998 114 16 0
2.339 0.662 0.79000002 118 16 0
2.342 0.65700001 0.78600001 97 16 0
2.352 0.65399998 0.78500003 52 16 0
2.3559999 0.64899999 0.78100002 12 16 0
2.362 0.64399999 0.778 2 16 0
2.418 0.653 0.79000002 0 17 0
2.4130001 0.64600003 0.78399998 1 16 0
2.421 0.64200002 0.78100002 2 16 0
2.427 0.63700002 0.77700001 6 16 0
2.415 0.62800002 0.76800001 21 16 0
2.4119999 0.62099999 0.76099998 54 16 0
2.415 0.61500001 0.75700003 52 16 0
2.4219999 0.611 0.75400001 72 16 0
2.431 0.60699999 0.75099999 84 16 0
2.4400001 0.60299999 0.74800003 87 16 0
2.4449999 0.59899998 0.74400002 90 16 0
2.4519999 0.59399998 0.74000001 78 16 0
2.4590001 0.58999997 0.73699999 86 16 0
2.47 0.58600003 0.73400003 95 16 0
2.4749999 0.58099997 0.73000002 82 16 0
2.4860001 0.57800001 0.727 86 16 0
2.494 0.57300001 0.72399998 88 16 0
2.503 0.56900001 0.72000003 88 16 0
2.51 0.565 0.71600002 84 16 0
2.5179999 0.56 0.713 85 16 0
2.52 0.55500001 0.70700002 74 16 0
2.533 0.551 0.70499998 82 16 0
2.546 0.54799998 0.70200002 84 16 0
2.559 0.54500002 0.69999999 74 16 0
2.566 0.54000002 0.69499999 81 16 0
2.575 0.53600001 0.69199997 67 16 0
2.5799999 0.53100002 0.68699998 71 16 0
2.5910001 0.52700001 0.68300003 66 16 0
2.598 0.52200001 0.67900002 65 16 0
2.608 0.51800001 0.67500001 64 16 0
2.6170001 0.514 0.671 76 16 0
2.6240001 0.509 0.66600001 66 16 0
2.632 0.50400001 0.662 63 16 0
2.641 0.5 0.65799999 67 16 0
2.6570001 0.49700001 0.65499997 64 16 0
2.6600001 0.491 0.64899999 59 16 0
2.6719999 0.48699999 0.64499998 59 16 0
2.681 0.48300001 0.64099997 59 16 0
2.688 0.47799999 0.63599998 52 16 0
2.7 0.47400001 0.63200003 51 16 0
2.714 0.47 0.62900001 53 16 0
2.723 0.46599999 0.62400001 50 16 0
2.7320001 0.461 0.61900002 38 16 0
2.74 0.456 0.61400002 38 16 0
2.7490001 0.45100001 0.60900003 40 16 0
2.7650001 0.44800001 0.60600001 39 16 0
2.7750001 0.44299999 0.60100001 38 16 0
2.789 0.44 0.597 38 16 0
2.7950001 0.43399999 0.59100002 38 16 0
2.806 0.43000001 0.58600003 38 16 0
2.8180001 0.42500001 0.58200002 35 16 0
2.8310001 0.421 0.57700002 35 16 0
2.845 0.417 0.57300001 36 16 0
2.8559999 0.41299999 0.56800002 38 16 0
2.865 0.40799999 0.56199998 35 16 0
2.8800001 0.40400001 0.55800003 37 16 0
2.892 0.39899999 0.55299997 35 16 0
2.905 0.39500001 0.54799998 35 16 0
2.915 0.38999999 0.542 35 16 0
2.9230001 0.38499999 0.53600001 34 16 0
2.9389999 0.38100001 0.53200001 33 16 0
2.9530001 0.37599999 0.52700001 34 16 0
2.9619999 0.37099999 0.52100003 34 16 0
2.9760001 0.36700001 0.51499999 35 16 0
2.994 0.36300001 0.51099998 36 16 0
2.9990001 0.35699999 0.50400001 34 16 0
3.017 0.35299999 0.49900001 34 16 0
3.0339999 0.34900001 0.49399999 35 16 0
3.039 0.34299999 0.48699999 33 16 0
3.056 0.338 0.48199999 33 16 0
3.069 0.33399999 0.47600001 33 16 0
3.0840001 0.329 0.47099999 34 16 0
3.099 0.324 0.465 34 16 0
3.1140001 0.31999999 0.45899999 35 16 0
3.1270001 0.315 0.45300001 34 16 0
3.142 0.31 0.447 35 16 0
3.1530001 0.30500001 0.44 34 16 0
3.171 0.30000001 0.43399999 36 16 0
3.1819999 0.29499999 0.42699999 37 16 0
3.1930001 0.289 0.41999999 36 16 0
3.2160001 0.285 0.41499999 36 16 0
3.2279999 0.28 0.40799999 35 16 0
3.2409999 0.27399999 0.40099999 35 16 0
3.2550001 0.26899999 0.39399999 53 16 0
3.266 0.264 0.38699999 142 16 0
3.267 0.257 0.37799999 150 16 0
3.267 0.25099999 0.37 150 16 0
3.2679999 0.245 0.361 140 16 0
3.2690001 0.23800001 0.35299999 117 16 0
3.266 0.23199999 0.34400001 126 16 0
3.263 0.226 0.33500001 112 16 0
3.263 0.219 0.32600001 133 16 0
3.26 0.213 0.31799999 138 16 0
3.2650001 0.207 0.30899999 136 16 0
3.2579999 0.2 0.30000001 132 16 0
3.2590001 0.19400001 0.29100001 137 16 0
3.26 0.18799999 0.28299999 132 16 0
3.2509999 0.182 0.273 140 16 0
3.1359999 0.169 0.255 150 17 0
3.0150001 0.15700001 0.237 57 18 0
3.052 0.153 0.23199999 75 16 0
3.1570001 0.153 0.23199999 150 16 0
3.2579999 0.152 0.23 119 16 0
3.256 0.145 0.222 135 16 0
3.257 0.139 0.213 127 16 0
3.257 0.134 0.204 137 16 0
3.257 0.12800001 0.19499999 119 16 0
3.256 0.122 0.18700001 134 16 0
3.253 0.115 0.178 138 16 0
3.253 0.11 0.169 120 16 0
3.253 0.104 0.16 133 16 0
3.253 0.097999997 0.15099999 146 16 0
3.2539999 0.092 0.14300001 150 16 0
3.2539999 0.086000003 0.134 115 16 0
3.2579999 0.079999998 0.125 40 16 0
3.279 0.075000003 0.117 29 16 0
3.2980001 0.07 0.109 28 16 0
3.3199999 0.064000003 0.101 30 16 0
3.3269999 0.057999998 0.092 23 16 0
3.3069999 0.052000001 0.082000002 13 16 0
