# .PCD v0.7 - Point Cloud Data file format
VERSION 0.7
FIELDS x y z intensity tag line
SIZE 4 4 4 4 1 1
TYPE F F F F U U
COUNT 1 1 1 1 1 1
WIDTH 1363
HEIGHT 1
VIEWPOINT 0 0 0 1 0 0 0
POINTS 1363
DATA ascii
2.9460001 0.28600001 -0.537 84 16 0
2.9389999 0.28999999 -0.54400003 115 16 0
2.934 0.29499999 -0.551 110 16 0
2.931 0.30000001 -0.55900002 114 16 0
2.927 0.30399999 -0.56599998 123 16 0
2.918 0.30899999 -0.57300001 130 16 0
2.9170001 0.31400001 -0.58099997 129 16 0
2.9000001 0.317 -0.58600003 125 16 0
2.8959999 0.322 -0.59299999 117 16 0
2.8940001 0.32699999 -0.60100001 117 16 0
2.888 0.331 -0.60799998 117 16 0
2.8829999 0.336 -0.61500001 124 16 0
2.8770001 0.34099999 -0.62099999 115 16 0
2.8710001 0.345 -0.62800002 116 16 0
2.865 0.34999999 -0.63499999 124 16 0
2.865 0.35499999 -0.64300001 145 16 0
2.8540001 0.359 -0.648 134 16 0
2.852 0.36399999 -0.65600002 150 16 0
2.8399999 0.368 -0.66100001 118 16 0
2.836 0.37200001 -0.66799998 120 16 0
2.8329999 0.377 -0.67500001 121 16 0
2.8269999 0.382 -0.68199998 127 16 0
2.823 0.38699999 -0.68800002 128 16 0
2.8169999 0.391 -0.69499999 126 16 0
2.8110001 0.396 -0.70099998 146 16 0
2.8039999 0.40000001 -0.70700002 150 16 0
2.8010001 0.405 -0.71399999 149 16 0
2.796 0.41 -0.72000003 126 16 0
2.79 0.414 -0.727 146 16 0
2.783 0.419 -0.73299998 133 16 0
2.783 0.42500001 -0.74000001 136 16 0
2.773 0.428 -0.745 137 16 0
2.766 0.433 -0.75099999 141 16 0
2.7679999 0.43900001 -0.759 150 16 0
2.756 0.442 -0.76300001 139 16 0
2.753 0.447 -0.76999998 140 16 0
2.743 0.45100001 -0.77399999 150 16 0
2.733 0.45500001 -0.77899998 150 16 0
2.737 0.461 -0.78799999 150 16 0
2.7320001 0.46599999 -0.79400003 148 16 0
2.7249999 0.47 -0.79900002 150 16 0
2.721 0.47499999 -0.80500001 150 16 0
2.7179999 0.48100001 -0.81199998 150 16 0
2.711 0.48500001 -0.81699997 150 16 0
2.7030001 0.48899999 -0.82200003 150 16 0
2.704 0.495 -0.829 150 16 0
2.6960001 0.49900001 -0.83399999 150 16 0
2.6889999 0.50400001 -0.83899999 150 16 0
2.6860001 0.509 -0.84500003 150 16 0
2.681 0.51300001 -0.85100001 150 16 0
2.6719999 0.51700002 -0.85500002 150 16 0
2.6719999 0.523 -0.86199999 150 16 0
2.6670001 0.528 -0.86799997 150 16 0
2.658 0.53200001 -0.87199998 150 16 0
2.658 0.53799999 -0.87800002 150 16 0
2.652 0.542 -0.88300002 150 16 0
2.6459999 0.54699999 -0.88800001 150 16 0
2.638 0.551 -0.89300001 150 16 0
2.6370001 0.55699998 -0.89899999 150 16 0
2.6329999 0.56199998 -0.90499997 150 16 0
2.6329999 0.56699997 -0.91100001 150 16 0
2.6259999 0.57200003 -0.91600001 150 16 0
2.6229999 0.57700002 -0.921 33 16 0
2.6199999 0.58200002 -0.92699999 9 16 0
2.6300001 0.58999997 -0.93699998 0 16 0
0 0 0 0 16 0
0 0 0 0 16 0
0 0 0 0 16 0
2.665 0.62300003 -0.977 0 16 0
2.6459999 0.62400001 -0.97600001 0 16 0
0 0 0 0 16 0
0 0 0 0 16 0
0 0 0 0 16 0
0 0 0 0 16 0
2.6340001 0.65200001 -1.0039999 0 16 0
2.6400001 0.66000003 -1.013 0 16 0
2.6240001 0.662 -1.013 0 16 0
2.5610001 0.65200001 -0.995 0 17 0
2.5510001 0.65600002 -0.99699998 6 16 0
2.5480001 0.66100001 -1.002 29 16 0
2.54 0.66500002 -1.005 150 16 0
2.5369999 0.671 -1.01 150 16 0
2.5320001 0.67500001 -1.0140001 150 16 0
2.5209999 0.67799997 -1.015 150 16 0
2.52 0.68400002 -1.021 150 16 0
2.5090001 0.68699998 -1.022 150 16 0
2.503 0.69199997 -1.026 150 16 0
2.5 0.69700003 -1.03 150 16 0
2.4949999 0.70200002 -1.034 150 16 0
2.4909999 0.70700002 -1.0369999 150 16 0
2.4890001 0.71200001 -1.0420001 150 16 0
2.4849999 0.71700001 -1.046 150 16 0
2.4820001 0.722 -1.05 150 16 0
2.4760001 0.727 -1.053 150 16 0
2.473 0.73199999 -1.057 150 16 0
2.467 0.736 -1.0599999 150 16 0
2.464 0.741 -1.064 150 16 0
2.461 0.74699998 -1.068 150 16 0
2.457 0.75199997 -1.071 150 16 0
2.454 0.75700003 -1.075 150 16 0
2.448 0.76099998 -1.0779999 150 16 0
2.4460001 0.76700002 -1.082 150 16 0
2.4430001 0.77200001 -1.085 150 16 0
2.4389999 0.77600002 -1.0880001 150 16 0
2.4360001 0.78200001 -1.092 150 16 0
2.4300001 0.78600001 -1.094 150 16 0
2.4289999 0.79100001 -1.098 150 16 0
2.4200001 0.79500002 -1.099 150 16 0
2.418 0.80000001 -1.102 150 16 0
2.414 0.80500001 -1.105 150 16 0
2.411 0.81 -1.108 150 16 0
2.4089999 0.815 -1.1109999 150 16 0
2.4059999 0.81999999 -1.114 150 16 0
2.402 0.82499999 -1.117 150 16 0
2.3989999 0.82999998 -1.119 150 16 0
2.3940001 0.83399999 -1.1210001 150 16 0
2.3900001 0.83899999 -1.124 150 16 0
2.3870001 0.84399998 -1.126 150 16 0
2.382 0.84799999 -1.128 150 16 0
2.381 0.85399997 -1.131 150 16 0
2.378 0.85900003 -1.1339999 150 16 0
2.3759999 0.86400002 -1.136 150 16 0
2.3729999 0.86799997 -1.138 150 16 0
2.3699999 0.87300003 -1.14 150 16 0
2.362 0.87599999 -1.14 150 16 0
2.362 0.88200003 -1.143 150 16 0
2.3559999 0.88599998 -1.1440001 150 16 0
2.355 0.89099997 -1.147 150 16 0
2.3510001 0.89499998 -1.148 150 16 0
2.348 0.89999998 -1.15 150 16 0
2.346 0.90499997 -1.152 150 16 0
2.342 0.90899998 -1.153 150 16 0
2.3399999 0.91399997 -1.155 150 16 0
2.3369999 0.91799998 -1.156 150 16 0
2.332 0.92199999 -1.156 150 16 0
2.332 0.92799997 -1.159 150 16 0
2.3239999 0.93000001 -1.1569999 150 16 0
2.319 0.93300003 -1.1569999 150 16 0
2.316 0.93800002 -1.158 150 16 0
2.3210001 0.94499999 -1.163 150 16 0
2.3380001 0.958 -1.174 151 18 0
2.339 0.963 -1.176 151 16 0
2.323 0.96200001 -1.17 151 19 0
2.3110001 0.96200001 -1.166 150 16 0
2.302 0.96399999 -1.163 150 16 0
2.3039999 0.97000003 -1.166 150 16 0
2.2969999 0.972 -1.165 150 16 0
2.296 0.977 -1.166 150 16 0
2.2969999 0.98199999 -1.1670001 150 16 0
2.2950001 0.986 -1.168 150 16 0
2.289 0.98900002 -1.166 150 16 0
2.2909999 0.99400002 -1.168 150 16 0
2.2869999 0.99699998 -1.1670001 150 16 0
2.2869999 1.003 -1.169 150 16 0
2.2820001 1.005 -1.1670001 150 16 0
2.2750001 1.007 -1.164 150 16 0
2.277 1.012 -1.166 150 16 0
2.2720001 1.015 -1.164 150 16 0
2.273 1.0190001 -1.165 150 16 0
2.2739999 1.024 -1.166 150 16 0
2.267 1.026 -1.163 150 16 0
2.2650001 1.029 -1.1619999 150 16 0
2.2650001 1.033 -1.1619999 150 16 0
2.263 1.0369999 -1.1619999 150 16 0
2.2620001 1.04 -1.161 150 16 0
2.2590001 1.043 -1.16 150 16 0
2.2590001 1.0470001 -1.159 150 16 0
2.2579999 1.051 -1.159 150 16 0
2.257 1.054 -1.1569999 150 16 0
2.256 1.057 -1.1569999 150 16 0
2.2550001 1.061 -1.156 150 16 0
2.2539999 1.064 -1.155 150 16 0
2.2539999 1.067 -1.154 150 16 0
2.2509999 1.069 -1.151 150 16 0
2.2520001 1.073 -1.151 150 16 0
2.25 1.075 -1.149 150 16 0
2.2509999 1.079 -1.148 150 16 0
2.25 1.082 -1.147 150 16 0
2.2479999 1.084 -1.1440001 150 16 0
2.2460001 1.086 -1.142 150 16 0
2.2479999 1.09 -1.142 150 16 0
2.247 1.0930001 -1.1390001 150 16 0
2.247 1.095 -1.137 150 16 0
2.2449999 1.097 -1.135 150 16 0
2.2449999 1.099 -1.133 150 16 0
2.2449999 1.102 -1.131 150 16 0
2.2449999 1.105 -1.1289999 150 16 0
2.244 1.107 -1.126 150 16 0
2.2420001 1.108 -1.123 150 16 0
2.2409999 1.109 -1.12 150 16 0
2.24 1.1109999 -1.117 150 16 0
2.2449999 1.115 -1.117 150 16 0
2.2420001 1.1160001 -1.113 150 16 0
2.2409999 1.117 -1.11 150 16 0
2.2409999 1.119 -1.108 150 16 0
2.243 1.1210001 -1.105 150 16 0
2.243 1.123 -1.103 150 16 0
2.243 1.125 -1.099 150 16 0
2.2460001 1.127 -1.098 150 16 0
2.2460001 1.1289999 -1.095 150 16 0
2.2449999 1.1289999 -1.091 150 16 0
2.2460001 1.131 -1.0880001 150 16 0
2.247 1.133 -1.085 150 16 0
2.2479999 1.1339999 -1.082 151 16 0
2.2490001 1.135 -1.079 150 16 0
2.2490001 1.136 -1.076 150 16 0
2.25 1.137 -1.073 150 16 0
2.2539999 1.14 -1.071 150 16 0
2.253 1.1390001 -1.066 150 16 0
2.2539999 1.14 -1.063 151 16 0
2.257 1.142 -1.061 151 16 0
2.2590001 1.143 -1.057 151 16 0
2.26 1.1440001 -1.053 151 16 0
2.2609999 1.145 -1.05 151 16 0
2.263 1.145 -1.046 151 16 0
2.2639999 1.146 -1.043 151 16 0
2.267 1.147 -1.04 151 16 0
2.2690001 1.147 -1.036 151 16 0
2.2690001 1.147 -1.031 151 16 0
2.27 1.147 -1.028 151 16 0
2.2720001 1.147 -1.024 151 16 0
2.2720001 1.146 -1.0190001 151 16 0
2.277 1.148 -1.017 151 16 0
2.277 1.147 -1.012 151 16 0
2.277 1.146 -1.007 151 16 0
2.2809999 1.147 -1.0039999 151 16 0
2.2839999 1.148 -1 151 16 0
2.2850001 1.146 -0.995 151 16 0
2.2869999 1.146 -0.991 151 16 0
2.289 1.145 -0.98699999 151 16 0
2.289 1.1440001 -0.98199999 151 16 0
2.2909999 1.1440001 -0.97799999 151 16 0
2.2969999 1.1440001 -0.97500002 151 16 0
2.2969999 1.143 -0.97000003 151 16 0
2.2969999 1.141 -0.96499997 151 16 0
2.302 1.141 -0.96100003 151 16 0
2.303 1.14 -0.95599997 151 16 0
2.3080001 1.14 -0.95300001 151 16 0
2.3110001 1.1390001 -0.949 151 16 0
2.3110001 1.137 -0.94300002 151 16 0
2.313 1.135 -0.93800002 150 16 0
2.3169999 1.135 -0.935 150 16 0
2.322 1.135 -0.93099999 150 16 0
2.323 1.133 -0.926 151 16 0
2.329 1.133 -0.92199999 150 16 0
2.3369999 1.1339999 -0.92000002 92 16 0
2.346 1.135 -0.91799998 13 16 0
2.3529999 1.136 -0.91500002 3 16 0
2.359 1.135 -0.91100001 2 16 0
2.3629999 1.1339999 -0.90600002 2 16 0
2.372 1.135 -0.90399998 2 16 0
2.368 1.13 -0.89700001 2 16 0
2.375 1.13 -0.89399999 3 16 0
2.3729999 1.125 -0.88700002 3 16 0
2.3729999 1.122 -0.88099998 2 16 0
2.3829999 1.123 -0.87900001 2 16 0
2.3870001 1.1210001 -0.87400001 2 16 0
2.3859999 1.117 -0.86699998 2 16 0
2.3889999 1.115 -0.86299998 2 16 0
2.3970001 1.114 -0.85900003 2 16 0
2.391 1.108 -0.85100001 1 16 0
2.392 1.104 -0.84600002 1 16 0
2.402 1.105 -0.84299999 4 16 0
2.402 1.1 -0.83700001 22 16 0
2.395 1.0930001 -0.82800001 150 16 0
2.398 1.09 -0.82300001 150 16 0
2.402 1.0880001 -0.81900001 150 16 0
2.4030001 1.084 -0.81300002 150 16 0
2.408 1.081 -0.80800003 150 16 0
2.4119999 1.079 -0.80299997 150 16 0
2.414 1.075 -0.79799998 150 16 0
2.4189999 1.073 -0.79299998 150 16 0
2.4219999 1.069 -0.78799999 150 16 0
2.425 1.066 -0.78299999 150 16 0
2.4300001 1.063 -0.778 150 16 0
2.4360001 1.061 -0.77399999 150 16 0
2.4349999 1.056 -0.76800001 150 16 0
2.438 1.052 -0.76300001 150 16 0
2.448 1.051 -0.75999999 150 16 0
2.451 1.048 -0.75400001 150 16 0
2.454 1.044 -0.74900001 150 16 0
2.457 1.04 -0.74400002 150 16 0
2.4619999 1.0369999 -0.73900002 150 16 0
2.4649999 1.033 -0.73400003 150 16 0
2.473 1.031 -0.73000002 150 16 0
2.4749999 1.026 -0.72399998 150 16 0
2.48 1.023 -0.72000003 150 16 0
2.483 1.0190001 -0.71399999 150 16 0
2.4860001 1.0140001 -0.70899999 150 16 0
2.4920001 1.011 -0.70499998 150 16 0
2.493 1.006 -0.699 150 16 0
2.5 1.003 -0.69499999 150 16 0
2.5039999 0.99900001 -0.69 150 16 0
2.507 0.99400002 -0.68400002 150 16 0
2.5109999 0.99000001 -0.67900002 150 16 0
2.517 0.98699999 -0.67500001 150 16 0
2.5220001 0.98299998 -0.67000002 150 16 0
2.5250001 0.97799999 -0.66500002 150 16 0
2.5339999 0.97500002 -0.66100001 150 16 0
2.543 0.97299999 -0.65700001 151 16 0
2.556 0.972 -0.65499997 151 16 0
2.5599999 0.96700001 -0.64899999 150 16 0
2.5439999 0.95499998 -0.639 150 16 0
2.5480001 0.94999999 -0.634 150 16 0
2.5550001 0.94700003 -0.63 150 16 0
2.5580001 0.94099998 -0.62400001 150 16 0
2.562 0.93699998 -0.62 150 16 0
2.5639999 0.93099999 -0.61400002 150 16 0
2.5680001 0.926 -0.60900003 150 16 0
2.572 0.921 -0.60399997 150 16 0
2.585 0.91900003 -0.60100001 150 16 0
2.5880001 0.91399997 -0.59600002 150 16 0
2.5910001 0.90799999 -0.58999997 150 16 0
2.5999999 0.90499997 -0.58700001 150 16 0
2.6040001 0.89999998 -0.58099997 150 16 0
2.608 0.89499998 -0.57599998 150 16 0
2.612 0.88999999 -0.57099998 150 16 0
2.6159999 0.884 -0.56599998 150 16 0
2.6210001 0.87900001 -0.56099999 150 16 0
2.6270001 0.87400001 -0.55699998 150 16 0
2.6270001 0.86799997 -0.551 150 16 0
2.635 0.86400002 -0.54699999 150 16 0
2.638 0.85799998 -0.542 150 16 0
2.645 0.85299999 -0.537 150 16 0
2.6489999 0.847 -0.53200001 150 16 0
2.658 0.84299999 -0.528 150 16 0
2.6619999 0.838 -0.523 150 16 0
2.6659999 0.83200002 -0.51800001 150 16 0
2.6719999 0.82700002 -0.51300001 150 16 0
2.678 0.82200003 -0.509 150 16 0
2.6789999 0.815 -0.50300002 150 16 0
2.684 0.80900002 -0.49900001 150 16 0
2.6900001 0.80400002 -0.49399999 150 16 0
2.6960001 0.79900002 -0.48899999 150 16 0
2.7030001 0.79299998 -0.48500001 150 16 0
2.7049999 0.787 -0.479 150 16 0
2.71 0.78100002 -0.47499999 150 16 0
2.72 0.77600002 -0.47099999 150 16 0
2.72 0.76899999 -0.465 150 16 0
2.727 0.764 -0.461 150 16 0
2.7320001 0.75800002 -0.456 150 16 0
2.737 0.75199997 -0.45100001 150 16 0
2.737 0.745 -0.44499999 150 16 0
2.7490001 0.74000001 -0.442 150 16 0
2.7520001 0.73400003 -0.43700001 150 16 0
2.756 0.727 -0.43200001 150 16 0
2.7620001 0.72100002 -0.42699999 150 16 0
2.773 0.71700001 -0.42300001 150 16 0
2.776 0.70999998 -0.41800001 150 16 0
2.78 0.70300001 -0.41299999 150 16 0
2.7839999 0.69700003 -0.40799999 150 16 0
2.793 0.69099998 -0.40400001 150 16 0
2.793 0.68400002 -0.39899999 150 16 0
2.803 0.67900002 -0.39500001 150 16 0
2.8069999 0.67199999 -0.38999999 150 16 0
2.8110001 0.66500002 -0.38499999 150 16 0
2.8210001 0.66000003 -0.38100001 150 16 0
2.823 0.65200001 -0.37599999 150 16 0
2.829 0.64600003 -0.37099999 150 16 0
2.8310001 0.63800001 -0.366 150 16 0
2.8440001 0.63300002 -0.36199999 150 16 0
2.848 0.62699997 -0.35699999 150 16 0
2.8529999 0.62 -0.35299999 150 16 0
2.8599999 0.61299998 -0.34799999 150 16 0
2.8629999 0.60600001 -0.34299999 150 16 0
2.8670001 0.59899998 -0.338 150 16 0
2.8740001 0.59200001 -0.33399999 150 16 0
2.878 0.58499998 -0.329 150 16 0
2.882 0.57800001 -0.324 150 16 0
2.8900001 0.57200003 -0.31999999 150 16 0
2.892 0.56400001 -0.315 150 16 0
2.904 0.55800003 -0.31099999 150 16 0
2.9130001 0.55199999 -0.30599999 150 16 0
2.9159999 0.54400003 -0.30199999 150 16 0
2.9230001 0.537 -0.29699999 150 16 0
2.928 0.52999997 -0.292 150 16 0
2.9300001 0.52200001 -0.287 150 16 0
2.9389999 0.51499999 -0.28299999 150 16 0
2.944 0.50800002 -0.278 150 16 0
2.9530001 0.50099999 -0.27399999 150 16 0
2.954 0.493 -0.26899999 150 16 0
2.961 0.486 -0.264 150 16 0
2.9660001 0.479 -0.25999999 150 16 0
2.973 0.47099999 -0.255 150 16 0
2.9790001 0.46399999 -0.25099999 150 16 0
2.9879999 0.45699999 -0.24600001 150 16 0
2.9879999 0.449 -0.241 150 16 0
2.9990001 0.442 -0.237 150 16 0
3.0020001 0.43399999 -0.23199999 150 16 0
3.0079999 0.426 -0.228 150 16 0
3.0139999 0.41800001 -0.223 150 16 0
3.023 0.41100001 -0.219 150 16 0
3.0239999 0.403 -0.214 150 16 0
3.0309999 0.39500001 -0.20900001 150 16 0
3.0339999 0.38699999 -0.204 150 16 0
3.0420001 0.37900001 -0.2 150 16 0
3.0510001 0.37200001 -0.19499999 150 16 0
3.0580001 0.36399999 -0.191 150 16 0
3.062 0.35600001 -0.186 150 16 0
3.0710001 0.34799999 -0.182 150 16 0
3.073 0.33899999 -0.177 150 16 0
3.079 0.331 -0.17200001 150 16 0
3.086 0.32300001 -0.168 150 16 0
3.098 0.31600001 -0.163 150 16 0
3.1010001 0.30700001 -0.15899999 150 16 0
3.1140001 0.30000001 -0.154 150 16 0
3.119 0.29100001 -0.15000001 131 16 0
3.125 0.28299999 -0.145 120 16 0
3.1289999 0.27399999 -0.14 99 16 0
3.135 0.266 -0.13600001 133 16 0
3.141 0.257 -0.131 115 16 0
3.151 0.249 -0.127 127 16 0
3.155 0.23999999 -0.122 124 16 0
3.164 0.23199999 -0.117 110 16 0
3.1719999 0.223 -0.113 111 16 0
3.1760001 0.215 -0.108 115 16 0
3.1860001 0.206 -0.104 112 16 0
3.1960001 0.198 -0.098999999 112 16 0
3.2 0.189 -0.093999997 110 16 0
3.207 0.18000001 -0.090000004 103 16 0
3.2149999 0.171 -0.085000001 101 16 0
3.223 0.162 -0.081 103 16 0
3.23 0.153 -0.075999998 108 16 0
3.2360001 0.14399999 -0.071000002 111 16 0
3.244 0.13500001 -0.067000002 103 16 0
3.2490001 0.126 -0.061999999 98 16 0
3.2550001 0.117 -0.057 104 16 0
3.2639999 0.108 -0.052999999 98 16 0
3.2679999 0.097999997 -0.048 91 16 0
3.277 0.089000002 -0.043000001 86 16 0
3.283 0.079999998 -0.039000001 81 16 0
3.29 0.07 -0.034000002 84 16 0
3.302 0.061000001 -0.028999999 48 16 0
3.3039999 0.050999999 -0.025 52 16 0
3.3099999 0.041999999 -0.02 74 16 0
3.3239999 0.032000002 -0.015 57 16 0
3.322 0.023 -0.011 27 16 0
3.3 0.013 -0.0060000001 20 16 0
3.279 0.003 -0.001 19 16 0
3.2650001 -0.0049999999 0.0020000001 19 16 0
3.2490001 -0.015 0.0070000002 40 16 0
3.2550001 -0.024 0.011 150 16 0
3.2650001 -0.034000002 0.016000001 150 16 0
3.266 -0.043000001 0.02 144 16 0
3.277 -0.052999999 0.025 150 16 0
3.279 -0.063000001 0.028999999 150 16 0
3.277 -0.071999997 0.034000002 38 16 0
3.256 -0.081 0.037999999 30 16 0
3.24 -0.090999998 0.041999999 30 16 0
3.2179999 -0.1 0.046 29 16 0
3.2019999 -0.109 0.050000001 29 16 0
3.1830001 -0.117 0.054000001 29 16 0
3.168 -0.126 0.057999998 31 16 0
3.1489999 -0.13500001 0.061999999 32 16 0
3.1259999 -0.14300001 0.066 30 16 0
3.112 -0.15099999 0.07 30 16 0
3.0929999 -0.16 0.072999999 30 16 0
3.079 -0.168 0.077 31 16 0
3.053 -0.176 0.079999998 31 16 0
3.043 -0.184 0.083999999 31 16 0
3.026 -0.192 0.088 31 16 0
2.9990001 -0.199 0.090999998 31 16 0
2.9879999 -0.208 0.093999997 32 16 0
2.9719999 -0.215 0.097000003 32 16 0
2.9549999 -0.223 0.101 32 16 0
2.938 -0.23 0.104 32 16 0
2.924 -0.23800001 0.107 33 16 0
2.9059999 -0.245 0.11 32 16 0
2.8940001 -0.25299999 0.113 33 16 0
2.8740001 -0.25999999 0.116 34 16 0
2.865 -0.26800001 0.119 33 16 0
2.848 -0.27500001 0.122 33 16 0
2.8369999 -0.28200001 0.125 35 16 0
2.8110001 -0.28799999 0.127 32 16 0
2.8010001 -0.296 0.13 32 16 0
2.7909999 -0.303 0.133 35 16 0
2.777 -0.31 0.13600001 35 16 0
2.763 -0.317 0.139 36 16 0
2.75 -0.324 0.141 37 16 0
2.7320001 -0.33000001 0.14399999 36 16 0
2.7260001 -0.33700001 0.147 36 16 0
2.7119999 -0.34400001 0.149 37 16 0
2.701 -0.35100001 0.152 37 16 0
2.684 -0.35699999 0.154 39 16 0
2.6760001 -0.36399999 0.15700001 41 16 0
2.6559999 -0.36899999 0.15899999 41 16 0
2.6400001 -0.375 0.161 45 16 0
2.6300001 -0.382 0.163 46 16 0
2.618 -0.38800001 0.16500001 45 16 0
2.599 -0.39300001 0.167 47 16 0
2.5880001 -0.40000001 0.169 52 16 0
2.5769999 -0.40599999 0.17200001 54 16 0
2.5669999 -0.412 0.17399999 60 16 0
2.553 -0.41800001 0.176 56 16 0
2.5380001 -0.42300001 0.178 55 16 0
2.526 -0.42899999 0.18000001 66 16 0
2.5179999 -0.43599999 0.182 64 16 0
2.503 -0.44100001 0.184 80 16 0
2.493 -0.447 0.185 76 16 0
2.4820001 -0.45300001 0.18700001 72 16 0
2.4690001 -0.458 0.189 77 16 0
2.4579999 -0.46399999 0.191 82 16 0
2.4489999 -0.47 0.193 86 16 0
2.438 -0.47499999 0.19400001 79 16 0
2.427 -0.48100001 0.19599999 80 16 0
2.4159999 -0.486 0.198 73 16 0
2.402 -0.491 0.199 64 16 0
2.3859999 -0.495 0.2 83 16 0
2.3789999 -0.50099999 0.20200001 86 16 0
2.368 -0.50599998 0.204 84 16 0
2.3599999 -0.51200002 0.205 87 16 0
2.349 -0.51700002 0.207 92 16 0
2.335 -0.52100003 0.208 76 16 0
2.322 -0.52600002 0.20900001 81 16 0
2.313 -0.53100002 0.211 89 16 0
2.299 -0.53600001 0.212 81 16 0
2.2950001 -0.542 0.214 92 16 0
2.283 -0.546 0.215 93 16 0
2.2679999 -0.55000001 0.215 94 16 0
2.2590001 -0.55500001 0.21699999 96 16 0
2.2479999 -0.56 0.21799999 93 16 0
2.2360001 -0.56400001 0.219 94 16 0
2.2290001 -0.56900001 0.22 92 16 0
2.2219999 -0.57499999 0.222 98 16 0
2.211 -0.579 0.223 97 16 0
2.2030001 -0.58399999 0.22400001 104 16 0
2.1919999 -0.588 0.22499999 104 16 0
2.181 -0.59200001 0.22499999 105 16 0
2.1719999 -0.597 0.226 101 16 0
2.1630001 -0.60100001 0.227 100 16 0
2.152 -0.60600001 0.228 107 16 0
2.141 -0.60900003 0.229 119 16 0
2.1229999 -0.611 0.229 113 16 0
2.1159999 -0.616 0.23 123 16 0
2.112 -0.62199998 0.23100001 117 16 0
2.102 -0.62599999 0.23199999 128 16 0
2.092 -0.63 0.23199999 134 16 0
2.085 -0.63499999 0.233 135 16 0
2.075 -0.63800001 0.234 133 16 0
2.0610001 -0.64099997 0.234 130 16 0
2.056 -0.64600003 0.235 134 16 0
2.046 -0.64999998 0.235 122 16 0
2.036 -0.653 0.236 134 16 0
2.033 -0.65899998 0.237 150 16 0
2.0209999 -0.662 0.237 150 16 0
2.0120001 -0.66500002 0.23800001 150 16 0
2.007 -0.67000002 0.23800001 150 16 0
1.998 -0.67400002 0.23899999 150 16 0
1.984 -0.676 0.23899999 150 16 0
1.978 -0.68099999 0.23899999 150 16 0
1.972 -0.685 0.23999999 150 16 0
1.9630001 -0.68900001 0.23999999 150 16 0
1.956 -0.69300002 0.241 150 16 0
1.941 -0.69400001 0.23999999 150 16 0
1.939 -0.699 0.241 150 16 0
1.9299999 -0.70300001 0.241 150 16 0
1.927 -0.708 0.242 150 16 0
1.908 -0.708 0.241 150 19 0
1.903 -0.71200001 0.241 150 16 0
1.897 -0.71600002 0.242 150 16 0
1.8940001 -0.72100002 0.243 150 16 0
1.8839999 -0.72399998 0.242 150 16 0
1.877 -0.727 0.242 150 16 0
1.875 -0.73299998 0.243 150 16 0
1.8609999 -0.73400003 0.243 150 16 0
1.855 -0.73799998 0.243 150 16 0
1.844 -0.74000001 0.242 150 16 0
1.837 -0.74299997 0.242 150 16 0
1.8329999 -0.74699998 0.243 150 16 0
1.827 -0.75099999 0.243 150 16 0
1.822 -0.755 0.243 150 16 0
1.812 -0.75700003 0.242 150 16 0
1.803 -0.75999999 0.242 150 16 0
1.793 -0.76200002 0.241 150 16 0
1.786 -0.764 0.241 150 16 0
1.7819999 -0.76899999 0.241 150 16 0
1.775 -0.77200001 0.241 150 16 0
1.768 -0.77499998 0.241 2 0 0
1.758 -0.77600002 0.23999999 3 0 0
1.755 -0.78100002 0.23999999 3 0 0
1.745 -0.78200001 0.23899999 2 0 0
1.739 -0.78500003 0.23899999 94 0 0
1.7359999 -0.79000002 0.23899999 3 0 0
1.727 -0.79100001 0.23899999 2 0 0
1.717 -0.79299998 0.23800001 2 0 0
1.712 -0.796 0.237 3 0 0
1.705 -0.79799998 0.237 140 0 0
1.701 -0.80199999 0.237 113 0 0
1.698 -0.80599999 0.237 103 0 0
1.693 -0.81 0.236 141 0 0
1.688 -0.81300002 0.236 143 0 0
1.678 -0.81400001 0.235 129 0 0
1.668 -0.81400001 0.234 113 0 0
1.659 -0.81599998 0.233 113 0 0
1.656 -0.81900001 0.23199999 105 0 0
1.651 -0.82300001 0.23199999 112 0 0
1.645 -0.82499999 0.23100001 150 0 0
1.6390001 -0.82700002 0.23 144 0 0
1.636 -0.83099997 0.23 144 0 0
1.6289999 -0.833 0.229 150 0 0
1.618 -0.833 0.228 150 0 0
1.6160001 -0.83700001 0.227 150 0 0
1.609 -0.838 0.226 129 0 0
1.602 -0.83899999 0.22499999 133 0 0
1.596 -0.84200001 0.22400001 139 0 0
1.589 -0.84299999 0.223 131 0 0
1.589 -0.84799999 0.223 150 0 0
1.585 -0.85100001 0.222 126 0 0
1.571 -0.84899998 0.22 150 3 0
1.5650001 -0.85000002 0.219 150 0 0
1.5650001 -0.85500002 0.219 150 0 0
1.558 -0.85600001 0.21799999 143 0 0
1.5549999 -0.86000001 0.21699999 150 0 0
1.553 -0.86299998 0.21699999 150 0 0
1.546 -0.86400002 0.215 140 0 0
1.539 -0.86500001 0.214 150 16 0
1.5369999 -0.86799997 0.213 150 16 0
1.535 -0.87199998 0.212 3 0 0
1.533 -0.875 0.212 150 0 0
1.522 -0.87300003 0.20999999 150 3 0
1.52 -0.87699997 0.20900001 2 0 0
1.516 -0.87900001 0.208 4 0 0
1.51 -0.88 0.206 136 0 0
1.508 -0.88300002 0.205 150 0 0
1.503 -0.88499999 0.204 4 0 0
1.499 -0.88599998 0.20299999 150 0 0
1.49 -0.88599998 0.20100001 150 0 0
1.487 -0.88800001 0.2 150 0 0
1.483 -0.889 0.199 142 0 0
1.477 -0.88999999 0.197 150 0 0
1.476 -0.89300001 0.19599999 146 0 0
1.474 -0.89600003 0.19499999 149 0 0
1.4680001 -0.89700001 0.19400001 150 0 0
1.4680001 -0.90100002 0.193 150 0 0
1.459 -0.89899999 0.191 150 0 0
1.455 -0.89999998 0.189 150 0 0
1.452 -0.90200001 0.18799999 150 0 0
1.451 -0.90499997 0.18700001 150 0 0
1.442 -0.903 0.185 150 0 0
1.441 -0.90600002 0.184 150 0 0
1.437 -0.90700001 0.182 146 0 0
1.4349999 -0.90899998 0.18099999 134 0 0
1.433 -0.912 0.17900001 150 0 0
1.4220001 -0.90799999 0.177 143 3 0
1.423 -0.912 0.176 150 0 0
1.419 -0.91299999 0.17399999 150 0 0
1.418 -0.91500002 0.17299999 150 0 0
1.421 -0.92000002 0.17200001 150 0 0
1.41 -0.91600001 0.17 141 0 0
1.409 -0.91900003 0.168 141 0 0
1.4069999 -0.92000002 0.167 123 0 0
1.405 -0.92199999 0.16500001 150 0 0
1.397 -0.91900003 0.163 150 0 0
1.396 -0.921 0.161 98 0 0
1.3940001 -0.92299998 0.16 150 0 0
1.386 -0.92000002 0.15800001 150 0 0
1.388 -0.92400002 0.156 119 0 0
1.391 -0.92799997 0.155 137 0 0
1.382 -0.92500001 0.153 150 0 0
1.38 -0.926 0.15099999 142 0 0
1.3789999 -0.92799997 0.15000001 81 0 0
1.376 -0.92799997 0.148 137 0 0
1.373 -0.92799997 0.146 150 0 0
1.373 -0.93000001 0.14399999 136 0 0
1.367 -0.92799997 0.142 150 0 0
1.368 -0.93099999 0.141 137 0 0
1.363 -0.92900002 0.139 127 0 0
1.364 -0.93199998 0.13699999 119 0 0
1.3609999 -0.93199998 0.13500001 108 0 0
1.3609999 -0.93300003 0.133 135 0 0
1.36 -0.93400002 0.132 124 0 0
1.359 -0.935 0.13 127 0 0
1.354 -0.93300003 0.12800001 119 0 0
1.355 -0.935 0.126 146 0 0
1.351 -0.93400002 0.124 142 0 0
1.351 -0.93599999 0.122 145 0 0
1.35 -0.93599999 0.121 139 0 0
1.346 -0.93400002 0.118 147 0 0
1.349 -0.93800002 0.117 124 0 0
1.347 -0.93699998 0.115 126 0 0
1.346 -0.93699998 0.113 121 0 0
1.346 -0.93800002 0.111 105 0 0
1.344 -0.93699998 0.109 150 0 0
1.344 -0.93800002 0.108 98 0 0
1.344 -0.93800002 0.106 109 0 0
1.3430001 -0.93900001 0.104 119 0 0
1.342 -0.93900001 0.102 142 0 0
1.34 -0.93699998 0.1 83 0 0
1.342 -0.93900001 0.097999997 150 0 0
1.3380001 -0.93699998 0.096000001 135 0 0
1.3380001 -0.93699998 0.093999997 125 0 0
1.3380001 -0.93699998 0.092 110 0 0
1.3430001 -0.94099998 0.090999998 110 3 0
1.3380001 -0.93699998 0.088 116 0 0
1.339 -0.93699998 0.086000003 133 0 0
1.3380001 -0.93599999 0.083999999 96 0 0
1.339 -0.93699998 0.082999997 116 0 0
1.3430001 -0.94 0.081 150 0 0
1.339 -0.93599999 0.079000004 91 0 0
1.342 -0.93800002 0.077 133 0 0
1.339 -0.935 0.075000003 116 0 0
1.34 -0.93599999 0.072999999 126 0 0
1.341 -0.935 0.071000002 147 0 0
1.341 -0.935 0.068999998 148 0 0
1.344 -0.93599999 0.067000002 130 0 0
1.346 -0.93599999 0.066 150 0 0
1.34 -0.93099999 0.063000001 135 3 0
1.347 -0.935 0.061999999 149 0 0
1.348 -0.93400002 0.059999999 132 0 0
1.346 -0.93199998 0.057999998 144 0 0
1.349 -0.93300003 0.056000002 147 0 0
1.346 -0.92900002 0.054000001 142 0 0
1.351 -0.93099999 0.052000001 140 0 0
1.347 -0.92699999 0.050000001 126 0 0
1.35 -0.92699999 0.048 141 0 0
1.353 -0.92799997 0.046 150 0 0
1.354 -0.92699999 0.045000002 145 0 0
1.355 -0.926 0.043000001 150 0 0
1.3559999 -0.92400002 0.041000001 138 0 0
1.357 -0.92299998 0.039000001 139 0 0
1.358 -0.92199999 0.037 145 0 0
1.359 -0.921 0.035 144 0 0
1.36 -0.92000002 0.033 136 0 0
1.3609999 -0.91799998 0.032000002 126 0 0
1.362 -0.91600001 0.029999999 143 0 0
1.363 -0.91399997 0.028000001 150 0 0
1.364 -0.91299999 0.026000001 117 0 0
1.368 -0.91299999 0.024 137 0 0
1.369 -0.91100001 0.023 150 0 0
1.3710001 -0.91000003 0.021 125 0 0
1.372 -0.90799999 0.018999999 149 0 0
1.375 -0.90700001 0.017000001 150 0 0
1.378 -0.90700001 0.016000001 104 0 0
1.378 -0.90399998 0.014 126 0 0
1.3789999 -0.90200001 0.012 150 0 0
1.381 -0.89999998 0.0099999998 137 0 0
1.385 -0.89999998 0.0089999996 143 0 0
1.3890001 -0.89899999 0.0070000002 141 0 0
1.39 -0.89700001 0.0049999999 137 0 0
1.3940001 -0.89700001 0.003 150 0 0
1.3940001 -0.89300001 0.0020000001 124 0 0
1.398 -0.89300001 0 150 0 0
1.397 -0.889 0 97 0 0
1.405 -0.89099997 -0.0020000001 140 0 0
1.4069999 -0.889 -0.0040000002 119 0 0
1.411 -0.88800001 -0.0049999999 142 0 0
1.409 -0.88300002 -0.0070000002 129 0 0
1.4170001 -0.884 -0.0089999996 107 0 0
1.419 -0.88200003 -0.0099999998 141 0 0
1.421 -0.88 -0.012 99 0 0
1.423 -0.87699997 -0.013 127 0 0
1.431 -0.87800002 -0.015 133 0 0
1.433 -0.87599999 -0.016000001 126 0 0
1.432 -0.87099999 -0.017999999 124 0 0
1.436 -0.87 -0.018999999 107 0 0
1.439 -0.86799997 -0.021 150 0 0
1.443 -0.866 -0.022 125 0 0
1.45 -0.866 -0.024 133 0 0
1.451 -0.86299998 -0.025 150 0 0
1.454 -0.86000001 -0.026000001 119 0 0
1.461 -0.86000001 -0.028000001 106 0 0
1.465 -0.85900003 -0.028999999 116 0 0
1.467 -0.85500002 -0.030999999 118 0 0
1.469 -0.852 -0.032000002 115 0 0
1.473 -0.85000002 -0.033 150 0 0
1.478 -0.84899998 -0.035 134 0 0
1.48 -0.84600002 -0.035999998 135 0 0
1.488 -0.84600002 -0.037999999 150 0 0
1.488 -0.84100002 -0.039000001 150 0 0
1.494 -0.83999997 -0.039999999 126 0 0
1.4960001 -0.83700001 -0.041000001 149 0 0
1.506 -0.83700001 -0.043000001 97 0 0
1.511 -0.83600003 -0.044 120 0 0
1.513 -0.83200002 -0.045000002 107 0 0
1.517 -0.82999998 -0.046 76 0 0
1.5190001 -0.82599998 -0.046999998 105 0 0
1.525 -0.82499999 -0.048999999 115 0 0
1.5319999 -0.824 -0.050000001 85 0 0
1.536 -0.82099998 -0.050999999 106 0 0
1.5420001 -0.81900001 -0.052000001 74 0 0
1.545 -0.81599998 -0.052999999 78 0 0
1.549 -0.81300002 -0.055 104 0 0
1.551 -0.80900002 -0.056000002 92 0 0
1.564 -0.81099999 -0.057 107 0 0
1.568 -0.80800003 -0.057999998 106 0 0
1.571 -0.80400002 -0.059 122 0 0
1.5829999 -0.80500001 -0.059999999 94 0 0
1.586 -0.80199999 -0.061000001 101 0 0
1.5880001 -0.79699999 -0.061999999 108 0 0
1.595 -0.79500002 -0.063000001 82 0 0
1.598 -0.792 -0.064000003 83 0 0
1.6 -0.787 -0.064999998 93 0 0
1.605 -0.78399998 -0.066 102 0 0
1.609 -0.78100002 -0.067000002 83 0 0
1.623 -0.78299999 -0.068000004 72 0 0
1.627 -0.77899998 -0.068999998 74 0 0
1.633 -0.77600002 -0.07 68 0 0
1.638 -0.773 -0.071000002 71 0 0
1.641 -0.76899999 -0.071000002 68 0 0
1.653 -0.76899999 -0.072999999 4 0 0
1.656 -0.76499999 -0.072999999 1 0 0
1.66 -0.76200002 -0.074000001 150 16 0
1.664 -0.75800002 -0.075000003 150 16 0
1.676 -0.75800002 -0.075999998 150 16 0
1.683 -0.755 -0.077 78 0 0
1.689 -0.75199997 -0.077 73 0 0
1.696 -0.75 -0.078000002 77 0 0
1.701 -0.74599999 -0.079000004 61 0 0
1.704 -0.741 -0.079000004 60 0 0
1.711 -0.73900002 -0.079999998 63 0 0
1.72 -0.73699999 -0.081 65 0 0
1.725 -0.73299998 -0.081 54 0 0
1.733 -0.73000002 -0.082000002 48 0 0
1.7460001 -0.73000002 -0.082999997 66 0 0
1.7539999 -0.727 -0.083999999 56 0 0
1.755 -0.722 -0.083999999 150 16 0
1.7640001 -0.72000003 -0.085000001 66 0 0
1.7690001 -0.71600002 -0.085000001 39 0 0
1.775 -0.71200001 -0.086000003 36 0 0
1.783 -0.70899999 -0.086000003 36 0 0
1.793 -0.70700002 -0.086999997 44 0 0
1.802 -0.704 -0.088 2 0 0
1.808 -0.70099998 -0.088 1 0 0
1.814 -0.69700003 -0.088 2 0 0
1.8200001 -0.69300002 -0.089000002 1 0 0
1.831 -0.69099998 -0.090000004 1 0 0
1.841 -0.68800002 -0.090000004 2 0 0
1.848 -0.68400002 -0.090000004 1 0 0
1.855 -0.68099999 -0.090999998 2 0 0
1.862 -0.67699999 -0.090999998 150 16 0
1.8660001 -0.67199999 -0.090999998 150 16 0
1.875 -0.66900003 -0.092 150 16 0
1.886 -0.66600001 -0.092 143 16 0
1.891 -0.662 -0.092 150 16 0
1.903 -0.66000003 -0.093000002 150 16 0
1.91 -0.65499997 -0.093000002 141 16 0
1.919 -0.65200001 -0.093000002 129 16 0
1.921 -0.64600003 -0.093000002 146 16 0
1.928 -0.64200002 -0.093999997 132 16 0
1.932 -0.63700002 -0.093999997 120 16 0
1.943 -0.634 -0.093999997 124 16 0
1.961 -0.63300002 -0.093999997 142 16 0
1.966 -0.62800002 -0.093999997 131 16 0
1.973 -0.62300003 -0.093999997 126 16 0
1.985 -0.62099999 -0.094999999 133 16 0
1.9960001 -0.61699998 -0.094999999 124 16 0
2 -0.61199999 -0.094999999 118 16 0
2.0109999 -0.60799998 -0.094999999 119 16 0
2.023 -0.60500002 -0.094999999 110 16 0
2.0320001 -0.60100001 -0.094999999 115 16 0
2.0450001 -0.59799999 -0.094999999 109 16 0
2.0510001 -0.59299999 -0.094999999 108 16 0
2.0550001 -0.58700001 -0.094999999 104 16 0
2.075 -0.58600003 -0.094999999 109 19 0
2.082 -0.58099997 -0.094999999 109 16 0
2.0910001 -0.57599998 -0.094999999 97 16 0
2.0999999 -0.57200003 -0.094999999 108 16 0
2.109 -0.56699997 -0.094999999 98 16 0
2.118 -0.56199998 -0.094999999 94 16 0
2.1289999 -0.55800003 -0.094999999 91 16 0
2.1400001 -0.55400002 -0.094999999 91 16 0
2.148 -0.54900002 -0.093999997 95 16 0
2.1600001 -0.54400003 -0.093999997 89 16 0
2.1670001 -0.53899997 -0.093999997 77 16 0
2.187 -0.537 -0.093999997 72 16 0
2.198 -0.53200001 -0.093999997 68 16 0
2.2049999 -0.52700001 -0.093000002 66 16 0
2.2179999 -0.52200001 -0.093000002 69 16 0
2.234 -0.51899999 -0.093000002 68 16 0
2.24 -0.51200002 -0.092 47 16 0
2.2520001 -0.50800002 -0.092 59 16 0
2.2609999 -0.50300002 -0.092 54 16 0
2.276 -0.498 -0.090999998 61 16 0
2.286 -0.493 -0.090999998 58 16 0
2.3 -0.48800001 -0.090999998 60 16 0
2.3110001 -0.48300001 -0.090000004 59 16 0
2.3210001 -0.477 -0.089000002 56 16 0
2.332 -0.472 -0.089000002 54 16 0
2.346 -0.46700001 -0.089000002 54 16 0
2.3599999 -0.46200001 -0.088 49 16 0
2.3740001 -0.45699999 -0.088 39 16 0
2.3840001 -0.45100001 -0.086999997 55 16 0
2.3940001 -0.44499999 -0.086000003 43 16 0
2.4119999 -0.44100001 -0.086000003 53 16 0
2.4230001 -0.435 -0.085000001 52 16 0
2.4389999 -0.43000001 -0.083999999 54 16 0
2.454 -0.42399999 -0.083999999 49 16 0
2.4619999 -0.41800001 -0.082999997 49 16 0
2.4749999 -0.412 -0.082000002 42 16 0
2.4860001 -0.40599999 -0.081 44 16 0
2.4990001 -0.40000001 -0.079999998 41 16 0
2.51 -0.39300001 -0.079999998 32 16 0
2.53 -0.38800001 -0.079000004 38 16 0
2.5439999 -0.382 -0.078000002 34 16 0
2.5539999 -0.375 -0.077 32 16 0
2.5710001 -0.36899999 -0.075999998 33 16 0
2.5899999 -0.36399999 -0.075000003 34 16 0
2.6010001 -0.35699999 -0.074000001 33 16 0
2.615 -0.34999999 -0.072999999 32 16 0
2.632 -0.34400001 -0.071999997 33 16 0
2.6429999 -0.33700001 -0.071000002 33 16 0
2.658 -0.331 -0.07 33 16 0
2.675 -0.324 -0.068999998 31 16 0
2.6949999 -0.31799999 -0.068000004 33 16 0
2.7049999 -0.31 -0.067000002 33 16 0
2.727 -0.30399999 -0.064999998 32 16 0
2.734 -0.296 -0.064000003 31 16 0
2.756 -0.289 -0.063000001 32 16 0
2.766 -0.28200001 -0.061000001 31 16 0
2.7839999 -0.27500001 -0.059999999 26 16 0
2.803 -0.26800001 -0.059 28 16 0
2.8169999 -0.25999999 -0.057 28 16 0
2.836 -0.252 -0.056000002 26 16 0
2.8529999 -0.245 -0.055 26 16 0
2.8670001 -0.237 -0.052999999 26 16 0
2.8870001 -0.229 -0.050999999 25 16 0
2.904 -0.221 -0.050000001 27 16 0
2.9219999 -0.214 -0.048 26 16 0
2.9489999 -0.206 -0.046999998 25 16 0
2.9630001 -0.198 -0.045000002 26 16 0
2.98 -0.189 -0.043000001 26 16 0
3 -0.18099999 -0.041999999 25 16 0
3.013 -0.17200001 -0.039999999 25 16 0
3.0409999 -0.164 -0.037999999 26 16 0
3.063 -0.156 -0.035999998 26 16 0
3.0869999 -0.147 -0.034000002 26 16 0
3.108 -0.139 -0.032000002 26 16 0
3.131 -0.13 -0.029999999 26 16 0
3.1500001 -0.121 -0.028000001 27 16 0
3.171 -0.111 -0.026000001 26 16 0
3.194 -0.102 -0.024 27 16 0
3.2119999 -0.092 -0.022 26 16 0
3.24 -0.082999997 -0.02 28 16 0
3.26 -0.072999999 -0.017000001 40 16 0
3.266 -0.063000001 -0.015 150 16 0
3.26 -0.052999999 -0.013 126 16 0
3.257 -0.041999999 -0.0099999998 116 16 0
3.2539999 -0.032000002 -0.0080000004 136 16 0
3.2460001 -0.022 -0.0049999999 73 16 0
3.2449999 -0.012 -0.003 22 16 0
3.2739999 -0.001 0 17 16 0
3.2920001 0.0080000004 0.0020000001 18 16 0
3.322 0.017999999 0.0040000002 21 16 0
3.3369999 0.028999999 0.0070000002 44 16 0
3.325 0.039000001 0.0099999998 51 16 0
3.325 0.050000001 0.012 47 16 0
3.3180001 0.059999999 0.015 42 16 0
3.3110001 0.07 0.017999999 64 16 0
3.3150001 0.081 0.02 58 16 0
3.3080001 0.090999998 0.023 62 16 0
3.3050001 0.101 0.026000001 55 16 0
3.303 0.112 0.028999999 63 16 0
3.2920001 0.122 0.030999999 64 16 0
3.273 0.131 0.034000002 53 16 0
3.2309999 0.139 0.035999998 36 16 0
3.224 0.149 0.039000001 36 16 0
3.217 0.15899999 0.041999999 38 16 0
3.217 0.169 0.044 42 16 0
3.2119999 0.17900001 0.046999998 44 16 0
3.2019999 0.18799999 0.050000001 48 16 0
3.1960001 0.198 0.052999999 61 16 0
3.197 0.208 0.055 70 16 0
3.191 0.21699999 0.057999998 83 16 0
3.187 0.227 0.061000001 95 16 0
3.181 0.236 0.064000003 92 16 0
3.1789999 0.24600001 0.067000002 89 16 0
3.1689999 0.255 0.068999998 93 16 0
3.1689999 0.26499999 0.071999997 102 16 0
3.1670001 0.27500001 0.075000003 99 16 0
3.161 0.28400001 0.078000002 100 16 0
3.1600001 0.294 0.081 112 16 0
3.155 0.303 0.083999999 100 16 0
3.151 0.31299999 0.086999997 111 16 0
3.148 0.322 0.090000004 123 16 0
3.145 0.33199999 0.093000002 127 16 0
3.1429999 0.34099999 0.096000001 130 16 0
3.138 0.34999999 0.098999999 37 16 0
3.174 0.36399999 0.103 19 19 0
3.1989999 0.377 0.107 41 16 0
3.198 0.38699999 0.11 49 16 0
3.191 0.396 0.113 46 16 0
3.1900001 0.40599999 0.116 46 16 0
3.1900001 0.41600001 0.12 50 16 0
3.181 0.42500001 0.123 65 16 0
3.1789999 0.43399999 0.126 72 16 0
3.1719999 0.44299999 0.12899999 80 16 0
3.164 0.45199999 0.132 79 16 0
3.1630001 0.46200001 0.13500001 81 16 0
3.161 0.47099999 0.138 94 16 0
3.1559999 0.47999999 0.141 86 16 0
3.1489999 0.48899999 0.145 93 16 0
3.151 0.49900001 0.148 104 16 0
3.1489999 0.50800002 0.15099999 115 16 0
3.1429999 0.51700002 0.155 135 16 0
3.1440001 0.52700001 0.15800001 127 16 0
3.1370001 0.53600001 0.161 128 16 0
3.135 0.54500002 0.16500001 145 16 0
3.131 0.55400002 0.168 127 16 0
3.1259999 0.56300002 0.171 95 16 0
3.1270001 0.57300001 0.175 82 16 0
3.1199999 0.58099997 0.178 55 16 0
3.109 0.58899999 0.18099999 45 16 0
3.102 0.597 0.184 41 16 0
3.092 0.60500002 0.18700001 39 16 0
3.0829999 0.61299998 0.19 36 16 0
3.0780001 0.62099999 0.19400001 35 16 0
3.072 0.62900001 0.197 34 16 0
3.0639999 0.63700002 0.2 34 16 0
3.0550001 0.64499998 0.20299999 32 16 0
3.0450001 0.65200001 0.206 32 16 0
3.04 0.66100001 0.20999999 33 16 0
3.036 0.66900003 0.213 32 16 0
3.0239999 0.676 0.21600001 32 16 0
3.013 0.68300003 0.219 31 16 0
3.0079999 0.69099998 0.222 31 16 0
3 0.69800001 0.22499999 34 16 0
2.9909999 0.70499998 0.228 36 16 0
2.9860001 0.713 0.23199999 39 16 0
2.974 0.72000003 0.235 47 16 0
2.9690001 0.72799999 0.23800001 72 16 0
2.9619999 0.73500001 0.241 121 16 0
2.9590001 0.74299997 0.245 150 16 0
2.954 0.75099999 0.249 150 16 0
2.947 0.759 0.252 150 16 0
2.9460001 0.76700002 0.25600001 150 16 0
2.944 0.77600002 0.25999999 150 16 0
2.941 0.78399998 0.26300001 150 16 0
2.9389999 0.79299998 0.26699999 150 16 0
2.9389999 0.80199999 0.271 150 16 0
2.9330001 0.80900002 0.27500001 150 16 0
2.931 0.81800002 0.278 150 16 0
2.924 0.82499999 0.28200001 150 16 0
2.925 0.83399999 0.28600001 150 16 0
2.925 0.84299999 0.28999999 150 16 0
2.9159999 0.84899998 0.294 150 16 0
2.9130001 0.85699999 0.29699999 150 16 0
2.9119999 0.866 0.30199999 150 16 0
2.911 0.875 0.30599999 150 16 0
2.905 0.88200003 0.30899999 150 16 0
2.9059999 0.89099997 0.31400001 150 16 0
2.9059999 0.89999998 0.31799999 150 16 0
2.9030001 0.90799999 0.322 150 16 0
2.9000001 0.91500002 0.32600001 150 16 0
2.902 0.92500001 0.33000001 150 16 0
2.8940001 0.93099999 0.33399999 150 16 0
2.891 0.93900001 0.338 150 16 0
2.8900001 0.94700003 0.34200001 150 16 0
2.8900001 0.95599997 0.347 150 16 0
2.8870001 0.96399999 0.35100001 150 16 0
2.882 0.97100002 0.35499999 150 16 0
2.8800001 0.97899997 0.359 150 16 0
2.8759999 0.98699999 0.36300001 150 16 0
2.8800001 0.99599999 0.368 150 16 0
2.8770001 1.0039999 0.37200001 150 16 0
2.8740001 1.012 0.377 150 16 0
2.8710001 1.0190001 0.38100001 150 16 0
2.8699999 1.027 0.38600001 150 16 0
2.865 1.034 0.389 150 16 0
2.8629999 1.0420001 0.39399999 150 16 0
2.8599999 1.049 0.398 150 16 0
2.8599999 1.058 0.403 150 16 0
2.8599999 1.066 0.40799999 150 16 0
2.859 1.075 0.41299999 150 16 0
2.8559999 1.082 0.417 150 16 0
2.852 1.089 0.421 150 16 0
2.848 1.096 0.426 150 16 0
2.8499999 1.104 0.43099999 150 16 0
2.8440001 1.1109999 0.435 150 16 0
2.8410001 1.118 0.43900001 150 16 0
2.8410001 1.126 0.44400001 150 16 0
2.835 1.132 0.44800001 150 16 0
2.8310001 1.1390001 0.45300001 150 16 0
2.836 1.149 0.45899999 150 16 0
2.8329999 1.156 0.463 150 16 0
2.829 1.1619999 0.46799999 150 16 0
2.8329999 1.1720001 0.47400001 150 16 0
2.829 1.178 0.47799999 150 16 0
2.825 1.1849999 0.48300001 150 16 0
2.822 1.192 0.48800001 150 16 0
2.822 1.2 0.493 150 16 0
2.822 1.207 0.498 150 16 0
2.8180001 1.214 0.50300002 150 16 0
2.8180001 1.222 0.50800002 150 16 0
2.8169999 1.229 0.51300001 150 16 0
2.819 1.238 0.51899999 150 16 0
2.813 1.243 0.523 150 16 0
2.813 1.25 0.528 150 16 0
2.8139999 1.258 0.53399998 150 16 0
2.8110001 1.265 0.53899997 150 16 0
2.809 1.272 0.54400003 150 16 0
2.812 1.281 0.55000001 150 16 0
2.8039999 1.284 0.55400002 150 16 0
2.8050001 1.293 0.56 150 16 0
2.8039999 1.3 0.565 150 16 0
2.8 1.3049999 0.56999999 150 16 0
2.796 1.311 0.57499999 139 16 0
2.79 1.3150001 0.579 49 16 0
2.78 1.318 0.583 40 16 0
2.7750001 1.322 0.58700001 39 16 0
2.767 1.325 0.59100002 39 16 0
2.756 1.327 0.59399998 37 16 0
2.7479999 1.331 0.59799999 38 16 0
2.74 1.334 0.602 38 16 0
2.7290001 1.335 0.60500002 36 16 0
2.7219999 1.3380001 0.61000001 36 16 0
2.7090001 1.339 0.61199999 37 16 0
2.7019999 1.342 0.616 36 16 0
2.697 1.346 0.62099999 36 16 0
2.6849999 1.346 0.62300003 38 16 0
2.674 1.347 0.62699997 37 16 0
2.665 1.349 0.63 37 16 0
2.655 1.35 0.634 37 16 0
2.652 1.354 0.63800001 37 16 0
2.642 1.3559999 0.64200002 36 16 0
2.635 1.358 0.64499998 38 16 0
2.625 1.359 0.64899999 37 16 0
2.6099999 1.357 0.65100002 36 16 0
2.605 1.36 0.65499997 36 16 0
2.6010001 1.364 0.65899998 36 16 0
2.5910001 1.364 0.662 37 16 0
2.5840001 1.365 0.66600001 35 16 0
2.5780001 1.368 0.67000002 37 16 0
2.5680001 1.368 0.67299998 36 16 0
2.5599999 1.369 0.67699999 36 16 0
2.5510001 1.369 0.68000001 35 16 0
2.546 1.3710001 0.68400002 35 16 0
2.5369999 1.372 0.68699998 35 16 0
2.529 1.372 0.69 35 16 0
2.5209999 1.373 0.69300002 35 16 0
2.517 1.375 0.69800001 36 16 0
2.5039999 1.373 0.69999999 35 16 0
2.493 1.3710001 0.70200002 36 16 0
2.49 1.374 0.70599997 36 16 0
2.483 1.374 0.70999998 36 16 0
2.48 1.377 0.71399999 36 16 0
2.471 1.376 0.71700001 36 16 0
2.46 1.374 0.71899998 34 16 0
2.457 1.376 0.72299999 39 16 0
2.4449999 1.373 0.72500002 40 16 0
2.437 1.373 0.72799999 40 16 0
2.4319999 1.373 0.73199999 39 16 0
2.4289999 1.375 0.736 40 16 0
2.4189999 1.373 0.73799998 39 16 0
2.411 1.372 0.741 39 16 0
2.404 1.3710001 0.74400002 39 16 0
2.395 1.369 0.74599999 39 16 0
2.3929999 1.3710001 0.75 39 16 0
2.3870001 1.37 0.75300002 38 16 0
2.3789999 1.369 0.75599998 39 16 0
2.378 1.3710001 0.75999999 39 16 0
2.365 1.3660001 0.76099998 39 16 0
2.359 1.365 0.764 39 16 0
2.352 1.364 0.76700002 39 16 0
2.349 1.364 0.76999998 40 16 0
2.3380001 1.36 0.77100003 40 16 0
2.336 1.3609999 0.77499998 39 16 0
2.3269999 1.358 0.77700001 38 16 0
2.325 1.358 0.78100002 41 16 0
2.319 1.357 0.78299999 40 16 0
2.313 1.355 0.78600001 39 16 0
2.302 1.35 0.78600001 37 16 0
2.3 1.351 0.79000002 42 16 0
2.2980001 1.351 0.79400003 39 16 0
2.2909999 1.348 0.796 40 16 0
2.2869999 1.347 0.79799998 42 16 0
2.2850001 1.347 0.80199999 43 16 0
2.2750001 1.342 0.80299997 43 16 0
2.2690001 1.339 0.80500001 48 16 0
2.2639999 1.337 0.80699998 41 16 0
2.26 1.335 0.81 42 16 0
2.256 1.3329999 0.81199998 45 16 0
2.2550001 1.3329999 0.815 50 16 0
2.2490001 1.33 0.81699997 43 16 0
2.247 1.329 0.81999999 52 16 0
2.2409999 1.325 0.82200003 54 16 0
2.2360001 1.322 0.824 46 16 0
2.2320001 1.3200001 0.82599998 46 16 0
2.2279999 1.317 0.82800001 57 16 0
2.2249999 1.3150001 0.82999998 53 16 0
2.2190001 1.311 0.83099997 52 16 0
2.214 1.308 0.833 55 16 0
2.21 1.3049999 0.83399999 54 16 0
2.207 1.302 0.83700001 54 16 0
2.2060001 1.301 0.83999997 57 16 0
2.1989999 1.296 0.83999997 54 16 0
2.1989999 1.295 0.84299999 51 16 0
2.1960001 1.2920001 0.84500003 61 16 0
2.187 1.285 0.84399998 63 19 0
2.1819999 1.281 0.84500003 65 16 0
2.1819999 1.28 0.84799999 64 16 0
2.178 1.276 0.84899998 61 16 0
2.1760001 1.273 0.85100001 67 16 0
2.174 1.27 0.85299999 61 16 0
2.1689999 1.265 0.85299999 70 16 0
2.168 1.263 0.85500002 70 16 0
2.161 1.257 0.85500002 63 19 0
2.1619999 1.255 0.85699999 63 16 0
2.1559999 1.249 0.85699999 70 16 0
2.1559999 1.247 0.85900003 73 16 0
2.1530001 1.243 0.86000001 69 16 0
2.1500001 1.239 0.861 79 16 0
2.1500001 1.2359999 0.86299998 79 16 0
2.1489999 1.233 0.86400002 71 16 0
2.1429999 1.227 0.86299998 77 16 0
2.1440001 1.224 0.86500001 85 16 0
2.1429999 1.221 0.866 77 16 0
2.1389999 1.215 0.866 74 16 0
2.1400001 1.2130001 0.86799997 83 16 0
2.1370001 1.2079999 0.86799997 80 16 0
2.138 1.205 0.87 74 16 0
2.1329999 1.199 0.86900002 68 16 0
2.132 1.1950001 0.87 42 16 0
2.1329999 1.192 0.87099999 30 16 0
2.128 1.186 0.87 22 16 0
2.132 1.184 0.87300003 16 16 0
2.1300001 1.179 0.87300003 11 16 0
2.1259999 1.173 0.87199998 7 16 0
2.1170001 1.164 0.86900002 5 16 0
2.1210001 1.163 0.87099999 5 16 0
2.1229999 1.16 0.87300003 6 16 0
2.1199999 1.154 0.87199998 11 16 0
2.128 1.154 0.875 16 16 0
2.128 1.15 0.87599999 23 16 0
2.128 1.145 0.87599999 29 16 0
2.1259999 1.14 0.875 35 16 0
2.125 1.135 0.875 62 16 0
2.1229999 1.13 0.87400001 88 16 0
2.128 1.128 0.87599999 106 16 0
2.1289999 1.123 0.87599999 105 16 0
2.1270001 1.118 0.875 94 16 0
2.1240001 1.1109999 0.87400001 91 16 0
2.1240001 1.1059999 0.87400001 103 16 0
2.1259999 1.103 0.87400001 90 16 0
2.128 1.099 0.87400001 91 16 0
2.1289999 1.094 0.87400001 103 16 0
2.128 1.0880001 0.87300003 90 16 0
2.1300001 1.084 0.87300003 91 16 0
2.1289999 1.079 0.87199998 97 16 0
2.1340001 1.076 0.87300003 89 16 0
2.1359999 1.072 0.87300003 93 16 0
2.1359999 1.067 0.87199998 99 16 0
2.1400001 1.063 0.87300003 97 16 0
2.1400001 1.058 0.87099999 95 16 0
2.1400001 1.053 0.87 96 16 0
2.142 1.048 0.87 100 16 0
2.1470001 1.045 0.87 108 16 0
2.1470001 1.04 0.86900002 106 16 0
2.1489999 1.035 0.86799997 108 16 0
2.152 1.031 0.86799997 110 16 0
2.155 1.026 0.86699998 109 16 0
2.1559999 1.021 0.866 107 16 0
2.152 1.013 0.86299998 106 16 0
2.154 1.0089999 0.86199999 109 16 0
2.1600001 1.006 0.86199999 115 16 0
2.165 1.002 0.86199999 111 16 0
2.168 0.99699998 0.86199999 112 16 0
2.165 0.99000001 0.85799998 114 16 0
2.1670001 0.98500001 0.85699999 114 16 0
2.1719999 0.98199999 0.85699999 125 16 0
2.1719999 0.97600001 0.85500002 118 16 0
2.175 0.97100002 0.85399997 105 16 0
2.181 0.96799999 0.85399997 125 16 0
2.1830001 0.96200001 0.852 126 16 0
2.1860001 0.95700002 0.85100001 118 16 0
2.1919999 0.954 0.85000002 124 16 0
2.1960001 0.94999999 0.85000002 116 16 0
2.197 0.94400001 0.847 125 16 0
2.2019999 0.94 0.84600002 128 16 0
2.2030001 0.93400002 0.84399998 141 16 0
2.2079999 0.93000001 0.84299999 131 16 0
2.2130001 0.926 0.84200001 133 16 0
2.2130001 0.91900003 0.83899999 129 16 0
2.221 0.91600001 0.83899999 130 16 0
2.2219999 0.91100001 0.83700001 135 16 0
2.224 0.90499997 0.83399999 118 16 0
2.2309999 0.90100002 0.83399999 116 16 0
2.2379999 0.898 0.833 116 16 0
2.237 0.89099997 0.829 100 16 0
2.2390001 0.88599998 0.82700002 106 16 0
2.2490001 0.88300002 0.82700002 101 16 0
2.2479999 0.87599999 0.82300001 98 16 0
2.2539999 0.87199998 0.82200003 96 16 0
2.257 0.86699998 0.81999999 96 16 0
2.26 0.861 0.81699997 103 16 0
2.2690001 0.85799998 0.81699997 111 16 0
2.2720001 0.85299999 0.81400001 110 16 0
2.279 0.84899998 0.81300002 107 16 0
2.2809999 0.84299999 0.81 116 16 0
2.2869999 0.83899999 0.80800003 111 16 0
2.289 0.833 0.80500001 106 16 0
2.296 0.829 0.80400002 112 16 0
2.302 0.82499999 0.80199999 120 16 0
2.3069999 0.81999999 0.80000001 109 16 0
2.3150001 0.81599998 0.79799998 109 16 0
2.319 0.81099999 0.796 113 16 0
2.326 0.80699998 0.79400003 98 16 0
2.329 0.801 0.79100001 89 16 0
2.336 0.79699999 0.78899997 101 16 0
2.3399999 0.792 0.78600001 104 16 0
2.3429999 0.78600001 0.78299999 95 16 0
2.3529999 0.78299999 0.78200001 109 16 0
2.3529999 0.77600002 0.77700001 105 16 0
2.3659999 0.77399999 0.77700001 105 16 0
2.3699999 0.76899999 0.77399999 97 16 0
2.3789999 0.76499999 0.77200001 109 16 0
2.382 0.759 0.76899999 105 16 0
2.3870001 0.75400001 0.76599997 117 16 0
2.391 0.74900001 0.76300001 108 16 0
2.402 0.74599999 0.76200002 101 16 0
2.4059999 0.74000001 0.75800002 102 16 0
2.414 0.736 0.75599998 103 16 0
2.418 0.73000002 0.75199997 105 16 0
2.4230001 0.72500002 0.74900001 105 16 0
2.4330001 0.72100002 0.74699998 100 16 0
2.441 0.71700001 0.745 107 16 0
2.448 0.713 0.74199998 103 16 0
2.45 0.70599997 0.73699999 98 16 0
2.4630001 0.70300001 0.736 96 16 0
2.467 0.69800001 0.73199999 99 16 0
2.474 0.69300002 0.72899997 96 16 0
2.4809999 0.68800002 0.72600001 79 16 0
2.4879999 0.68400002 0.72299999 86 16 0
2.4920001 0.67799997 0.71899998 83 16 0
2.5 0.67400002 0.71600002 79 16 0
2.5109999 0.67000002 0.71399999 87 16 0
2.517 0.66500002 0.70999998 79 16 0
2.533 0.662 0.70899999 75 16 0
2.5369999 0.65700001 0.70499998 80 16 0
2.5409999 0.65100002 0.70099998 70 16 0
2.549 0.64600003 0.69700003 78 16 0
2.559 0.64200002 0.69499999 70 16 0
2.5680001 0.63700002 0.69099998 65 16 0
2.5739999 0.63200003 0.68699998 74 16 0
2.585 0.62800002 0.685 79 16 0
2.5910001 0.62300003 0.68099999 65 16 0
2.596 0.61699998 0.676 63 16 0
2.608 0.61299998 0.67299998 66 16 0
2.6110001 0.60699999 0.66900003 60 16 0
2.6170001 0.602 0.66399997 65 16 0
2.6270001 0.59799999 0.66100001 71 16 0
2.638 0.59299999 0.65799999 49 16 0
2.6429999 0.588 0.653 56 16 0
2.654 0.583 0.64999998 61 16 0
2.664 0.579 0.64600003 57 16 0
2.6730001 0.574 0.64200002 59 16 0
2.684 0.56999999 0.639 64 16 0
2.6919999 0.565 0.63499999 58 16 0
2.697 0.55900002 0.63 55 16 0
2.7119999 0.55500001 0.62699997 40 16 0
2.717 0.55000001 0.62199998 38 16 0
2.7260001 0.54500002 0.61799997 39 16 0
2.7390001 0.54000002 0.61400002 39 16 0
2.747 0.53500003 0.61000001 39 16 0
2.757 0.52999997 0.60600001 37 16 0
2.7720001 0.52700001 0.60299999 39 16 0
2.776 0.51999998 0.597 36 16 0
2.79 0.51599997 0.59399998 37 16 0
2.796 0.51099998 0.588 40 16 0
2.806 0.50599998 0.58399999 37 16 0
2.8169999 0.50099999 0.57999998 37 16 0
2.8380001 0.498 0.57700002 38 16 0
2.8380001 0.491 0.57099998 38 16 0
2.8499999 0.486 0.56599998 36 16 0
