# .PCD v0.7 - Point Cloud Data file format
VERSION 0.7
FIELDS x y z intensity tag line
SIZE 4 4 4 4 1 1
TYPE F F F F U U
COUNT 1 1 1 1 1 1
WIDTH 1370
HEIGHT 1
VIEWPOINT 0 0 0 1 0 0 0
POINTS 1370
DATA ascii
1.89 0.42500001 0.98900002 150 16 0
1.8839999 0.42399999 0.991 150 16 0
1.8789999 0.42399999 0.995 150 16 0
1.8710001 0.42199999 0.99599999 150 16 0
1.8660001 0.421 0.99900001 150 16 0
1.858 0.41999999 1 150 16 0
1.855 0.41999999 1.005 150 16 0
1.852 0.419 1.008 150 16 0
1.845 0.41800001 1.01 150 16 0
1.832 0.41499999 1.008 150 16 0
1.827 0.414 1.011 150 16 0
1.825 0.414 1.015 150 16 0
1.817 0.412 1.016 150 16 0
1.8150001 0.412 1.02 150 16 0
1.808 0.41 1.022 150 16 0
1.803 0.40900001 1.024 150 16 0
1.798 0.40799999 1.026 150 16 0
1.793 0.40700001 1.028 150 16 0
1.79 0.40599999 1.031 150 16 0
1.784 0.40400001 1.033 150 16 0
1.7819999 0.40400001 1.0369999 150 16 0
1.774 0.40200001 1.0369999 150 16 0
1.772 0.40099999 1.04 150 16 0
1.765 0.39899999 1.0420001 150 16 0
1.762 0.398 1.044 150 16 0
1.7539999 0.396 1.044 150 16 0
1.752 0.39500001 1.048 150 16 0
1.744 0.39199999 1.0470001 150 16 0
1.742 0.391 1.05 150 16 0
1.7410001 0.391 1.054 150 16 0
1.732 0.38800001 1.053 150 16 0
1.7180001 0.384 1.049 150 16 0
1.716 0.38299999 1.052 150 16 0
1.715 0.382 1.0549999 150 16 0
1.711 0.38 1.057 150 16 0
1.709 0.37900001 1.0599999 150 16 0
1.706 0.377 1.061 150 16 0
1.7029999 0.37599999 1.063 150 16 0
1.701 0.375 1.066 150 16 0
1.6950001 0.37200001 1.066 150 16 0
1.691 0.37 1.067 150 16 0
1.692 0.36899999 1.071 150 16 0
1.6900001 0.368 1.074 150 16 0
1.683 0.36500001 1.073 150 16 0
1.682 0.36399999 1.075 150 16 0
1.678 0.36199999 1.076 150 16 0
1.677 0.36000001 1.079 150 16 0
1.6720001 0.35800001 1.0779999 150 16 0
1.67 0.35600001 1.081 150 16 0
1.669 0.35499999 1.0829999 150 16 0
1.6619999 0.352 1.081 150 19 0
1.66 0.34999999 1.0829999 150 16 0
1.659 0.34799999 1.085 150 16 0
1.6569999 0.34599999 1.086 150 16 0
1.654 0.34400001 1.087 150 16 0
1.655 0.34299999 1.09 150 16 0
1.645 0.33899999 1.086 150 18 0
1.643 0.33700001 1.087 150 16 0
1.6440001 0.336 1.09 150 16 0
1.642 0.33399999 1.091 150 16 0
1.64 0.33199999 1.092 150 16 0
1.638 0.329 1.092 150 16 0
1.637 0.32699999 1.094 150 16 0
1.632 0.32499999 1.092 150 16 0
1.631 0.32300001 1.0930001 150 16 0
1.6289999 0.31999999 1.094 150 16 0
1.63 0.31900001 1.096 150 16 0
1.628 0.31600001 1.096 150 16 0
1.628 0.31400001 1.097 150 16 0
1.6289999 0.31200001 1.1 150 16 0
1.627 0.31 1.1 150 16 0
1.624 0.30700001 1.098 150 16 0
1.623 0.30500001 1.099 150 16 0
1.623 0.303 1.1 150 16 0
1.623 0.301 1.101 150 16 0
1.625 0.29899999 1.103 150 16 0
1.622 0.296 1.102 150 16 0
1.623 0.294 1.103 150 16 0
1.6210001 0.292 1.103 150 16 0
1.619 0.289 1.102 150 16 0
1.6210001 0.287 1.104 150 16 0
1.622 0.285 1.105 150 16 0
1.623 0.28299999 1.1059999 150 16 0
1.623 0.28099999 1.105 150 16 0
1.623 0.278 1.1059999 150 16 0
1.618 0.27500001 1.102 150 16 0
1.6210001 0.273 1.104 150 16 0
1.614 0.27000001 1.099 150 19 0
1.614 0.26699999 1.099 150 16 0
1.6210001 0.266 1.104 150 19 0
1.615 0.26300001 1.099 150 16 0
1.626 0.26199999 1.105 150 16 0
1.624 0.259 1.104 150 16 0
1.628 0.257 1.105 150 16 0
1.628 0.255 1.105 150 16 0
1.626 0.252 1.102 150 16 0
1.619 0.248 1.097 150 16 0
1.63 0.24699999 1.103 150 16 0
1.625 0.244 1.099 150 16 0
1.6289999 0.242 1.1 150 16 0
1.632 0.23999999 1.101 150 16 0
1.6339999 0.23800001 1.101 150 16 0
1.6339999 0.235 1.099 150 16 0
1.638 0.233 1.101 150 16 0
1.6390001 0.23100001 1.1 150 16 0
1.638 0.228 1.097 150 16 0
1.641 0.226 1.098 150 16 0
1.64 0.223 1.095 150 16 0
1.643 0.221 1.095 150 16 0
1.642 0.21799999 1.092 150 16 0
1.647 0.21600001 1.0930001 150 16 0
1.65 0.214 1.0930001 150 16 0
1.652 0.211 1.092 150 16 0
1.653 0.20900001 1.09 150 16 0
1.654 0.206 1.089 150 16 0
1.656 0.204 1.087 150 16 0
1.656 0.20100001 1.085 150 16 0
1.659 0.199 1.084 150 16 0
1.66 0.197 1.082 150 16 0
1.661 0.19400001 1.08 150 16 0
1.67 0.192 1.0829999 150 16 0
1.671 0.19 1.081 150 16 0
1.675 0.18799999 1.08 150 16 0
1.676 0.185 1.0779999 150 16 0
1.678 0.183 1.076 150 16 0
1.681 0.18099999 1.074 150 16 0
1.686 0.178 1.074 150 16 0
1.691 0.176 1.074 150 16 0
1.694 0.17399999 1.072 150 16 0
1.697 0.17200001 1.071 150 16 0
1.698 0.169 1.068 150 16 0
1.7 0.167 1.0650001 150 16 0
1.704 0.16500001 1.064 150 16 0
1.706 0.162 1.062 150 16 0
1.715 0.161 1.063 150 16 0
1.717 0.15800001 1.061 150 16 0
1.726 0.156 1.062 150 16 0
1.728 0.154 1.059 150 16 0
1.73 0.152 1.056 150 16 0
1.735 0.15000001 1.0549999 150 16 0
1.74 0.148 1.054 150 16 0
1.742 0.145 1.051 150 16 0
1.745 0.14300001 1.048 150 16 0
1.75 0.141 1.0470001 150 16 0
1.752 0.139 1.044 150 16 0
1.755 0.13699999 1.041 150 16 0
1.7589999 0.134 1.039 150 16 0
1.763 0.132 1.036 150 16 0
1.763 0.13 1.0319999 150 16 0
1.771 0.12800001 1.0319999 150 16 0
1.788 0.127 1.0369999 150 19 0
1.788 0.124 1.0319999 150 16 0
1.796 0.123 1.0319999 150 16 0
1.799 0.12 1.028 150 16 0
1.809 0.119 1.029 150 16 0
1.809 0.116 1.023 150 16 0
1.813 0.114 1.021 150 16 0
1.823 0.113 1.021 150 16 0
1.831 0.111 1.021 150 16 0
1.8329999 0.109 1.016 150 16 0
1.839 0.107 1.0140001 150 16 0
1.8430001 0.105 1.011 150 16 0
1.849 0.103 1.0089999 150 16 0
1.854 0.101 1.006 150 16 0
1.862 0.098999999 1.005 150 16 0
1.865 0.097000003 1.001 150 16 0
1.878 0.096000001 1.002 150 16 0
1.883 0.093999997 0.99900001 150 16 0
1.885 0.092 0.99400002 150 16 0
1.891 0.090000004 0.99199998 150 16 0
1.902 0.088 0.991 150 16 0
1.908 0.086999997 0.98900002 150 16 0
1.911 0.085000001 0.98400003 150 16 0
1.916 0.082999997 0.98100001 150 16 0
1.925 0.081 0.98000002 150 16 0
1.933 0.079999998 0.97799999 150 16 0
1.938 0.078000002 0.97399998 150 16 0
1.946 0.075999998 0.972 150 16 0
1.9529999 0.074000001 0.96899998 150 16 0
1.959 0.072999999 0.96600002 150 16 0
1.967 0.071000002 0.96399999 150 16 0
1.973 0.068999998 0.95999998 150 16 0
1.982 0.068000004 0.958 150 16 0
1.988 0.066 0.95499998 150 16 0
1.995 0.064999998 0.95200002 150 16 0
1.999 0.063000001 0.94700003 150 16 0
2.006 0.061000001 0.94400001 150 16 0
2.0190001 0.059999999 0.94300002 150 16 0
2.0239999 0.057999998 0.93900001 147 16 0
2.04 0.057 0.94 150 16 0
2.0369999 0.055 0.93199998 150 16 0
2.0510001 0.054000001 0.93199998 150 16 0
2.0569999 0.052000001 0.92799997 143 16 0
2.0680001 0.050999999 0.926 150 16 0
2.072 0.048999999 0.921 150 16 0
2.082 0.048 0.91799998 150 16 0
2.0869999 0.046 0.91299999 150 16 0
2.1010001 0.045000002 0.91299999 150 16 0
2.1070001 0.044 0.90799999 146 16 0
2.1140001 0.041999999 0.90399998 144 16 0
2.1210001 0.041000001 0.89999998 149 16 0
2.128 0.039000001 0.89600003 133 16 0
2.1340001 0.037999999 0.89200002 136 16 0
2.145 0.037 0.889 132 16 0
2.155 0.035999998 0.88599998 127 16 0
2.161 0.034000002 0.88099998 122 16 0
2.1700001 0.033 0.87800002 123 16 0
2.1789999 0.032000002 0.87400001 121 16 0
2.187 0.029999999 0.87 130 16 0
2.1989999 0.028999999 0.86699998 127 16 0
2.2079999 0.028000001 0.86299998 141 16 0
2.2130001 0.027000001 0.85799998 120 16 0
2.224 0.025 0.85399997 123 16 0
2.234 0.024 0.85100001 111 16 0
2.2409999 0.023 0.84600002 96 16 0
2.25 0.022 0.84200001 100 16 0
2.2639999 0.021 0.83899999 138 16 0
2.273 0.02 0.83499998 122 16 0
2.2809999 0.018999999 0.82999998 123 16 0
2.293 0.017000001 0.82700002 123 16 0
2.3010001 0.016000001 0.82200003 116 16 0
2.309 0.015 0.81699997 111 16 0
2.323 0.014 0.81400001 112 16 0
2.3329999 0.013 0.81 112 16 0
2.3429999 0.012 0.80500001 114 16 0
2.349 0.011 0.80000001 117 16 0
2.358 0.0099999998 0.79500002 111 16 0
2.368 0.0089999996 0.79000002 114 16 0
2.381 0.0080000004 0.787 124 16 0
2.3889999 0.0070000002 0.78100002 123 16 0
2.395 0.0060000001 0.77499998 139 16 0
2.408 0.0049999999 0.77100003 122 16 0
2.415 0.0040000002 0.76499999 110 16 0
2.4219999 0.003 0.759 119 16 0
2.4360001 0.0020000001 0.755 121 16 0
2.444 0.0020000001 0.75 119 16 0
2.4560001 0.001 0.745 126 16 0
2.4690001 0 0.741 129 16 0
2.48 0 0.736 132 16 0
2.4879999 -0.001 0.73000002 79 16 0
2.507 -0.001 0.727 97 16 0
2.5139999 -0.0020000001 0.72100002 88 16 0
2.52 -0.003 0.71399999 70 16 0
2.5380001 -0.0040000002 0.70999998 90 16 0
2.5539999 -0.0040000002 0.70599997 91 16 0
2.5650001 -0.0049999999 0.70099998 76 16 0
2.5799999 -0.0060000001 0.69599998 72 16 0
2.589 -0.0070000002 0.69 64 16 0
2.6059999 -0.0070000002 0.68599999 72 16 0
2.6210001 -0.0080000004 0.68099999 36 16 0
2.6300001 -0.0089999996 0.67500001 33 16 0
2.642 -0.0089999996 0.66900003 31 16 0
2.6619999 -0.0099999998 0.66500002 35 16 0
2.6670001 -0.0099999998 0.65700001 35 16 0
2.681 -0.011 0.65200001 35 16 0
2.687 -0.011 0.64399999 34 16 0
2.704 -0.012 0.639 33 16 0
2.7179999 -0.013 0.634 31 16 0
2.7320001 -0.013 0.62800002 33 16 0
2.7460001 -0.014 0.62199998 33 16 0
2.763 -0.014 0.61699998 34 16 0
2.773 -0.015 0.61000001 34 16 0
2.7839999 -0.015 0.60299999 32 16 0
2.799 -0.015 0.597 31 16 0
2.8199999 -0.016000001 0.59200001 33 16 0
2.8269999 -0.016000001 0.58399999 31 16 0
2.8399999 -0.017000001 0.57700002 31 16 0
2.858 -0.017000001 0.57099998 37 16 0
2.8740001 -0.017000001 0.565 35 16 0
2.888 -0.017999999 0.55800003 32 16 0
2.902 -0.017999999 0.551 31 16 0
2.915 -0.017999999 0.54400003 31 16 0
2.934 -0.018999999 0.53799999 30 16 0
2.948 -0.018999999 0.53100002 32 16 0
2.9649999 -0.018999999 0.52399999 30 16 0
2.983 -0.018999999 0.51700002 31 16 0
2.9990001 -0.02 0.50999999 32 16 0
3.0109999 -0.02 0.50300002 31 16 0
3.0280001 -0.02 0.495 31 16 0
3.046 -0.02 0.48800001 31 16 0
3.059 -0.02 0.47999999 30 16 0
3.079 -0.02 0.47299999 31 16 0
3.099 -0.02 0.46599999 32 16 0
3.1170001 -0.02 0.45899999 31 16 0
3.1370001 -0.021 0.45100001 32 16 0
3.1489999 -0.021 0.44299999 31 16 0
3.1700001 -0.021 0.435 32 16 0
3.188 -0.021 0.428 33 16 0
3.2090001 -0.021 0.41999999 33 16 0
3.2290001 -0.021 0.412 33 16 0
3.24 -0.021 0.403 33 16 0
3.2690001 -0.021 0.396 32 16 0
3.2839999 -0.02 0.38699999 32 16 0
3.306 -0.02 0.37900001 32 16 0
3.3210001 -0.02 0.36899999 33 16 0
3.3399999 -0.02 0.361 29 16 0
3.3670001 -0.02 0.35299999 30 16 0
3.3829999 -0.02 0.34299999 39 16 0
3.3859999 -0.018999999 0.333 102 16 0
3.3870001 -0.018999999 0.322 76 16 0
3.3789999 -0.017999999 0.31 67 16 0
3.3699999 -0.017999999 0.29800001 65 16 0
3.369 -0.017999999 0.287 76 16 0
3.3640001 -0.017000001 0.27500001 74 16 0
3.359 -0.017000001 0.264 77 16 0
3.3559999 -0.016000001 0.25299999 80 16 0
3.348 -0.016000001 0.242 90 16 0
3.345 -0.015 0.23 85 16 0
3.3380001 -0.014 0.219 93 16 0
3.3329999 -0.014 0.208 109 16 0
3.3280001 -0.013 0.197 115 16 0
3.323 -0.013 0.186 114 16 0
3.3199999 -0.012 0.175 120 16 0
3.312 -0.011 0.164 126 16 0
3.3039999 -0.011 0.153 119 16 0
3.3 -0.0099999998 0.142 128 16 0
3.2969999 -0.0089999996 0.131 117 16 0
3.29 -0.0089999996 0.12 136 16 0
3.2920001 -0.0080000004 0.11 44 16 0
3.3 -0.0070000002 0.098999999 24 16 0
3.3 -0.0060000001 0.089000002 17 16 0
3.3039999 -0.0060000001 0.078000002 16 16 0
3.2980001 -0.0049999999 0.067000002 16 16 0
3.296 -0.0040000002 0.056000002 16 16 0
3.2939999 -0.003 0.046 16 16 0
3.2839999 -0.0020000001 0.035 16 16 0
3.286 -0.0020000001 0.024 16 16 0
3.286 -0.001 0.014 16 16 0
3.279 0 0.003 16 16 0
3.279 0 -0.0060000001 15 16 0
3.279 0.001 -0.017000001 16 16 0
3.2739999 0.0020000001 -0.028000001 16 16 0
3.2720001 0.003 -0.037999999 16 16 0
3.2690001 0.0040000002 -0.048 16 16 0
3.2650001 0.0049999999 -0.059 16 16 0
3.2690001 0.0060000001 -0.07 16 16 0
3.2620001 0.0070000002 -0.079999998 16 16 0
3.2609999 0.0080000004 -0.090000004 16 16 0
3.2609999 0.0089999996 -0.101 16 16 0
3.2579999 0.0099999998 -0.111 17 16 0
3.2539999 0.011 -0.122 17 16 0
3.2550001 0.012 -0.132 18 16 0
3.257 0.014 -0.14300001 19 16 0
3.2509999 0.015 -0.153 19 16 0
3.2490001 0.016000001 -0.164 22 16 0
3.25 0.017000001 -0.17399999 25 16 0
3.244 0.017999999 -0.184 28 16 0
3.2490001 0.018999999 -0.19499999 32 16 0
3.2449999 0.021 -0.205 36 16 0
3.2360001 0.022 -0.215 41 16 0
3.233 0.023 -0.22499999 44 16 0
3.2309999 0.024 -0.235 49 16 0
3.2219999 0.026000001 -0.245 51 16 0
3.22 0.027000001 -0.255 62 16 0
3.2149999 0.028000001 -0.26499999 62 16 0
3.2 0.029999999 -0.27399999 51 16 0
3.1989999 0.030999999 -0.285 51 16 0
3.1900001 0.032000002 -0.294 54 16 0
3.1800001 0.034000002 -0.303 56 16 0
3.178 0.035 -0.31299999 62 16 0
3.175 0.035999998 -0.32300001 73 16 0
3.1659999 0.037999999 -0.333 53 16 0
3.1630001 0.039000001 -0.34200001 49 16 0
3.1600001 0.041000001 -0.352 45 16 0
3.1530001 0.041999999 -0.36199999 40 16 0
3.151 0.044 -0.37200001 38 16 0
3.1459999 0.045000002 -0.38100001 36 16 0
3.1400001 0.046 -0.391 36 16 0
3.138 0.048 -0.40099999 36 16 0
3.1340001 0.050000001 -0.41 39 16 0
3.131 0.050999999 -0.41999999 40 16 0
3.1240001 0.052999999 -0.42899999 41 16 0
3.1199999 0.054000001 -0.43900001 45 16 0
3.1040001 0.056000002 -0.447 46 16 0
3.1010001 0.057 -0.456 49 16 0
3.098 0.059 -0.46599999 52 16 0
3.0940001 0.061000001 -0.47499999 61 16 0
3.092 0.061999999 -0.48500001 50 16 0
3.086 0.064000003 -0.49399999 55 16 0
3.075 0.064999998 -0.50199997 49 16 0
3.073 0.067000002 -0.51200002 50 16 0
3.0669999 0.068999998 -0.52100003 54 16 0
3.063 0.071000002 -0.52999997 69 16 0
3.0599999 0.071999997 -0.53899997 72 16 0
3.056 0.074000001 -0.54799998 67 16 0
3.05 0.075999998 -0.55699998 66 16 0
3.043 0.078000002 -0.56599998 108 16 0
3.0380001 0.079999998 -0.57499999 116 16 0
3.0309999 0.081 -0.583 116 16 0
3.0280001 0.082999997 -0.59200001 111 16 0
3.0209999 0.085000001 -0.60100001 116 16 0
3.0190001 0.086999997 -0.61000001 114 16 0
3.013 0.089000002 -0.61900002 117 16 0
3.013 0.090999998 -0.62900001 110 16 0
3.003 0.093000002 -0.63599998 119 16 0
3.003 0.094999999 -0.64600003 110 16 0
2.9909999 0.096000001 -0.653 95 16 0
2.9890001 0.097999997 -0.66299999 117 16 0
2.987 0.1 -0.67199999 94 16 0
2.9809999 0.102 -0.68000001 98 16 0
2.973 0.104 -0.68800002 95 16 0
2.971 0.106 -0.69700003 97 16 0
2.9690001 0.109 -0.70599997 86 16 0
2.96 0.11 -0.71399999 98 16 0
2.96 0.113 -0.72399998 107 16 0
2.954 0.115 -0.73199999 98 16 0
2.95 0.117 -0.74000001 105 16 0
2.944 0.119 -0.74800003 98 16 0
2.9319999 0.121 -0.755 101 16 0
2.9300001 0.123 -0.764 100 16 0
2.928 0.125 -0.773 115 16 0
2.9219999 0.12800001 -0.78100002 105 16 0
2.9159999 0.13 -0.78899997 105 16 0
2.9100001 0.132 -0.79699999 101 16 0
2.908 0.134 -0.80500001 114 16 0
2.9000001 0.13600001 -0.81300002 99 16 0
2.895 0.139 -0.82099998 101 16 0
2.892 0.141 -0.829 119 16 0
2.8889999 0.14300001 -0.838 113 16 0
2.8829999 0.146 -0.84500003 112 16 0
2.881 0.148 -0.85399997 108 16 0
2.8729999 0.15000001 -0.861 114 16 0
2.868 0.153 -0.86900002 111 16 0
2.8629999 0.155 -0.87699997 123 16 0
2.859 0.15800001 -0.88499999 113 16 0
2.8570001 0.16 -0.89300001 112 16 0
2.8499999 0.163 -0.90100002 125 16 0
2.8440001 0.16500001 -0.90799999 123 16 0
2.8429999 0.168 -0.917 124 16 0
2.829 0.17 -0.92199999 121 16 0
2.822 0.17200001 -0.92799997 138 16 0
2.819 0.175 -0.93599999 125 16 0
2.816 0.177 -0.94499999 150 16 0
2.8110001 0.18000001 -0.95200002 150 16 0
2.8069999 0.183 -0.95999998 140 16 0
2.8039999 0.185 -0.96799999 138 16 0
2.8010001 0.18799999 -0.97600001 143 16 0
2.8010001 0.191 -0.98500001 86 16 0
2.8199999 0.19499999 -1.001 23 16 0
3.684 0.259 -1.319 6 17 0
3.0510001 0.21799999 -1.102 0 17 0
3.0190001 0.219 -1.1 0 16 0
3.0109999 0.222 -1.107 0 16 0
3.046 0.228 -1.13 0 18 0
3.066 0.233 -1.147 0 16 0
3.0780001 0.237 -1.1619999 0 16 0
3.0309999 0.237 -1.153 0 16 0
3.003 0.23800001 -1.153 0 16 0
2.8440001 0.229 -1.101 0 16 0
2.7709999 0.227 -1.081 22 16 0
2.7479999 0.228 -1.081 88 16 0
2.7290001 0.23 -1.082 141 16 0
2.7249999 0.233 -1.09 128 16 0
2.72 0.236 -1.096 140 16 0
2.717 0.23899999 -1.104 150 16 0
2.7130001 0.242 -1.11 150 16 0
2.704 0.245 -1.115 150 16 0
2.698 0.24699999 -1.1210001 150 16 0
2.6949999 0.25099999 -1.1289999 150 16 0
2.6889999 0.25299999 -1.135 150 16 0
2.687 0.257 -1.142 150 16 0
2.684 0.25999999 -1.149 150 16 0
2.678 0.26300001 -1.155 150 16 0
2.675 0.266 -1.1619999 150 16 0
2.6659999 0.26899999 -1.1670001 150 16 0
2.6630001 0.27200001 -1.174 150 16 0
2.6589999 0.27599999 -1.1799999 150 16 0
2.6559999 0.27900001 -1.187 150 16 0
2.6530001 0.28200001 -1.194 150 16 0
2.6459999 0.285 -1.199 150 16 0
2.6429999 0.289 -1.205 150 16 0
2.635 0.292 -1.21 150 16 0
2.632 0.29499999 -1.216 150 16 0
2.628 0.29899999 -1.223 150 16 0
2.6300001 0.303 -1.2309999 150 16 0
2.622 0.30599999 -1.235 150 16 0
2.618 0.30899999 -1.242 150 16 0
2.6129999 0.31200001 -1.247 150 16 0
2.608 0.31600001 -1.252 150 16 0
2.6029999 0.31900001 -1.258 150 16 0
2.6040001 0.32300001 -1.266 150 16 0
2.5940001 0.32600001 -1.2690001 150 16 0
2.5940001 0.33000001 -1.277 150 16 0
2.5880001 0.333 -1.281 150 16 0
2.5840001 0.33700001 -1.286 150 16 0
2.5780001 0.34 -1.291 150 16 0
2.569 0.34299999 -1.294 150 16 0
2.5650001 0.34599999 -1.299 150 16 0
2.562 0.34999999 -1.3049999 150 16 0
2.559 0.354 -1.3099999 150 16 0
2.553 0.35699999 -1.3150001 150 16 0
2.552 0.361 -1.321 150 16 0
2.549 0.36500001 -1.327 150 16 0
2.5450001 0.36899999 -1.332 150 16 0
2.5420001 0.373 -1.337 150 16 0
2.5320001 0.375 -1.339 150 16 0
2.53 0.37900001 -1.345 150 16 0
2.529 0.384 -1.351 150 16 0
2.52 0.38699999 -1.353 150 16 0
2.52 0.391 -1.36 150 16 0
2.5120001 0.39399999 -1.362 150 16 0
2.51 0.398 -1.367 150 16 0
2.506 0.40200001 -1.3710001 150 16 0
2.5020001 0.405 -1.376 150 16 0
2.4979999 0.40900001 -1.38 150 16 0
2.4949999 0.41299999 -1.3839999 147 16 0
2.493 0.417 -1.3890001 150 16 0
2.4860001 0.41999999 -1.392 150 16 0
2.4820001 0.42399999 -1.396 146 16 0
2.4779999 0.428 -1.399 146 16 0
2.4749999 0.43200001 -1.403 144 16 0
2.473 0.43599999 -1.408 143 16 0
2.47 0.44 -1.4119999 141 16 0
2.467 0.44400001 -1.416 143 16 0
2.4630001 0.447 -1.419 137 16 0
2.461 0.45199999 -1.424 127 16 0
2.4579999 0.456 -1.428 136 16 0
2.45 0.45899999 -1.428 127 16 0
2.4460001 0.46200001 -1.431 126 16 0
2.4430001 0.46599999 -1.4349999 136 16 0
2.4400001 0.47 -1.438 140 16 0
2.437 0.47400001 -1.442 139 16 0
2.4349999 0.47799999 -1.4450001 133 16 0
2.4319999 0.48199999 -1.448 143 16 0
2.4289999 0.486 -1.451 144 16 0
2.4230001 0.48899999 -1.452 149 16 0
2.4230001 0.49399999 -1.457 150 16 0
2.4200001 0.498 -1.459 150 16 0
2.4130001 0.50099999 -1.46 150 16 0
2.4089999 0.505 -1.461 149 16 0
2.4059999 0.509 -1.464 150 16 0
2.402 0.51200002 -1.466 144 16 0
2.401 0.51599997 -1.469 144 16 0
2.3989999 0.51999998 -1.472 147 16 0
2.395 0.52399999 -1.473 144 16 0
2.391 0.52700001 -1.474 144 16 0
2.3900001 0.53200001 -1.478 144 16 0
2.388 0.53600001 -1.48 147 16 0
2.3770001 0.53799999 -1.476 138 16 0
2.3840001 0.54400003 -1.484 148 16 0
2.3729999 0.546 -1.48 137 16 0
2.375 0.55000001 -1.485 131 16 0
2.3729999 0.55400002 -1.4859999 135 16 0
2.3710001 0.55800003 -1.488 141 16 0
2.3640001 0.56099999 -1.4859999 135 16 0
2.3629999 0.565 -1.488 126 16 0
2.3610001 0.56900001 -1.49 137 16 0
2.358 0.57200003 -1.49 132 16 0
2.358 0.57599998 -1.493 141 16 0
2.352 0.579 -1.4910001 126 16 0
2.352 0.583 -1.493 133 16 0
2.349 0.58700001 -1.494 129 16 0
2.349 0.59100002 -1.495 143 16 0
2.346 0.59399998 -1.495 141 16 0
2.345 0.59799999 -1.4960001 136 16 0
2.3440001 0.602 -1.497 134 16 0
2.339 0.60399997 -1.495 131 16 0
2.3380001 0.60799998 -1.4960001 136 16 0
2.3340001 0.611 -1.495 138 16 0
2.3310001 0.61400002 -1.494 130 16 0
2.3340001 0.61900002 -1.497 133 16 0
2.3329999 0.62199998 -1.497 122 16 0
2.3280001 0.625 -1.495 127 16 0
2.3269999 0.62800002 -1.495 122 16 0
2.3280001 0.63200003 -1.4960001 142 16 0
2.325 0.63499999 -1.494 133 16 0
2.325 0.639 -1.494 123 16 0
2.3239999 0.64200002 -1.494 130 16 0
2.322 0.64600003 -1.493 128 16 0
2.322 0.64899999 -1.492 150 16 0
2.322 0.65200001 -1.492 150 16 0
2.3180001 0.65499997 -1.489 146 16 0
2.3199999 0.65899998 -1.49 148 16 0
2.3199999 0.662 -1.489 150 16 0
2.3150001 0.66399997 -1.485 150 16 0
2.319 0.66799998 -1.488 150 16 0
2.3139999 0.67000002 -1.483 148 16 0
2.3139999 0.67299998 -1.482 150 16 0
2.3139999 0.676 -1.4809999 150 16 0
2.312 0.67900002 -1.479 150 16 0
2.3110001 0.68099999 -1.477 150 16 0
2.313 0.685 -1.476 150 16 0
2.309 0.68599999 -1.472 149 16 0
2.309 0.68900001 -1.47 150 16 0
2.312 0.69300002 -1.47 150 16 0
2.309 0.69499999 -1.467 150 16 0
2.3069999 0.69700003 -1.4630001 150 16 0
2.3069999 0.699 -1.461 150 16 0
2.3080001 0.70200002 -1.459 150 16 0
2.3080001 0.704 -1.457 150 16 0
2.309 0.70700002 -1.455 150 16 0
2.3099999 0.70899999 -1.4529999 150 16 0
2.3010001 0.70899999 -1.4450001 150 19 0
2.3110001 0.71399999 -1.448 150 16 0
2.3099999 0.71600002 -1.4450001 150 16 0
2.3110001 0.71899998 -1.442 150 16 0
2.3110001 0.72100002 -1.439 150 16 0
2.3080001 0.722 -1.434 150 16 0
2.306 0.72299999 -1.429 150 16 0
2.3069999 0.72500002 -1.426 150 16 0
2.3080001 0.727 -1.423 150 16 0
2.309 0.72899997 -1.42 150 16 0
2.309 0.73000002 -1.416 150 16 0
2.3099999 0.73199999 -1.413 150 16 0
2.3110001 0.73400003 -1.41 150 16 0
2.312 0.736 -1.406 150 16 0
2.313 0.73799998 -1.403 150 16 0
2.312 0.73900002 -1.398 150 16 0
2.3169999 0.741 -1.397 150 16 0
2.3180001 0.74299997 -1.393 150 16 0
2.3150001 0.74299997 -1.386 150 16 0
2.319 0.745 -1.3839999 150 16 0
2.3210001 0.74699998 -1.381 150 16 0
2.3210001 0.74800003 -1.376 150 16 0
2.3239999 0.74900001 -1.373 150 16 0
2.3239999 0.75 -1.368 150 16 0
2.3239999 0.75099999 -1.363 150 16 0
2.3269999 0.75199997 -1.36 150 16 0
2.3299999 0.75400001 -1.3559999 150 16 0
2.3299999 0.75400001 -1.351 150 16 0
2.332 0.755 -1.347 150 16 0
2.335 0.75700003 -1.3430001 150 16 0
2.3369999 0.75700003 -1.3380001 150 16 0
2.335 0.75700003 -1.331 150 16 0
2.3410001 0.759 -1.329 150 16 0
2.3429999 0.75999999 -1.325 150 16 0
2.346 0.76099998 -1.321 150 16 0
2.336 0.75800002 -1.309 150 16 0
2.3440001 0.75999999 -1.308 150 16 0
2.348 0.76099998 -1.3049999 150 16 0
2.352 0.76200002 -1.3 150 16 0
2.345 0.759 -1.29 150 16 0
2.3559999 0.76200002 -1.29 150 16 0
2.3510001 0.75999999 -1.281 150 16 0
2.3529999 0.76099998 -1.276 150 16 0
2.3559999 0.76099998 -1.271 150 16 0
2.359 0.76099998 -1.267 150 16 0
2.3610001 0.76099998 -1.262 150 16 0
2.3610001 0.75999999 -1.255 150 16 0
2.368 0.76200002 -1.252 150 16 0
2.369 0.76099998 -1.2460001 150 16 0
2.372 0.76099998 -1.2410001 150 16 0
2.375 0.76099998 -1.2359999 150 16 0
2.3759999 0.75999999 -1.23 150 16 0
2.3800001 0.75999999 -1.225 150 16 0
2.3829999 0.75999999 -1.22 150 16 0
2.385 0.759 -1.214 150 16 0
2.388 0.759 -1.209 150 16 0
2.392 0.75800002 -1.204 150 16 0
2.3940001 0.75800002 -1.198 150 16 0
2.3970001 0.75700003 -1.192 150 16 0
2.401 0.75700003 -1.187 150 16 0
2.4030001 0.75599998 -1.181 150 16 0
2.405 0.75400001 -1.175 150 16 0
2.4100001 0.75400001 -1.17 150 16 0
2.4119999 0.75300002 -1.164 150 16 0
2.4170001 0.75300002 -1.159 150 16 0
2.4200001 0.75199997 -1.153 150 16 0
2.4219999 0.75 -1.147 150 16 0
2.427 0.75 -1.142 150 16 0
2.4289999 0.74800003 -1.136 150 16 0
2.4319999 0.74699998 -1.1289999 150 16 0
2.4360001 0.74599999 -1.124 150 16 0
2.4389999 0.74400002 -1.118 150 16 0
2.441 0.74299997 -1.112 150 16 0
2.4449999 0.74199998 -1.1059999 150 16 0
2.448 0.74000001 -1.1 150 16 0
2.4519999 0.73900002 -1.094 150 16 0
2.4549999 0.73699999 -1.0880001 150 16 0
2.4579999 0.73500001 -1.082 150 16 0
2.4660001 0.73500001 -1.077 150 16 0
2.4649999 0.73199999 -1.0700001 150 16 0
2.47 0.73100001 -1.064 150 16 0
2.4760001 0.73000002 -1.059 150 16 0
2.4779999 0.72799999 -1.053 150 16 0
2.483 0.72600001 -1.0470001 150 16 0
2.4849999 0.72399998 -1.04 150 16 0
2.4890001 0.722 -1.034 150 16 0
2.4949999 0.72100002 -1.029 150 16 0
2.4979999 0.71799999 -1.022 150 16 0
2.4990001 0.71499997 -1.015 150 16 0
2.5020001 0.713 -1.008 150 16 0
2.507 0.71100003 -1.003 150 16 0
2.513 0.70999998 -0.99699998 150 16 0
2.5239999 0.70999998 -0.99400002 39 16 0
2.527 0.70700002 -0.98699999 3 16 0
2.6159999 0.72799999 -1.0140001 0 17 0
2.6199999 0.72600001 -1.007 0 16 0
2.612 0.72000003 -0.99599999 0 16 0
2.6159999 0.71700001 -0.99000001 0 16 0
2.612 0.713 -0.98000002 0 16 0
2.6099999 0.708 -0.97100002 0 16 0
2.638 0.71200001 -0.97399998 0 19 0
2.6270001 0.70599997 -0.96200001 0 16 0
2.6370001 0.704 -0.95700002 0 16 0
2.6400001 0.70099998 -0.94999999 0 16 0
2.625 0.69300002 -0.93699998 0 16 0
2.5810001 0.67799997 -0.91299999 4 16 0
2.5829999 0.67400002 -0.90600002 67 16 0
2.5829999 0.671 -0.89899999 150 16 0
2.5869999 0.66799998 -0.89200002 150 16 0
2.5899999 0.66399997 -0.88499999 150 16 0
2.5929999 0.66100001 -0.87800002 150 16 0
2.598 0.65799999 -0.87199998 150 16 0
2.6010001 0.65499997 -0.86500001 150 16 0
2.6099999 0.653 -0.86000001 150 16 0
2.6099999 0.64899999 -0.85299999 150 16 0
2.6159999 0.64600003 -0.847 150 16 0
2.622 0.64300001 -0.84100002 150 16 0
2.622 0.639 -0.833 150 16 0
2.6270001 0.63599998 -0.82700002 150 16 0
2.6340001 0.63300002 -0.82099998 150 16 0
2.635 0.62900001 -0.81300002 150 16 0
2.6429999 0.62699997 -0.80800003 150 16 0
2.645 0.62300003 -0.801 150 16 0
2.655 0.62 -0.796 150 16 0
2.664 0.61799997 -0.79100001 150 16 0
2.664 0.61299998 -0.78299999 150 16 0
2.6670001 0.61000001 -0.77600002 150 16 0
2.6730001 0.60600001 -0.76999998 150 16 0
2.6760001 0.602 -0.76300001 150 16 0
2.6819999 0.59899998 -0.75700003 150 16 0
2.6889999 0.59600002 -0.75099999 150 16 0
2.691 0.59200001 -0.74400002 150 16 0
2.694 0.588 -0.73699999 150 16 0
2.701 0.58399999 -0.73100001 150 16 0
2.704 0.57999998 -0.72399998 150 16 0
2.7060001 0.57599998 -0.71700001 150 16 0
2.7149999 0.57300001 -0.71100003 150 16 0
2.721 0.56900001 -0.70499998 150 16 0
2.72 0.56400001 -0.69700003 150 16 0
2.7260001 0.56 -0.69 150 16 0
2.733 0.55599999 -0.68400002 150 16 0
2.7349999 0.55199999 -0.67699999 150 16 0
2.7420001 0.54799998 -0.671 150 16 0
2.75 0.54500002 -0.66500002 150 16 0
2.757 0.54100001 -0.65899998 150 16 0
2.7620001 0.537 -0.653 150 16 0
2.7709999 0.53299999 -0.64700001 150 16 0
2.773 0.528 -0.63999999 150 16 0
2.776 0.52399999 -0.63300002 150 16 0
2.7820001 0.51999998 -0.62599999 150 16 0
2.7850001 0.51499999 -0.61900002 150 16 0
2.79 0.50999999 -0.61199999 150 16 0
2.796 0.50599998 -0.60600001 150 16 0
2.7980001 0.50099999 -0.59899998 150 16 0
2.809 0.498 -0.59299999 150 16 0
2.812 0.493 -0.58600003 150 16 0
2.8239999 0.49000001 -0.58099997 150 16 0
2.8269999 0.48500001 -0.574 150 16 0
2.832 0.47999999 -0.56699997 150 16 0
2.835 0.47499999 -0.56 150 16 0
2.842 0.47099999 -0.55400002 150 16 0
2.8469999 0.46599999 -0.54699999 150 16 0
2.8510001 0.461 -0.54000002 150 16 0
2.8570001 0.456 -0.53299999 150 16 0
2.8599999 0.45100001 -0.52600002 150 16 0
2.868 0.44600001 -0.51999998 150 16 0
2.875 0.442 -0.51300001 150 16 0
2.8770001 0.43599999 -0.50599998 150 16 0
2.881 0.43099999 -0.49900001 150 16 0
2.8900001 0.42699999 -0.493 150 16 0
2.902 0.42300001 -0.48699999 150 16 0
2.905 0.417 -0.47999999 150 16 0
2.9100001 0.412 -0.47299999 150 16 0
2.915 0.40700001 -0.46599999 150 16 0
2.921 0.40200001 -0.46000001 150 16 0
2.931 0.398 -0.454 150 16 0
2.9330001 0.39199999 -0.44600001 150 16 0
2.9400001 0.38699999 -0.43900001 150 16 0
2.9449999 0.38100001 -0.433 150 16 0
2.9530001 0.37599999 -0.426 150 16 0
2.9579999 0.37099999 -0.419 150 16 0
2.9619999 0.36500001 -0.412 150 16 0
2.973 0.361 -0.40599999 150 16 0
2.977 0.35499999 -0.39899999 150 16 0
2.98 0.34900001 -0.39199999 150 16 0
2.9849999 0.34400001 -0.38499999 150 16 0
2.993 0.338 -0.37799999 150 16 0
2.994 0.33199999 -0.37 150 16 0
3 0.32699999 -0.36399999 150 16 0
3.006 0.32100001 -0.35699999 150 16 0
3.0150001 0.31600001 -0.34999999 150 16 0
3.0220001 0.31 -0.34299999 150 16 0
3.0220001 0.30399999 -0.336 150 16 0
3.0309999 0.29800001 -0.329 150 16 0
3.0409999 0.29300001 -0.322 150 16 0
3.043 0.287 -0.315 150 16 0
3.0550001 0.28099999 -0.30899999 150 16 0
3.0569999 0.27500001 -0.301 150 16 0
3.0610001 0.26899999 -0.294 150 16 0
3.072 0.264 -0.287 150 16 0
3.073 0.257 -0.28 150 16 0
3.0799999 0.25099999 -0.273 150 16 0
3.0910001 0.245 -0.266 150 16 0
3.1010001 0.23999999 -0.259 150 16 0
3.0969999 0.233 -0.25099999 150 16 0
3.1110001 0.227 -0.245 150 16 0
3.1199999 0.221 -0.23800001 150 16 0
3.1210001 0.214 -0.23 150 16 0
3.1289999 0.208 -0.223 150 16 0
3.1359999 0.20200001 -0.21600001 150 16 0
3.142 0.19499999 -0.20900001 150 16 0
3.1489999 0.189 -0.20200001 150 16 0
3.155 0.182 -0.19400001 150 16 0
3.161 0.176 -0.18700001 138 16 0
3.1719999 0.17 -0.18000001 150 16 0
3.178 0.163 -0.17299999 141 16 0
3.1800001 0.156 -0.16500001 149 16 0
3.1919999 0.15000001 -0.15800001 148 16 0
3.2019999 0.14300001 -0.15099999 150 16 0
3.204 0.13600001 -0.14300001 115 16 0
3.2149999 0.13 -0.13600001 107 16 0
3.2190001 0.123 -0.12899999 109 16 0
3.2249999 0.116 -0.121 126 16 0
3.234 0.109 -0.114 127 16 0
3.2420001 0.102 -0.107 123 16 0
3.2460001 0.094999999 -0.098999999 111 16 0
3.2579999 0.088 -0.092 108 16 0
3.263 0.081 -0.083999999 113 16 0
3.2720001 0.074000001 -0.077 104 16 0
3.277 0.067000002 -0.068999998 79 16 0
3.2880001 0.059999999 -0.061999999 49 16 0
3.286 0.052000001 -0.054000001 53 16 0
3.2950001 0.045000002 -0.046 112 16 0
3.302 0.037999999 -0.039000001 101 16 0
3.3139999 0.029999999 -0.030999999 52 16 0
3.313 0.023 -0.023 26 16 0
3.2969999 0.015 -0.016000001 20 16 0
3.286 0.0080000004 -0.0080000004 19 16 0
3.2739999 0 0 18 16 0
3.257 -0.0060000001 0.0060000001 20 16 0
3.2490001 -0.013 0.014 37 16 0
3.2579999 -0.021 0.021 150 16 0
3.2690001 -0.028000001 0.028999999 150 16 0
3.27 -0.035999998 0.035999998 150 16 0
3.2809999 -0.044 0.044 150 16 0
3.2909999 -0.050999999 0.050999999 150 16 0
3.2909999 -0.059 0.059 150 16 0
3.2969999 -0.066 0.067000002 93 16 0
3.289 -0.074000001 0.074000001 32 16 0
3.273 -0.081 0.081 30 16 0
3.2609999 -0.088 0.088 30 16 0
3.25 -0.096000001 0.094999999 34 16 0
3.2349999 -0.103 0.102 33 16 0
3.2190001 -0.11 0.109 32 16 0
3.2090001 -0.117 0.116 33 16 0
3.198 -0.124 0.122 33 16 0
3.184 -0.131 0.12899999 32 16 0
3.175 -0.138 0.13600001 33 16 0
3.154 -0.14399999 0.142 33 16 0
3.142 -0.15099999 0.148 32 16 0
3.132 -0.15800001 0.155 32 16 0
3.119 -0.16500001 0.161 31 16 0
3.105 -0.171 0.167 30 16 0
3.0929999 -0.178 0.17399999 31 16 0
3.0780001 -0.185 0.18000001 31 16 0
3.0669999 -0.191 0.186 31 16 0
3.05 -0.197 0.191 31 16 0
3.043 -0.204 0.198 32 16 0
3.03 -0.211 0.204 33 16 0
3.016 -0.21699999 0.20900001 31 16 0
2.997 -0.223 0.214 31 16 0
2.9860001 -0.229 0.22 30 16 0
2.9820001 -0.236 0.226 32 16 0
2.9660001 -0.242 0.23199999 31 16 0
2.954 -0.248 0.237 31 16 0
2.9430001 -0.25400001 0.243 31 16 0
2.9330001 -0.26100001 0.248 32 16 0
2.9200001 -0.26699999 0.25400001 31 16 0
2.911 -0.273 0.259 34 16 0
2.895 -0.27900001 0.264 33 16 0
2.882 -0.28400001 0.26899999 34 16 0
2.8770001 -0.29100001 0.27500001 33 16 0
2.8599999 -0.296 0.27900001 32 16 0
2.8540001 -0.303 0.285 34 16 0
2.8380001 -0.308 0.289 34 16 0
2.8310001 -0.31400001 0.29499999 33 16 0
2.8210001 -0.31999999 0.29899999 33 16 0
2.8069999 -0.32600001 0.30399999 35 16 0
2.7920001 -0.331 0.308 34 16 0
2.7869999 -0.33700001 0.31400001 34 16 0
2.776 -0.34299999 0.31799999 33 16 0
2.763 -0.34799999 0.32300001 32 16 0
2.7520001 -0.354 0.32699999 33 16 0
2.7449999 -0.36000001 0.33199999 32 16 0
2.7360001 -0.366 0.33700001 32 16 0
2.734 -0.373 0.34299999 34 16 0
2.7130001 -0.37599999 0.345 34 16 0
2.7030001 -0.382 0.34999999 37 16 0
2.6960001 -0.38800001 0.35499999 38 16 0
2.6849999 -0.39300001 0.359 39 16 0
2.678 -0.39899999 0.36300001 47 16 0
2.6689999 -0.405 0.368 45 16 0
2.6570001 -0.41 0.37200001 46 16 0
2.6470001 -0.41499999 0.37599999 37 16 0
2.635 -0.41999999 0.37900001 54 16 0
2.625 -0.42500001 0.38299999 54 16 0
2.615 -0.43099999 0.38699999 55 16 0
2.602 -0.435 0.391 51 16 0
2.595 -0.44100001 0.39500001 56 16 0
2.5840001 -0.44600001 0.39899999 45 16 0
2.572 -0.45100001 0.40200001 51 16 0
2.5650001 -0.456 0.40599999 56 16 0
2.556 -0.461 0.41 53 16 0
2.5450001 -0.46599999 0.41299999 55 16 0
2.5380001 -0.47099999 0.417 57 16 0
2.529 -0.47600001 0.421 51 16 0
2.5179999 -0.48100001 0.42399999 58 16 0
2.5079999 -0.486 0.42699999 63 16 0
2.4979999 -0.491 0.43099999 69 16 0
2.4879999 -0.495 0.43399999 70 16 0
2.48 -0.5 0.43700001 65 16 0
2.4719999 -0.50599998 0.44100001 75 16 0
2.4579999 -0.50999999 0.44299999 66 16 0
2.448 -0.514 0.44600001 71 16 0
2.444 -0.51999998 0.44999999 70 16 0
2.4330001 -0.52399999 0.45300001 79 16 0
2.4219999 -0.528 0.456 77 16 0
2.418 -0.53399998 0.46000001 72 16 0
2.4059999 -0.53799999 0.46200001 82 16 0
2.3970001 -0.54299998 0.465 72 16 0
2.3889999 -0.54799998 0.46799999 84 16 0
2.378 -0.55199999 0.47099999 81 16 0
2.375 -0.55800003 0.47499999 75 16 0
2.365 -0.56199998 0.477 74 16 0
2.352 -0.565 0.479 73 16 0
2.3399999 -0.56900001 0.48100001 77 16 0
2.3340001 -0.574 0.484 74 16 0
2.3239999 -0.57800001 0.486 78 16 0
2.3139999 -0.58200002 0.48899999 84 16 0
2.3069999 -0.58700001 0.491 83 16 0
2.3 -0.59200001 0.49399999 96 16 0
2.2880001 -0.59500003 0.49599999 91 16 0
2.283 -0.60000002 0.49900001 92 16 0
2.27 -0.60299999 0.5 92 16 0
2.2609999 -0.60699999 0.50300002 95 16 0
2.2550001 -0.61199999 0.505 98 16 0
2.2479999 -0.61699998 0.50800002 104 16 0
2.2349999 -0.62 0.509 108 16 0
2.2290001 -0.62400001 0.51200002 104 16 0
2.217 -0.62800002 0.51300001 106 16 0
2.21 -0.63200003 0.51499999 104 16 0
2.1960001 -0.634 0.51599997 107 16 0
2.194 -0.63999999 0.51899999 116 16 0
2.1849999 -0.64399999 0.52100003 109 16 0
2.177 -0.648 0.523 109 16 0
2.168 -0.65200001 0.52499998 121 16 0
2.164 -0.65700001 0.52700001 110 16 0
2.151 -0.65899998 0.528 110 16 0
2.1429999 -0.66299999 0.52999997 114 16 0
2.138 -0.66799998 0.53200001 107 16 0
2.1329999 -0.67299998 0.53399998 119 16 0
2.122 -0.67500001 0.53500003 123 16 0
2.1170001 -0.68000001 0.537 135 16 0
2.1059999 -0.68300003 0.53799999 142 16 0
2.099 -0.68699998 0.54000002 148 16 0
2.092 -0.69099998 0.54100001 149 16 0
2.0810001 -0.69300002 0.542 150 16 0
2.076 -0.69800001 0.54400003 150 16 0
2.0680001 -0.70099998 0.54500002 150 16 0
2.0610001 -0.70499998 0.54699999 149 16 0
2.0510001 -0.708 0.54699999 146 16 0
2.043 -0.71200001 0.54799998 148 16 0
2.0309999 -0.713 0.54799998 150 16 0
2.0239999 -0.71700001 0.54900002 146 16 0
2.0190001 -0.72100002 0.551 150 16 0
2.0120001 -0.72500002 0.55199999 150 16 0
2.0039999 -0.72799999 0.55299997 150 16 0
1.992 -0.73000002 0.55299997 150 16 0
1.989 -0.73500001 0.55500001 150 16 0
1.982 -0.73799998 0.55599999 150 16 0
1.974 -0.741 0.55699998 150 16 0
1.9630001 -0.74299997 0.55599999 150 16 0
1.959 -0.74800003 0.55800003 150 16 0
1.954 -0.75199997 0.55900002 150 16 0
1.944 -0.75400001 0.55900002 150 16 0
1.937 -0.75700003 0.56 150 16 0
1.931 -0.76099998 0.56099999 150 16 0
1.924 -0.76300001 0.56099999 150 16 0
1.9170001 -0.76700002 0.56199998 150 16 0
1.908 -0.76899999 0.56199998 150 16 0
1.9 -0.77200001 0.56199998 150 16 0
1.892 -0.77399999 0.56199998 150 16 0
1.885 -0.77700001 0.56199998 150 16 0
1.878 -0.77999997 0.56199998 150 16 0
1.875 -0.78399998 0.56400001 150 16 0
1.8660001 -0.78600001 0.56300002 150 16 0
1.859 -0.78899997 0.56300002 150 16 0
1.8559999 -0.79400003 0.565 150 16 0
1.852 -0.79699999 0.56599998 150 16 0
1.8430001 -0.79900002 0.565 150 16 0
1.834 -0.801 0.56400001 150 16 0
1.83 -0.80500001 0.565 150 16 0
1.823 -0.80699998 0.565 150 16 0
1.816 -0.81 0.565 150 16 0
1.811 -0.81300002 0.565 150 16 0
1.796 -0.81099999 0.56199998 150 19 0
1.791 -0.815 0.56199998 150 16 0
1.7819999 -0.81599998 0.56099999 150 16 0
1.783 -0.82200003 0.56300002 150 16 0
1.78 -0.82599998 0.56400001 150 16 0
1.77 -0.82700002 0.56300002 150 16 0
1.766 -0.82999998 0.56300002 150 16 0
1.762 -0.833 0.56300002 150 16 0
1.753 -0.83399999 0.56199998 150 16 0
1.7460001 -0.83600003 0.56099999 150 16 0
1.7410001 -0.83899999 0.56099999 150 16 0
1.7359999 -0.84200001 0.56099999 150 16 0
1.727 -0.84200001 0.55900002 150 16 0
1.724 -0.84600002 0.55900002 150 16 0
1.719 -0.84799999 0.55900002 150 16 0
1.712 -0.85000002 0.55800003 150 16 0
1.707 -0.85299999 0.55699998 150 16 0
1.704 -0.85600001 0.55699998 150 16 0
1.7 -0.85900003 0.55699998 150 16 0
1.698 -0.86199999 0.55699998 150 16 0
1.686 -0.861 0.55500001 150 16 0
1.683 -0.86400002 0.55400002 150 16 0
1.673 -0.86400002 0.55199999 150 16 0
1.671 -0.86799997 0.55199999 150 16 0
1.665 -0.86900002 0.551 150 16 0
1.6619999 -0.87199998 0.551 150 16 0
1.654 -0.87300003 0.54900002 150 16 0
1.652 -0.87599999 0.54799998 150 16 0
1.65 -0.87900001 0.54799998 150 16 0
1.641 -0.87900001 0.546 150 16 0
1.6390001 -0.88200003 0.546 150 16 0
1.6339999 -0.884 0.54500002 150 16 0
1.626 -0.884 0.542 150 16 0
1.624 -0.88700002 0.542 150 16 0
1.6210001 -0.889 0.54100001 150 16 0
1.614 -0.88999999 0.53899997 150 16 0
1.612 -0.89300001 0.53899997 150 16 0
1.6109999 -0.89600003 0.53799999 150 16 0
1.604 -0.89600003 0.53600001 150 16 0
1.603 -0.89899999 0.53600001 150 16 0
1.595 -0.89899999 0.53299999 102 0 0
1.59 -0.89999998 0.53200001 150 16 0
1.586 -0.90100002 0.52999997 150 16 0
1.5829999 -0.90399998 0.52899998 150 16 0
1.58 -0.90499997 0.528 150 16 0
1.58 -0.90899998 0.528 101 0 0
1.574 -0.90899998 0.52499998 94 0 0
1.571 -0.91100001 0.52399999 150 16 0
1.5650001 -0.91100001 0.52200001 150 16 0
1.564 -0.91299999 0.52100003 150 16 0
1.557 -0.91299999 0.51800001 95 0 0
1.5549999 -0.91500002 0.51700002 150 16 0
1.548 -0.91399997 0.514 100 0 0
1.5470001 -0.91600001 0.51300001 118 0 0
1.544 -0.917 0.51200002 150 16 0
1.539 -0.917 0.509 125 0 0
1.538 -0.92000002 0.50800002 122 0 0
1.535 -0.921 0.50599998 99 0 0
1.533 -0.92299998 0.505 120 0 0
1.53 -0.92299998 0.50300002 104 0 0
1.526 -0.92400002 0.50099999 150 16 0
1.526 -0.926 0.5 118 0 0
1.522 -0.926 0.498 88 0 0
1.521 -0.92799997 0.49599999 95 0 0
1.517 -0.92799997 0.49399999 112 0 0
1.515 -0.92900002 0.49200001 110 0 0
1.5140001 -0.93099999 0.49000001 103 0 0
1.51 -0.93099999 0.48800001 92 0 0
1.506 -0.93000001 0.48500001 92 0 0
1.5039999 -0.93099999 0.484 95 0 0
1.4960001 -0.92799997 0.47999999 107 2 0
1.501 -0.93300003 0.47999999 68 0 0
1.495 -0.93199998 0.477 95 0 0
1.495 -0.93300003 0.47499999 91 0 0
1.492 -0.93300003 0.47299999 89 0 0
1.493 -0.935 0.472 95 0 0
1.488 -0.93400002 0.46799999 77 0 0
1.488 -0.935 0.46700001 102 0 0
1.488 -0.93599999 0.465 99 0 0
1.483 -0.935 0.46200001 104 0 0
1.48 -0.93400002 0.45899999 80 0 0
1.48 -0.935 0.45699999 95 0 0
1.48 -0.93599999 0.45500001 90 0 0
1.478 -0.93599999 0.45300001 102 0 0
1.478 -0.93699998 0.45100001 94 0 0
1.478 -0.93800002 0.449 88 0 0
1.478 -0.93900001 0.447 90 0 0
1.475 -0.93699998 0.44499999 75 0 0
1.475 -0.93800002 0.44299999 104 0 0
1.47 -0.93599999 0.43900001 74 3 0
1.464 -0.93199998 0.435 101 0 0
1.471 -0.93699998 0.435 88 0 0
1.47 -0.93699998 0.433 71 0 0
1.465 -0.93400002 0.42899999 99 3 0
1.472 -0.93800002 0.42899999 88 0 0
1.466 -0.93400002 0.42500001 107 0 0
1.464 -0.93400002 0.42199999 101 0 0
1.465 -0.93400002 0.41999999 102 0 0
1.4630001 -0.93300003 0.417 110 0 0
1.4630001 -0.93300003 0.41499999 91 0 0
1.464 -0.93300003 0.41299999 126 0 0
1.464 -0.93300003 0.41100001 94 0 0
1.464 -0.93199998 0.40799999 98 0 0
1.465 -0.93199998 0.40599999 88 0 0
1.466 -0.93199998 0.40400001 108 0 0
1.466 -0.93199998 0.40200001 107 0 0
1.467 -0.93199998 0.39899999 98 0 0
1.4680001 -0.93199998 0.39700001 118 0 0
1.467 -0.93000001 0.39399999 107 0 0
1.4680001 -0.93000001 0.39199999 103 0 0
1.4680001 -0.92900002 0.389 110 0 0
1.469 -0.92799997 0.38699999 113 0 0
1.471 -0.92799997 0.38499999 116 0 0
1.471 -0.92699999 0.382 112 0 0
1.473 -0.92699999 0.38 131 0 0
1.475 -0.92799997 0.37799999 111 0 0
1.474 -0.92500001 0.375 109 0 0
1.472 -0.92299998 0.37200001 82 0 0
1.476 -0.92400002 0.37 106 0 0
1.477 -0.92299998 0.368 86 0 0
1.477 -0.921 0.36500001 77 0 0
1.48 -0.92199999 0.36300001 104 0 0
1.477 -0.917 0.36000001 78 0 0
1.483 -0.91900003 0.35800001 107 0 0
1.484 -0.91799998 0.35600001 88 0 0
1.485 -0.917 0.35299999 2 0 0
1.489 -0.917 0.35100001 150 16 0
1.488 -0.91500002 0.34799999 2 0 0
1.49 -0.91299999 0.34599999 85 0 0
1.4910001 -0.912 0.34299999 89 0 0
1.494 -0.91100001 0.34099999 2 0 0
1.494 -0.90899998 0.33899999 3 0 0
1.497 -0.90799999 0.336 112 0 0
1.499 -0.90700001 0.33399999 89 0 0
1.5 -0.90499997 0.331 71 0 0
1.503 -0.90399998 0.329 73 0 0
1.502 -0.90100002 0.32600001 68 0 0
1.505 -0.89999998 0.324 93 0 0
1.507 -0.898 0.32100001 80 0 0
1.5089999 -0.89700001 0.31900001 78 0 0
1.511 -0.89499998 0.317 73 0 0
1.52 -0.898 0.31600001 70 0 0
1.5140001 -0.89099997 0.31099999 62 0 0
1.52 -0.89099997 0.31 93 0 0
1.528 -0.89300001 0.308 60 0 0
1.521 -0.88599998 0.30399999 74 0 0
1.5319999 -0.889 0.30399999 2 0 0
1.534 -0.88700002 0.301 65 0 0
1.538 -0.88499999 0.29899999 66 0 0
1.5420001 -0.88499999 0.29699999 2 0 0
1.539 -0.87900001 0.29300001 77 0 0
1.543 -0.87800002 0.29100001 61 0 0
1.551 -0.87900001 0.28999999 72 0 0
1.553 -0.87699997 0.287 70 0 0
1.556 -0.875 0.285 74 0 0
1.558 -0.87199998 0.28299999 85 0 0
1.561 -0.87 0.28 62 0 0
1.564 -0.86799997 0.278 70 0 0
1.5650001 -0.86500001 0.27500001 68 0 0
1.571 -0.86400002 0.273 55 0 0
1.574 -0.86199999 0.271 68 0 0
1.579 -0.861 0.26899999 60 0 0
1.5779999 -0.85600001 0.266 62 0 0
1.584 -0.85500002 0.264 57 0 0
1.5880001 -0.85399997 0.26199999 54 0 0
1.597 -0.85399997 0.26100001 62 0 0
1.6 -0.852 0.259 67 0 0
1.602 -0.84799999 0.25600001 54 0 0
1.605 -0.84500003 0.25400001 62 0 0
1.607 -0.84200001 0.25099999 74 0 0
1.609 -0.83899999 0.249 60 0 0
1.62 -0.83999997 0.248 43 0 0
1.6210001 -0.83600003 0.245 49 0 0
1.626 -0.83499998 0.243 33 0 0
1.632 -0.833 0.241 41 0 0
1.637 -0.83099997 0.23899999 5 0 0
1.638 -0.82700002 0.237 32 0 0
1.6440001 -0.82499999 0.235 32 0 0
1.649 -0.82300001 0.233 31 0 0
1.653 -0.81999999 0.23100001 36 0 0
1.656 -0.81699997 0.228 33 0 0
1.664 -0.81599998 0.227 27 0 0
1.669 -0.81400001 0.22499999 27 0 0
1.675 -0.81199998 0.223 27 0 0
1.679 -0.80900002 0.221 29 0 0
1.683 -0.80599999 0.219 27 0 0
1.687 -0.80299997 0.21699999 28 0 0
1.691 -0.80000001 0.215 23 0 0
1.699 -0.79799998 0.213 26 0 0
1.701 -0.79400003 0.211 22 0 0
1.717 -0.79699999 0.20999999 1 3 0
1.717 -0.792 0.207 1 0 0
1.722 -0.78899997 0.205 1 0 0
1.723 -0.78399998 0.20299999 142 16 0
1.73 -0.78200001 0.20100001 1 0 0
1.734 -0.778 0.199 129 16 0
1.745 -0.778 0.198 128 16 0
1.745 -0.773 0.19499999 135 16 0
1.756 -0.77200001 0.19400001 123 16 0
1.7640001 -0.76999998 0.192 134 16 0
1.766 -0.76599997 0.19 130 16 0
1.774 -0.76300001 0.18799999 134 16 0
1.777 -0.759 0.186 134 16 0
1.785 -0.75700003 0.185 122 16 0
1.79 -0.75400001 0.183 130 16 0
1.794 -0.75 0.18099999 119 16 0
1.804 -0.74800003 0.17900001 129 16 0
1.806 -0.74400002 0.177 123 16 0
1.821 -0.74400002 0.176 132 16 0
1.824 -0.74000001 0.17399999 138 16 0
1.831 -0.73699999 0.17200001 122 16 0
1.835 -0.73299998 0.17 133 16 0
1.842 -0.72899997 0.169 120 16 0
1.848 -0.72600001 0.167 120 16 0
1.8559999 -0.72299999 0.16500001 1 0 0
1.862 -0.72000003 0.163 99 16 0
1.87 -0.71700001 0.162 1 0 0
1.875 -0.713 0.16 104 16 0
1.8839999 -0.70999998 0.15800001 112 16 0
1.888 -0.70599997 0.156 111 16 0
1.897 -0.70300001 0.155 1 0 0
1.9 -0.69800001 0.153 104 16 0
1.916 -0.69800001 0.152 1 0 0
1.9119999 -0.69 0.149 104 16 0
1.931 -0.69099998 0.149 109 19 0
1.933 -0.685 0.147 107 16 0
1.941 -0.68199998 0.145 98 16 0
1.95 -0.67900002 0.14300001 97 16 0
1.959 -0.676 0.142 98 16 0
1.961 -0.67000002 0.14 105 16 0
1.974 -0.66799998 0.139 101 16 0
1.982 -0.66500002 0.13699999 98 16 0
1.987 -0.66000003 0.13500001 95 16 0
1.997 -0.65700001 0.134 92 16 0
2.0009999 -0.65100002 0.132 94 16 0
2.0139999 -0.64899999 0.131 90 16 0
2.016 -0.64300001 0.12899999 94 16 0
2.0280001 -0.64099997 0.127 91 16 0
2.036 -0.63700002 0.126 95 16 0
2.046 -0.63300002 0.124 85 16 0
2.056 -0.62900001 0.123 90 16 0
2.0650001 -0.62599999 0.122 92 16 0
2.0710001 -0.62099999 0.12 86 16 0
2.082 -0.61699998 0.118 69 16 0
2.0910001 -0.61299998 0.117 73 16 0
2.099 -0.60900003 0.115 70 16 0
2.109 -0.60500002 0.114 67 16 0
2.115 -0.60000002 0.112 72 16 0
2.1240001 -0.59500003 0.111 62 16 0
2.1340001 -0.59100002 0.109 65 16 0
2.148 -0.588 0.108 68 16 0
2.151 -0.58200002 0.106 65 16 0
2.1600001 -0.57700002 0.105 68 16 0
2.1819999 -0.57599998 0.104 60 19 0
2.187 -0.56999999 0.102 55 16 0
2.197 -0.56599998 0.101 50 16 0
2.2090001 -0.56199998 0.1 56 16 0
2.2160001 -0.55699998 0.097999997 49 16 0
2.227 -0.55199999 0.097000003 47 16 0
2.237 -0.54699999 0.094999999 48 16 0
2.2509999 -0.54299998 0.093999997 45 16 0
2.2609999 -0.53899997 0.093000002 50 16 0
2.267 -0.53200001 0.090999998 49 16 0
2.2780001 -0.528 0.090000004 46 16 0
2.29 -0.523 0.088 47 16 0
2.3 -0.51800001 0.086999997 44 16 0
2.3099999 -0.51300001 0.085000001 41 16 0
2.3180001 -0.50700003 0.083999999 40 16 0
2.332 -0.50300002 0.082999997 40 16 0
2.349 -0.498 0.082000002 49 16 0
2.359 -0.493 0.079999998 40 16 0
2.3670001 -0.48699999 0.079000004 35 16 0
2.382 -0.48199999 0.077 47 16 0
2.3940001 -0.477 0.075999998 40 16 0
2.405 -0.472 0.075000003 41 16 0
2.4170001 -0.46599999 0.072999999 47 16 0
2.4300001 -0.461 0.071999997 43 16 0
2.4449999 -0.456 0.071000002 40 16 0
2.4530001 -0.449 0.068999998 36 16 0
2.4630001 -0.44299999 0.068000004 37 16 0
2.4760001 -0.43700001 0.067000002 38 16 0
2.49 -0.43200001 0.064999998 36 16 0
2.4979999 -0.42500001 0.064000003 36 16 0
2.5120001 -0.419 0.063000001 32 16 0
2.526 -0.414 0.061000001 33 16 0
2.536 -0.40700001 0.059999999 32 16 0
2.546 -0.40099999 0.059 30 16 0
2.5639999 -0.39500001 0.057999998 32 16 0
2.5810001 -0.389 0.056000002 31 16 0
2.592 -0.38299999 0.055 31 16 0
2.605 -0.37599999 0.054000001 33 16 0
2.619 -0.37 0.052000001 30 16 0
2.6329999 -0.36300001 0.050999999 31 16 0
2.6530001 -0.35699999 0.050000001 32 16 0
2.664 -0.34999999 0.048999999 30 16 0
2.681 -0.34400001 0.046999998 31 16 0
2.6960001 -0.33700001 0.046 30 16 0
2.71 -0.33000001 0.045000002 31 16 0
2.7219999 -0.32300001 0.044 31 16 0
2.7320001 -0.315 0.041999999 30 16 0
2.7520001 -0.30899999 0.041000001 31 16 0
2.7650001 -0.301 0.039999999 30 16 0
2.783 -0.294 0.039000001 30 16 0
2.799 -0.287 0.037 28 16 0
2.809 -0.27900001 0.035999998 28 16 0
2.832 -0.27200001 0.035 28 16 0
2.8429999 -0.264 0.034000002 26 16 0
2.859 -0.25600001 0.032000002 27 16 0
2.8770001 -0.249 0.030999999 28 16 0
2.8959999 -0.241 0.029999999 26 16 0
2.9159999 -0.233 0.028999999 28 16 0
2.9260001 -0.22499999 0.028000001 27 16 0
2.9489999 -0.21699999 0.026000001 27 16 0
2.9649999 -0.20900001 0.025 26 16 0
2.987 -0.20100001 0.024 25 16 0
3.0009999 -0.192 0.023 25 16 0
3.017 -0.183 0.022 24 16 0
3.043 -0.175 0.02 25 16 0
3.0599999 -0.16599999 0.018999999 24 16 0
3.085 -0.15800001 0.017999999 24 16 0
3.1059999 -0.149 0.017000001 25 16 0
3.122 -0.139 0.016000001 25 16 0
3.1459999 -0.13 0.015 26 16 0
3.165 -0.121 0.013 26 16 0
3.1819999 -0.111 0.012 26 16 0
3.2019999 -0.102 0.011 25 16 0
3.2290001 -0.092 0.0099999998 26 16 0
3.2449999 -0.082000002 0.0089999996 26 16 0
3.2709999 -0.071999997 0.0080000004 43 16 0
3.2709999 -0.061999999 0.0060000001 144 16 0
3.2609999 -0.050999999 0.0049999999 101 16 0
3.26 -0.041000001 0.0040000002 129 16 0
3.2509999 -0.029999999 0.003 108 16 0
3.243 -0.02 0.0020000001 42 16 0
3.257 -0.0089999996 0.001 18 16 0
3.2780001 0 0 17 16 0
3.302 0.011 -0.001 18 16 0
3.326 0.022 -0.0020000001 27 16 0
3.3239999 0.033 -0.003 52 16 0
3.3150001 0.043000001 -0.0040000002 52 16 0
3.312 0.054000001 -0.0049999999 39 16 0
3.309 0.064000003 -0.0060000001 51 16 0
3.3010001 0.075000003 -0.0070000002 52 16 0
3.293 0.085000001 -0.0080000004 53 16 0
3.2920001 0.096000001 -0.0089999996 51 16 0
3.283 0.106 -0.0099999998 54 16 0
3.2780001 0.117 -0.011 51 16 0
3.273 0.127 -0.011 54 16 0
3.2679999 0.13699999 -0.012 53 16 0
3.2639999 0.148 -0.013 63 16 0
3.25 0.15800001 -0.014 64 16 0
3.2490001 0.168 -0.015 68 16 0
3.2490001 0.17900001 -0.015 58 16 0
3.2409999 0.189 -0.016000001 62 16 0
3.2360001 0.199 -0.017000001 66 16 0
3.2309999 0.20900001 -0.017999999 61 16 0
3.2260001 0.219 -0.017999999 68 16 0
3.2179999 0.229 -0.018999999 70 16 0
3.2179999 0.23899999 -0.02 69 16 0
3.211 0.249 -0.02 77 16 0
3.198 0.259 -0.021 67 16 0
3.194 0.26899999 -0.021 72 16 0
3.1930001 0.27900001 -0.022 72 16 0
3.1819999 0.289 -0.022 71 16 0
3.181 0.29899999 -0.023 67 16 0
3.175 0.308 -0.023 78 16 0
3.1670001 0.31799999 -0.024 65 16 0
3.1619999 0.32800001 -0.024 67 16 0
3.1559999 0.33700001 -0.025 74 16 0
3.152 0.347 -0.025 75 16 0
3.148 0.35699999 -0.026000001 55 16 0
3.142 0.36700001 -0.026000001 60 16 0
3.1359999 0.37599999 -0.026000001 76 16 0
