# .PCD v0.7 - Point Cloud Data file format
VERSION 0.7
FIELDS x y z intensity tag line
SIZE 4 4 4 4 1 1
TYPE F F F F U U
COUNT 1 1 1 1 1 1
WIDTH 1350
HEIGHT 1
VIEWPOINT 0 0 0 1 0 0 0
POINTS 1350
DATA ascii
1.661 -0.85299999 0.41600001 2 0 0
1.663 -0.85000002 0.41299999 36 0 0
1.666 -0.84799999 0.41 1 0 0
1.669 -0.84600002 0.40700001 2 0 0
1.674 -0.84399998 0.405 1 0 0
1.676 -0.84100002 0.40200001 2 0 0
1.679 -0.838 0.39899999 2 0 0
1.682 -0.83600003 0.396 1 0 0
1.686 -0.83399999 0.39300001 1 0 0
1.6900001 -0.83200002 0.391 1 0 0
1.692 -0.829 0.38699999 149 16 0
1.704 -0.83099997 0.38699999 150 16 0
1.71 -0.829 0.38499999 150 16 0
1.7079999 -0.824 0.38100001 135 16 0
1.711 -0.82099998 0.37799999 150 16 0
1.716 -0.81900001 0.375 150 16 0
1.72 -0.81699997 0.37200001 147 16 0
1.723 -0.81400001 0.37 150 16 0
1.727 -0.81099999 0.36700001 150 16 0
1.735 -0.81 0.36500001 144 16 0
1.737 -0.80699998 0.36199999 150 16 0
1.7410001 -0.80400002 0.359 149 16 0
1.745 -0.80199999 0.35699999 144 16 0
1.752 -0.80000001 0.354 150 16 0
1.757 -0.79799998 0.352 150 16 0
1.7690001 -0.79799998 0.35100001 125 16 0
1.7690001 -0.79299998 0.347 131 16 0
1.771 -0.79000002 0.34400001 122 16 0
1.777 -0.787 0.34200001 123 16 0
1.7819999 -0.78500003 0.33899999 129 16 0
1.789 -0.78299999 0.33700001 124 16 0
1.788 -0.778 0.33399999 109 16 0
1.799 -0.778 0.33199999 118 16 0
1.804 -0.77499998 0.33000001 121 16 0
1.811 -0.773 0.32800001 116 16 0
1.816 -0.76999998 0.32499999 121 16 0
1.8200001 -0.76599997 0.322 109 16 0
1.825 -0.76300001 0.31999999 110 16 0
1.83 -0.75999999 0.317 115 16 0
1.837 -0.75800002 0.315 121 16 0
1.845 -0.75599998 0.31299999 109 16 0
1.848 -0.75199997 0.31 119 16 0
1.852 -0.74800003 0.30700001 119 16 0
1.857 -0.745 0.30500001 99 16 0
1.8660001 -0.74299997 0.303 112 16 0
1.868 -0.73799998 0.30000001 111 16 0
1.872 -0.73400003 0.29699999 102 16 0
1.878 -0.73100001 0.29499999 110 16 0
1.882 -0.727 0.292 104 16 0
1.9 -0.72899997 0.29100001 111 19 0
1.905 -0.72500002 0.289 110 16 0
1.909 -0.72100002 0.28600001 87 16 0
1.916 -0.71799999 0.28400001 87 16 0
1.921 -0.71499997 0.28099999 86 16 0
1.9299999 -0.71200001 0.27900001 86 16 0
1.9349999 -0.708 0.27700001 89 16 0
1.938 -0.704 0.27399999 88 16 0
1.948 -0.70099998 0.27200001 94 16 0
1.954 -0.69800001 0.27000001 89 16 0
1.962 -0.69499999 0.26699999 76 16 0
1.967 -0.69099998 0.26499999 85 16 0
1.976 -0.68800002 0.26300001 78 16 0
1.983 -0.685 0.26100001 80 16 0
1.989 -0.68099999 0.25799999 82 16 0
1.998 -0.67799997 0.25600001 73 16 0
2.0050001 -0.67400002 0.25400001 81 16 0
2.0120001 -0.67000002 0.25099999 81 16 0
2.0209999 -0.667 0.249 83 16 0
2.027 -0.66299999 0.24699999 77 16 0
2.036 -0.66000003 0.245 82 16 0
2.0420001 -0.65600002 0.242 77 16 0
2.0550001 -0.65399998 0.241 66 16 0
2.0580001 -0.648 0.23800001 69 16 0
2.0669999 -0.64499998 0.236 68 16 0
2.073 -0.63999999 0.233 67 16 0
2.0810001 -0.63700002 0.23100001 68 16 0
2.086 -0.63200003 0.228 63 16 0
2.0969999 -0.62900001 0.227 68 16 0
2.102 -0.62400001 0.22400001 62 16 0
2.1110001 -0.62 0.222 59 16 0
2.1229999 -0.61699998 0.22 60 16 0
2.132 -0.61299998 0.21799999 64 16 0
2.1400001 -0.60900003 0.21600001 56 16 0
2.145 -0.60399997 0.213 56 16 0
2.152 -0.59899998 0.20999999 64 16 0
2.1719999 -0.59799999 0.20900001 55 19 0
2.177 -0.59299999 0.207 55 16 0
2.1889999 -0.58899999 0.205 50 16 0
2.1919999 -0.583 0.20200001 43 16 0
2.2079999 -0.58099997 0.20100001 48 16 0
2.2160001 -0.57599998 0.198 45 16 0
2.2249999 -0.57200003 0.19599999 42 16 0
2.2320001 -0.56699997 0.19400001 49 16 0
2.243 -0.56300002 0.191 44 16 0
2.253 -0.55800003 0.189 47 16 0
2.2650001 -0.55400002 0.18700001 50 16 0
2.273 -0.54900002 0.185 45 16 0
2.2809999 -0.54400003 0.183 46 16 0
2.29 -0.53899997 0.18000001 45 16 0
2.299 -0.53399998 0.178 45 16 0
2.3069999 -0.52899998 0.176 36 16 0
2.3180001 -0.52399999 0.17399999 37 16 0
2.332 -0.51999998 0.17200001 40 16 0
2.346 -0.51599997 0.17 36 16 0
2.3510001 -0.50999999 0.167 36 16 0
2.3610001 -0.505 0.16500001 31 16 0
2.3740001 -0.5 0.163 29 16 0
2.3859999 -0.49599999 0.161 44 16 0
2.398 -0.491 0.15899999 43 16 0
2.4089999 -0.48500001 0.156 48 16 0
2.4189999 -0.47999999 0.154 37 16 0
2.431 -0.47499999 0.152 43 16 0
2.444 -0.47 0.15000001 34 16 0
2.45 -0.463 0.147 41 16 0
2.4579999 -0.45699999 0.145 35 16 0
2.471 -0.45199999 0.14300001 33 16 0
2.483 -0.447 0.14 34 16 0
2.493 -0.44100001 0.138 32 16 0
2.506 -0.435 0.13600001 32 16 0
2.517 -0.42899999 0.134 32 16 0
2.5309999 -0.42399999 0.132 33 16 0
2.5409999 -0.41800001 0.12899999 30 16 0
2.556 -0.412 0.127 31 16 0
2.569 -0.40700001 0.125 26 16 0
2.5780001 -0.40000001 0.122 26 16 0
2.5969999 -0.39500001 0.12 26 16 0
2.608 -0.38800001 0.118 27 16 0
2.615 -0.38100001 0.116 27 16 0
2.632 -0.37599999 0.113 27 16 0
2.6429999 -0.36899999 0.111 26 16 0
2.661 -0.36300001 0.109 26 16 0
2.6700001 -0.35600001 0.106 27 16 0
2.6900001 -0.35100001 0.104 28 16 0
2.6989999 -0.34299999 0.102 27 16 0
2.7179999 -0.33700001 0.1 27 16 0
2.7249999 -0.33000001 0.097000003 25 16 0
2.733 -0.322 0.094999999 25 16 0
2.7550001 -0.31600001 0.093000002 26 16 0
2.766 -0.30899999 0.090000004 26 16 0
2.7809999 -0.30199999 0.088 26 16 0
2.796 -0.29499999 0.085000001 27 16 0
2.8099999 -0.28799999 0.082999997 26 16 0
2.8239999 -0.28099999 0.081 25 16 0
2.8410001 -0.273 0.078000002 26 16 0
2.8599999 -0.266 0.075999998 25 16 0
2.875 -0.259 0.074000001 25 16 0
2.8870001 -0.25099999 0.071000002 26 16 0
2.904 -0.243 0.068999998 26 16 0
2.9200001 -0.236 0.066 25 16 0
2.9349999 -0.228 0.064000003 25 16 0
2.954 -0.22 0.061999999 25 16 0
2.97 -0.212 0.059 25 16 0
2.993 -0.204 0.057 25 16 0
3.0050001 -0.19599999 0.054000001 25 16 0
3.026 -0.18799999 0.052000001 25 16 0
3.043 -0.17900001 0.048999999 25 16 0
3.0650001 -0.171 0.046999998 26 16 0
3.082 -0.162 0.044 25 16 0
3.095 -0.153 0.041999999 25 16 0
3.122 -0.145 0.039000001 25 16 0
3.1340001 -0.13600001 0.037 26 16 0
3.1570001 -0.127 0.034000002 26 16 0
3.177 -0.118 0.030999999 26 16 0
3.198 -0.109 0.028999999 26 16 0
3.2160001 -0.098999999 0.026000001 25 16 0
3.2379999 -0.090000004 0.024 26 16 0
3.2509999 -0.079999998 0.021 26 16 0
3.277 -0.07 0.017999999 50 16 0
3.276 -0.059999999 0.016000001 138 16 0
3.267 -0.050000001 0.013 108 16 0
3.2609999 -0.039000001 0.0099999998 106 16 0
3.26 -0.028999999 0.0070000002 115 16 0
3.2479999 -0.018999999 0.0049999999 40 16 0
3.2579999 -0.0089999996 0.0020000001 17 16 0
3.2850001 0 0 17 16 0
3.302 0.011 -0.0020000001 17 16 0
3.326 0.021 -0.0049999999 27 16 0
3.325 0.032000002 -0.0080000004 53 16 0
3.3110001 0.041999999 -0.0099999998 54 16 0
3.3110001 0.052000001 -0.013 40 16 0
3.3050001 0.063000001 -0.015 44 16 0
3.2939999 0.072999999 -0.017999999 54 16 0
3.2920001 0.082999997 -0.021 50 16 0
3.2909999 0.093000002 -0.023 52 16 0
3.279 0.104 -0.025 52 16 0
3.2720001 0.114 -0.028000001 53 16 0
3.266 0.124 -0.029999999 53 16 0
3.2590001 0.134 -0.033 54 16 0
3.25 0.14399999 -0.035 59 16 0
3.2449999 0.153 -0.037 59 16 0
3.244 0.164 -0.039999999 64 16 0
3.2390001 0.17399999 -0.041999999 62 16 0
3.237 0.184 -0.044 59 16 0
3.2290001 0.19400001 -0.046 64 16 0
3.221 0.20299999 -0.048999999 59 16 0
3.2130001 0.213 -0.050999999 76 16 0
3.2049999 0.223 -0.052999999 63 16 0
3.2030001 0.233 -0.055 58 16 0
3.1960001 0.242 -0.057 66 16 0
3.1889999 0.252 -0.059 62 16 0
3.1789999 0.26100001 -0.061000001 60 16 0
3.178 0.271 -0.063000001 62 16 0
3.1630001 0.28 -0.064999998 55 16 0
3.1619999 0.28999999 -0.067000002 69 16 0
3.155 0.30000001 -0.068999998 76 16 0
3.1530001 0.30899999 -0.071000002 55 16 0
3.1470001 0.31900001 -0.072999999 49 16 0
3.1389999 0.32800001 -0.075000003 63 16 0
3.1329999 0.338 -0.075999998 71 16 0
3.122 0.34599999 -0.078000002 78 16 0
3.1199999 0.35600001 -0.079999998 76 16 0
3.1129999 0.36500001 -0.082000002 81 16 0
3.109 0.375 -0.083999999 69 16 0
3.1029999 0.384 -0.085000001 78 16 0
3.0999999 0.39399999 -0.086999997 70 16 0
3.0969999 0.403 -0.089000002 72 16 0
3.086 0.412 -0.090000004 82 16 0
3.0799999 0.421 -0.092 88 16 0
3.0769999 0.43000001 -0.093000002 85 16 0
3.073 0.44 -0.094999999 85 16 0
3.059 0.44800001 -0.096000001 85 16 0
3.0580001 0.45699999 -0.097999997 82 16 0
3.056 0.46700001 -0.1 87 16 0
3.0450001 0.47499999 -0.101 91 16 0
3.0409999 0.484 -0.102 82 16 0
3.04 0.49399999 -0.104 85 16 0
3.03 0.50199997 -0.105 91 16 0
3.027 0.51099998 -0.107 71 16 0
3.0250001 0.52100003 -0.108 89 16 0
3.0120001 0.52899998 -0.109 91 16 0
3.0090001 0.53799999 -0.111 80 16 0
3.0039999 0.54699999 -0.112 93 16 0
3 0.55599999 -0.113 89 16 0
2.994 0.565 -0.114 71 16 0
2.993 0.574 -0.116 83 16 0
2.987 0.583 -0.117 79 16 0
2.9849999 0.59200001 -0.118 85 16 0
2.9760001 0.60000002 -0.119 87 16 0
2.97 0.60900003 -0.12 87 16 0
2.9630001 0.61699998 -0.121 92 16 0
2.961 0.62699997 -0.123 93 16 0
2.9530001 0.63499999 -0.124 81 16 0
2.947 0.64300001 -0.124 96 16 0
2.9430001 0.65200001 -0.126 94 16 0
2.938 0.66100001 -0.127 84 16 0
2.9330001 0.66900003 -0.127 95 16 0
2.9319999 0.67900002 -0.12899999 107 16 0
2.925 0.68699998 -0.12899999 96 16 0
2.9230001 0.69599998 -0.13 99 16 0
2.9159999 0.704 -0.131 109 16 0
2.9100001 0.71200001 -0.132 106 16 0
2.9059999 0.72100002 -0.133 100 16 0
2.905 0.73000002 -0.134 114 16 0
2.8970001 0.73799998 -0.134 134 16 0
2.8889999 0.745 -0.13500001 148 16 0
2.881 0.75300002 -0.13500001 125 16 0
2.8710001 0.75999999 -0.13600001 133 16 0
2.869 0.76899999 -0.13699999 133 16 0
2.8629999 0.77700001 -0.13699999 138 16 0
2.8629999 0.787 -0.138 131 16 0
2.858 0.79500002 -0.139 132 16 0
2.855 0.80400002 -0.139 146 16 0
2.8510001 0.81199998 -0.14 131 16 0
2.8440001 0.81999999 -0.14 127 16 0
2.842 0.82800001 -0.141 136 16 0
2.8369999 0.83700001 -0.141 138 16 0
2.832 0.84399998 -0.142 133 16 0
2.826 0.852 -0.142 145 16 0
2.8239999 0.861 -0.142 143 16 0
2.8210001 0.87 -0.14300001 139 16 0
2.8150001 0.87800002 -0.14300001 150 16 0
2.809 0.88499999 -0.14300001 147 16 0
2.806 0.89399999 -0.14399999 150 16 0
2.8010001 0.90200001 -0.14399999 139 16 0
2.7950001 0.90899998 -0.14399999 141 16 0
2.7920001 0.91799998 -0.14399999 146 16 0
2.7880001 0.926 -0.14399999 138 16 0
2.7809999 0.93300003 -0.14399999 138 16 0
2.7780001 0.94099998 -0.14399999 144 16 0
2.773 0.949 -0.14399999 150 16 0
2.77 0.95700002 -0.145 137 16 0
2.78 0.97000003 -0.145 31 16 0
2.7690001 0.97600001 -0.145 53 16 0
2.7539999 0.98000002 -0.14399999 135 16 0
2.7509999 0.98799998 -0.14399999 136 16 0
2.7490001 0.99699998 -0.14399999 150 16 0
2.7449999 1.005 -0.14399999 146 16 0
2.7420001 1.013 -0.14399999 150 16 0
2.737 1.02 -0.14399999 148 16 0
2.734 1.029 -0.14399999 150 16 0
2.73 1.036 -0.14399999 150 16 0
2.723 1.043 -0.14300001 150 16 0
2.72 1.051 -0.14300001 150 16 0
2.717 1.059 -0.14300001 150 16 0
2.7130001 1.067 -0.142 150 16 0
2.7079999 1.075 -0.142 150 16 0
2.7049999 1.0829999 -0.142 150 16 0
2.7019999 1.091 -0.141 150 16 0
2.6960001 1.097 -0.141 150 16 0
2.6930001 1.105 -0.14 150 16 0
2.691 1.113 -0.14 150 16 0
2.684 1.12 -0.139 150 16 0
2.684 1.1289999 -0.139 150 16 0
2.6800001 1.136 -0.138 150 16 0
2.674 1.143 -0.13699999 150 16 0
2.674 1.152 -0.13699999 150 16 0
2.6659999 1.1569999 -0.13600001 150 16 0
2.6619999 1.165 -0.13500001 150 16 0
2.664 1.175 -0.13500001 150 16 0
2.655 1.1799999 -0.134 150 16 0
2.655 1.189 -0.133 150 16 0
2.648 1.1950001 -0.132 150 16 0
2.645 1.202 -0.131 150 16 0
2.642 1.209 -0.13 150 16 0
2.638 1.217 -0.12899999 150 16 0
2.635 1.224 -0.12800001 150 16 0
2.632 1.2309999 -0.127 150 16 0
2.631 1.24 -0.126 150 16 0
2.625 1.2460001 -0.125 150 16 0
2.622 1.253 -0.124 150 16 0
2.618 1.26 -0.122 150 16 0
2.618 1.2690001 -0.121 150 16 0
2.6110001 1.274 -0.12 150 16 0
2.608 1.281 -0.119 150 16 0
2.605 1.288 -0.118 150 16 0
2.6010001 1.295 -0.116 150 16 0
2.6040001 1.3049999 -0.115 150 16 0
2.595 1.309 -0.113 150 16 0
2.5910001 1.316 -0.112 150 16 0
2.5929999 1.325 -0.111 150 16 0
2.585 1.33 -0.109 150 16 0
2.5810001 1.336 -0.108 150 16 0
2.5799999 1.344 -0.106 146 16 0
2.5780001 1.351 -0.105 150 16 0
2.576 1.358 -0.103 150 16 0
2.575 1.3660001 -0.101 148 16 0
2.5699999 1.3710001 -0.1 150 16 0
2.5669999 1.378 -0.097999997 150 16 0
2.566 1.385 -0.096000001 150 16 0
2.5610001 1.391 -0.093999997 150 16 0
2.5580001 1.397 -0.093000002 150 16 0
2.556 1.404 -0.090999998 150 16 0
2.552 1.41 -0.089000002 150 16 0
2.546 1.415 -0.086999997 150 16 0
2.546 1.4220001 -0.085000001 150 16 0
2.549 1.431 -0.082999997 150 16 0
2.5450001 1.437 -0.081 150 16 0
2.54 1.442 -0.079000004 150 16 0
2.5409999 1.45 -0.077 150 16 0
2.536 1.455 -0.075000003 150 16 0
2.5339999 1.461 -0.072999999 150 16 0
2.5309999 1.467 -0.07 150 16 0
2.53 1.474 -0.068000004 150 16 0
2.526 1.479 -0.066 150 16 0
2.5239999 1.485 -0.064000003 150 16 0
2.5209999 1.49 -0.061000001 150 16 0
2.5239999 1.499 -0.059 150 16 0
2.52 1.5039999 -0.057 150 16 0
2.5139999 1.508 -0.054000001 150 16 0
2.5109999 1.513 -0.052000001 150 16 0
2.5120001 1.52 -0.048999999 150 16 0
2.513 1.528 -0.046999998 150 16 0
2.51 1.533 -0.044 150 16 0
2.51 1.539 -0.041999999 150 16 0
2.5039999 1.5420001 -0.039000001 150 16 0
2.5020001 1.548 -0.035999998 150 16 0
2.5050001 1.556 -0.034000002 150 16 0
2.5020001 1.5599999 -0.030999999 150 16 0
2.503 1.567 -0.028000001 150 16 0
2.5 1.572 -0.026000001 150 16 0
2.4979999 1.577 -0.023 150 16 0
2.4960001 1.581 -0.02 150 16 0
2.493 1.585 -0.017000001 150 16 0
2.49 1.589 -0.014 150 16 0
2.49 1.595 -0.012 150 16 0
2.49 1.601 -0.0089999996 150 16 0
2.4879999 1.605 -0.0060000001 150 16 0
2.487 1.61 -0.003 149 16 0
2.487 1.615 0 150 16 0
2.483 1.618 0.0020000001 147 16 0
2.4820001 1.623 0.0049999999 150 16 0
2.4849999 1.63 0.0089999996 150 16 0
2.4820001 1.633 0.012 150 16 0
2.4820001 1.638 0.015 150 16 0
2.4790001 1.641 0.017999999 150 16 0
2.477 1.6440001 0.021 150 16 0
2.4809999 1.651 0.024 145 16 0
2.4790001 1.654 0.027000001 150 16 0
2.477 1.658 0.030999999 150 16 0
2.4749999 1.66 0.034000002 145 16 0
2.4760001 1.666 0.037 148 16 0
2.473 1.668 0.041000001 150 16 0
2.474 1.6720001 0.044 136 16 0
2.4719999 1.675 0.046999998 146 16 0
2.477 1.682 0.050999999 144 16 0
2.4779999 1.686 0.054000001 139 16 0
2.4760001 1.688 0.057999998 148 16 0
2.4760001 1.692 0.061000001 137 16 0
2.4779999 1.696 0.064999998 140 16 0
2.477 1.699 0.068000004 129 16 0
2.474 1.7 0.071000002 128 16 0
2.4760001 1.704 0.075000003 124 16 0
2.477 1.707 0.078000002 80 16 0
2.474 1.7079999 0.082000002 41 16 0
2.4749999 1.711 0.086000003 37 16 0
2.4749999 1.714 0.089000002 36 16 0
2.473 1.715 0.092 40 16 0
2.471 1.715 0.096000001 45 16 0
2.4749999 1.72 0.1 99 16 0
2.4760001 1.723 0.103 121 16 0
2.473 1.722 0.107 141 16 0
2.4749999 1.726 0.11 137 16 0
2.473 1.726 0.114 139 16 0
2.4779999 1.73 0.117 125 16 0
2.4779999 1.732 0.121 135 16 0
2.4779999 1.733 0.125 136 16 0
2.48 1.735 0.12800001 149 16 0
2.483 1.738 0.132 150 16 0
2.487 1.742 0.13600001 150 16 0
2.4890001 1.744 0.14 150 16 0
2.4909999 1.7460001 0.14300001 150 16 0
2.487 1.743 0.146 150 16 0
2.4949999 1.749 0.15000001 123 16 0
2.4920001 1.747 0.154 107 16 0
2.4920001 1.747 0.15700001 88 16 0
2.4960001 1.749 0.161 70 16 0
2.497 1.749 0.16500001 67 16 0
2.5 1.751 0.168 53 16 0
2.497 1.748 0.17200001 49 16 0
2.5020001 1.751 0.176 46 16 0
2.503 1.75 0.17900001 47 16 0
2.503 1.749 0.183 49 16 0
2.5050001 1.75 0.186 58 16 0
2.503 1.747 0.19 54 16 0
2.5079999 1.749 0.193 65 16 0
2.513 1.751 0.197 81 16 0
2.513 1.749 0.2 77 16 0
2.5150001 1.748 0.204 107 16 0
2.517 1.748 0.207 124 16 0
2.516 1.745 0.211 146 16 0
2.517 1.743 0.214 150 16 0
2.5239999 1.745 0.21799999 150 16 0
2.5220001 1.742 0.221 150 16 0
2.5239999 1.74 0.22400001 150 16 0
2.5250001 1.738 0.227 150 16 0
2.5250001 1.735 0.23 148 16 0
2.526 1.733 0.234 135 16 0
2.5309999 1.733 0.237 143 16 0
2.529 1.728 0.23999999 139 16 0
2.5350001 1.729 0.244 145 16 0
2.5380001 1.727 0.24699999 143 16 0
2.536 1.722 0.25 103 16 0
2.5450001 1.724 0.25299999 67 16 0
2.55 1.723 0.257 47 16 0
2.5569999 1.724 0.25999999 41 16 0
2.5550001 1.7180001 0.26300001 39 16 0
2.5580001 1.716 0.266 41 16 0
2.562 1.714 0.26899999 52 16 0
2.5639999 1.711 0.27200001 104 16 0
2.566 1.707 0.27500001 136 16 0
2.5680001 1.704 0.27700001 134 16 0
2.572 1.701 0.28 139 16 0
2.575 1.699 0.28299999 140 16 0
2.5769999 1.6950001 0.28600001 141 16 0
2.5810001 1.692 0.289 136 16 0
2.5840001 1.689 0.292 138 16 0
2.586 1.6849999 0.294 150 16 0
2.5880001 1.6799999 0.29699999 150 16 0
2.592 1.677 0.30000001 150 16 0
2.5929999 1.6720001 0.30199999 147 16 0
2.598 1.669 0.30500001 147 16 0
2.6029999 1.6670001 0.30700001 141 16 0
2.6070001 1.663 0.31 147 16 0
2.609 1.658 0.31200001 139 16 0
2.6140001 1.655 0.315 150 16 0
2.6140001 1.648 0.317 150 16 0
2.6170001 1.6440001 0.31900001 148 16 0
2.6229999 1.641 0.322 150 16 0
2.6110001 1.627 0.322 150 19 0
2.595 1.61 0.322 150 16 0
2.5799999 1.594 0.32100001 150 16 0
2.5769999 1.585 0.32300001 150 16 0
2.582 1.582 0.32499999 133 16 0
2.5869999 1.5779999 0.32699999 130 16 0
2.5899999 1.573 0.329 130 16 0
2.5929999 1.568 0.331 134 16 0
2.596 1.562 0.333 130 16 0
2.5969999 1.5549999 0.33399999 150 16 0
2.6070001 1.554 0.33700001 141 16 0
2.615 1.551 0.33899999 150 16 0
2.6289999 1.552 0.34200001 150 16 0
2.641 1.552 0.345 150 16 0
2.651 1.55 0.347 150 16 0
2.6630001 1.549 0.34999999 101 16 0
2.6489999 1.533 0.34900001 62 16 0
2.6370001 1.5190001 0.34900001 90 16 0
2.6359999 1.51 0.34900001 109 16 0
2.6429999 1.506 0.35100001 79 16 0
2.652 1.503 0.35299999 42 16 0
2.6719999 1.506 0.35699999 38 19 0
2.681 1.503 0.35800001 38 16 0
2.681 1.495 0.359 38 16 0
2.665 1.478 0.35800001 29 19 0
2.6470001 1.459 0.35600001 21 16 0
2.6619999 1.46 0.35800001 27 16 0
2.6670001 1.454 0.36000001 36 16 0
2.671 1.448 0.361 37 16 0
2.6689999 1.438 0.361 37 16 0
2.665 1.427 0.36000001 36 16 0
2.6670001 1.42 0.361 39 16 0
2.665 1.411 0.361 43 16 0
2.6630001 1.401 0.361 46 16 0
2.6659999 1.3940001 0.36199999 70 16 0
2.665 1.385 0.36199999 98 16 0
2.6670001 1.377 0.36199999 113 16 0
2.668 1.369 0.36199999 150 16 0
2.6719999 1.362 0.36300001 150 16 0
2.6719999 1.354 0.36300001 150 16 0
2.6760001 1.347 0.36300001 150 16 0
2.6830001 1.341 0.36399999 150 16 0
2.6830001 1.3329999 0.36399999 150 16 0
2.691 1.3279999 0.36399999 150 16 0
2.6960001 1.321 0.36500001 150 16 0
2.698 1.313 0.36500001 150 16 0
2.7 1.306 0.36500001 150 16 0
2.7049999 1.299 0.36500001 150 16 0
2.7060001 1.29 0.36500001 150 16 0
2.711 1.284 0.36500001 150 16 0
2.717 1.277 0.36500001 150 16 0
2.724 1.272 0.366 150 16 0
2.727 1.2640001 0.36500001 150 16 0
2.7309999 1.257 0.36500001 150 16 0
2.7290001 1.247 0.36399999 150 16 0
2.7349999 1.24 0.36399999 150 16 0
2.7379999 1.232 0.36399999 150 16 0
2.7390001 1.224 0.36300001 150 16 0
2.7449999 1.217 0.36300001 150 16 0
2.7520001 1.211 0.36300001 150 16 0
2.7550001 1.2029999 0.36300001 150 16 0
2.7590001 1.1950001 0.36199999 150 16 0
2.7590001 1.186 0.361 150 16 0
2.766 1.1799999 0.361 150 16 0
2.7690001 1.1720001 0.361 150 16 0
2.777 1.166 0.36000001 150 16 0
2.776 1.156 0.359 150 16 0
2.7839999 1.15 0.359 150 16 0
2.7839999 1.14 0.35800001 150 16 0
2.7869999 1.132 0.35699999 150 16 0
2.7920001 1.125 0.35600001 150 16 0
2.7969999 1.118 0.35499999 150 16 0
2.7969999 1.108 0.354 150 16 0
2.806 1.102 0.354 150 16 0
2.8039999 1.092 0.352 150 16 0
2.8110001 1.085 0.35100001 150 16 0
2.812 1.076 0.34999999 150 16 0
2.819 1.069 0.34900001 150 16 0
2.822 1.061 0.34799999 150 16 0
2.822 1.051 0.347 150 16 0
2.829 1.044 0.34599999 150 16 0
2.832 1.036 0.34400001 150 16 0
2.836 1.028 0.34299999 150 16 0
2.839 1.0190001 0.34200001 150 16 0
2.842 1.011 0.34 150 16 0
2.846 1.003 0.33899999 150 16 0
2.852 0.995 0.338 150 16 0
2.8559999 0.98699999 0.336 150 16 0
2.8570001 0.97799999 0.33500001 150 16 0
2.8640001 0.97100002 0.333 150 16 0
2.862 0.96100003 0.331 150 16 0
2.8699999 0.954 0.33000001 150 16 0
2.8729999 0.94499999 0.32800001 150 16 0
2.8759999 0.93699998 0.32699999 150 16 0
2.881 0.92900002 0.32499999 150 16 0
2.882 0.92000002 0.32300001 150 16 0
2.8870001 0.91100001 0.322 150 16 0
2.888 0.90200001 0.31900001 150 16 0
2.8959999 0.89499998 0.31799999 150 16 0
2.8959999 0.88599998 0.31600001 150 16 0
2.9000001 0.87699997 0.31400001 150 16 0
2.905 0.86900002 0.31200001 150 16 0
2.908 0.86000001 0.31 150 16 0
2.9130001 0.85299999 0.308 150 16 0
2.9200001 0.84500003 0.30700001 150 16 0
2.9230001 0.83600003 0.30500001 150 16 0
2.9260001 0.82700002 0.303 150 16 0
2.9260001 0.81800002 0.30000001 150 16 0
2.931 0.81 0.29800001 150 16 0
2.9360001 0.801 0.296 150 16 0
2.9360001 0.792 0.294 150 16 0
2.9389999 0.78299999 0.29100001 150 16 0
2.948 0.77600002 0.28999999 150 16 0
2.9519999 0.76700002 0.287 150 16 0
2.954 0.75800002 0.285 150 16 0
2.957 0.75 0.28200001 150 16 0
2.9590001 0.741 0.28 150 16 0
2.9619999 0.73199999 0.27700001 150 16 0
2.9679999 0.72399998 0.27500001 150 16 0
2.97 0.71499997 0.273 150 16 0
2.9690001 0.70499998 0.27000001 150 16 0
2.973 0.69599998 0.26699999 150 16 0
2.9779999 0.68800002 0.26499999 150 16 0
2.9849999 0.68000001 0.26300001 150 16 0
2.9890001 0.671 0.25999999 150 16 0
2.9920001 0.662 0.25799999 150 16 0
2.9920001 0.653 0.255 150 16 0
2.997 0.64399999 0.252 150 16 0
3.0020001 0.63599998 0.249 150 16 0
3.0009999 0.62599999 0.24600001 150 16 0
3.007 0.61799997 0.244 150 16 0
3.0139999 0.61000001 0.241 150 16 0
3.016 0.60100001 0.23800001 150 16 0
3.02 0.59200001 0.236 150 16 0
3.0220001 0.583 0.233 150 16 0
3.0239999 0.574 0.23 150 16 0
3.027 0.565 0.227 150 16 0
3.0309999 0.55599999 0.22400001 150 16 0
3.0339999 0.54699999 0.221 150 16 0
3.0409999 0.53899997 0.21799999 150 16 0
3.043 0.52999997 0.215 150 16 0
3.0480001 0.52100003 0.212 113 16 0
3.056 0.51300001 0.20900001 86 16 0
3.059 0.50400001 0.206 61 16 0
3.0599999 0.49399999 0.20299999 43 16 0
3.0739999 0.48699999 0.2 37 16 0
3.079 0.47799999 0.197 35 16 0
3.082 0.46900001 0.19400001 31 16 0
3.092 0.461 0.191 29 16 0
3.1010001 0.45300001 0.18799999 29 16 0
3.109 0.44499999 0.185 28 16 0
3.1170001 0.43599999 0.182 28 16 0
3.1259999 0.428 0.17900001 29 16 0
3.1359999 0.419 0.176 28 16 0
3.145 0.41100001 0.17299999 29 16 0
3.1500001 0.40200001 0.17 29 16 0
3.1589999 0.39300001 0.167 29 16 0
3.1659999 0.38499999 0.163 30 16 0
3.1760001 0.37599999 0.16 29 16 0
3.184 0.368 0.15700001 30 16 0
3.194 0.359 0.153 32 16 0
3.2049999 0.34999999 0.15000001 33 16 0
3.211 0.34099999 0.147 34 16 0
3.2179999 0.33199999 0.14300001 38 16 0
3.2260001 0.32300001 0.14 43 16 0
3.2320001 0.31400001 0.13600001 58 16 0
3.2309999 0.30399999 0.132 49 16 0
3.2279999 0.294 0.12800001 33 16 0
3.2079999 0.28299999 0.123 30 16 0
3.2079999 0.273 0.119 35 16 0
3.21 0.264 0.115 43 16 0
3.217 0.255 0.112 97 16 0
3.21 0.244 0.107 95 16 0
3.201 0.234 0.103 69 16 0
3.194 0.22400001 0.098999999 67 16 0
3.2030001 0.215 0.094999999 79 16 0
3.2079999 0.206 0.090999998 79 16 0
3.2019999 0.19599999 0.086999997 76 16 0
3.214 0.18700001 0.082999997 77 16 0
3.2149999 0.177 0.079000004 83 16 0
3.2160001 0.168 0.075000003 81 16 0
3.2219999 0.15800001 0.071000002 82 16 0
3.227 0.149 0.067000002 99 16 0
3.223 0.139 0.063000001 92 16 0
3.2479999 0.131 0.059 94 16 0
3.2950001 0.123 0.056000002 75 16 0
3.3039999 0.113 0.050999999 61 16 0
3.312 0.104 0.046999998 57 16 0
3.312 0.093999997 0.043000001 55 16 0
3.3110001 0.083999999 0.037999999 57 16 0
3.3169999 0.075000003 0.034000002 63 16 0
3.3210001 0.064999998 0.029999999 48 16 0
3.325 0.055 0.025 42 16 0
3.325 0.045000002 0.021 63 16 0
3.3280001 0.035999998 0.016000001 59 16 0
3.3369999 0.026000001 0.012 37 16 0
3.313 0.016000001 0.0070000002 20 16 0
3.2969999 0.0060000001 0.003 18 16 0
3.267 -0.0020000001 -0.001 17 16 0
3.2420001 -0.012 -0.0049999999 22 16 0
3.244 -0.021 -0.0099999998 79 16 0
3.2479999 -0.030999999 -0.014 150 16 0
3.2479999 -0.039999999 -0.018999999 141 16 0
3.253 -0.050000001 -0.023 145 16 0
3.256 -0.059999999 -0.028000001 150 16 0
3.25 -0.068999998 -0.033 81 16 0
3.2320001 -0.078000002 -0.037 29 16 0
3.2119999 -0.086999997 -0.041000001 27 16 0
3.191 -0.096000001 -0.045000002 27 16 0
3.1700001 -0.104 -0.050000001 27 16 0
3.145 -0.113 -0.054000001 26 16 0
3.1289999 -0.121 -0.057999998 27 16 0
3.1070001 -0.12899999 -0.061999999 25 16 0
3.0910001 -0.13699999 -0.066 25 16 0
3.069 -0.145 -0.07 26 16 0
3.046 -0.153 -0.074000001 27 16 0
3.0280001 -0.161 -0.078000002 26 16 0
3.0020001 -0.168 -0.082000002 26 16 0
2.9879999 -0.176 -0.086000003 26 16 0
2.964 -0.183 -0.090000004 25 16 0
2.9489999 -0.191 -0.093999997 26 16 0
2.9319999 -0.198 -0.097000003 27 16 0
2.911 -0.205 -0.101 28 16 0
2.8929999 -0.212 -0.105 27 16 0
2.8759999 -0.219 -0.109 26 16 0
2.8610001 -0.226 -0.112 25 16 0
2.845 -0.233 -0.116 28 16 0
2.823 -0.23999999 -0.119 27 16 0
2.8080001 -0.24600001 -0.123 28 16 0
2.7950001 -0.25299999 -0.127 28 16 0
2.7780001 -0.25999999 -0.13 27 16 0
2.7639999 -0.266 -0.134 29 16 0
2.743 -0.27200001 -0.13699999 28 16 0
2.7349999 -0.27900001 -0.141 30 16 0
2.7219999 -0.28600001 -0.145 29 16 0
2.714 -0.29300001 -0.148 29 16 0
2.6889999 -0.29800001 -0.15099999 32 16 0
2.677 -0.30399999 -0.155 29 16 0
2.6619999 -0.31 -0.15800001 30 16 0
2.6470001 -0.31600001 -0.162 32 16 0
2.631 -0.32100001 -0.16500001 30 16 0
2.6210001 -0.32699999 -0.168 31 16 0
2.6010001 -0.33199999 -0.171 32 16 0
2.5929999 -0.33899999 -0.175 31 16 0
2.575 -0.34400001 -0.178 29 16 0
2.5639999 -0.34999999 -0.182 33 16 0
2.5469999 -0.354 -0.184 31 16 0
2.54 -0.361 -0.18799999 32 16 0
2.523 -0.36500001 -0.191 32 16 0
2.5050001 -0.37 -0.19400001 31 16 0
2.497 -0.37599999 -0.197 29 16 0
2.4860001 -0.38100001 -0.20100001 32 16 0
2.4719999 -0.38600001 -0.204 31 16 0
2.4590001 -0.391 -0.207 32 16 0
2.451 -0.39700001 -0.20999999 35 16 0
2.4349999 -0.40099999 -0.213 32 16 0
2.425 -0.40599999 -0.21600001 37 16 0
2.4119999 -0.41100001 -0.219 36 16 0
2.401 -0.41600001 -0.222 31 16 0
2.3889999 -0.41999999 -0.22499999 35 16 0
2.3789999 -0.42500001 -0.229 39 16 0
2.369 -0.43000001 -0.23199999 29 16 0
2.3540001 -0.43399999 -0.235 32 16 0
2.339 -0.43799999 -0.237 41 16 0
2.3280001 -0.442 -0.23999999 30 16 0
2.322 -0.44800001 -0.244 37 16 0
2.309 -0.45199999 -0.24600001 31 16 0
2.3 -0.456 -0.25 38 16 0
2.2850001 -0.46000001 -0.252 34 16 0
2.2750001 -0.46399999 -0.255 39 16 0
2.2650001 -0.46900001 -0.25799999 40 16 0
2.2539999 -0.472 -0.26100001 38 16 0
2.2390001 -0.47600001 -0.26300001 41 16 0
2.2360001 -0.48100001 -0.26699999 37 16 0
2.2249999 -0.48500001 -0.27000001 44 16 0
2.2119999 -0.48800001 -0.27200001 43 16 0
2.2090001 -0.49399999 -0.27599999 45 16 0
2.194 -0.49700001 -0.278 44 16 0
2.1849999 -0.50099999 -0.28099999 52 16 0
2.178 -0.505 -0.28400001 55 16 0
2.1589999 -0.50700003 -0.28600001 57 16 0
2.151 -0.51099998 -0.289 62 16 0
2.141 -0.514 -0.292 56 16 0
2.1340001 -0.51800001 -0.29499999 63 16 0
2.122 -0.52100003 -0.29699999 55 16 0
2.1159999 -0.52600002 -0.301 57 16 0
2.1059999 -0.52899998 -0.303 60 16 0
2.095 -0.53200001 -0.30599999 67 16 0
2.0880001 -0.53600001 -0.30899999 91 16 0
2.0799999 -0.54000002 -0.31200001 89 16 0
2.0699999 -0.54299998 -0.31400001 85 16 0
2.0569999 -0.54500002 -0.31600001 82 16 0
2.052 -0.54900002 -0.31999999 88 16 0
2.0420001 -0.55199999 -0.322 83 16 0
2.0339999 -0.55599999 -0.32499999 85 16 0
2.0209999 -0.55800003 -0.32699999 88 16 0
2.0179999 -0.56199998 -0.33000001 77 16 0
2.0079999 -0.565 -0.333 82 16 0
2 -0.56800002 -0.336 92 16 0
1.993 -0.57099998 -0.33899999 95 16 0
1.983 -0.574 -0.34099999 88 16 0
1.977 -0.57800001 -0.34400001 87 16 0
1.965 -0.579 -0.34599999 88 16 0
1.962 -0.58399999 -0.34999999 81 16 0
1.9529999 -0.58600003 -0.352 85 16 0
1.9450001 -0.58899999 -0.35499999 82 16 0
1.943 -0.59399998 -0.359 97 16 0
1.9220001 -0.59200001 -0.359 92 19 0
1.914 -0.59500003 -0.361 99 16 0
1.9119999 -0.59899998 -0.36500001 97 16 0
1.905 -0.602 -0.368 93 16 0
1.901 -0.60600001 -0.37099999 109 16 0
1.893 -0.60900003 -0.37400001 103 16 0
1.887 -0.61199999 -0.377 101 16 0
1.8789999 -0.61400002 -0.37900001 94 16 0
1.8710001 -0.616 -0.38100001 97 16 0
1.8660001 -0.61900002 -0.38499999 103 16 0
1.855 -0.62099999 -0.38699999 102 16 0
1.85 -0.62300003 -0.389 95 16 0
1.844 -0.62599999 -0.39199999 105 16 0
1.837 -0.62900001 -0.39500001 108 16 0
1.835 -0.63300002 -0.398 118 16 0
1.8279999 -0.63499999 -0.40099999 116 16 0
1.819 -0.63700002 -0.403 103 16 0
1.811 -0.63800001 -0.40599999 138 16 0
1.804 -0.63999999 -0.40799999 140 16 0
1.798 -0.64300001 -0.41100001 138 16 0
1.7920001 -0.64499998 -0.414 146 16 0
1.785 -0.64700001 -0.41600001 148 16 0
1.781 -0.64999998 -0.419 147 16 0
1.777 -0.653 -0.42199999 150 16 0
1.7690001 -0.65399998 -0.42500001 150 16 0
1.767 -0.65799999 -0.428 147 16 0
1.755 -0.65799999 -0.43000001 148 16 0
1.753 -0.662 -0.433 147 16 0
1.7410001 -0.66100001 -0.43399999 147 16 0
1.738 -0.66399997 -0.43799999 150 16 0
1.7359999 -0.66799998 -0.44100001 150 16 0
1.732 -0.67000002 -0.44400001 150 16 0
1.722 -0.671 -0.44600001 147 16 0
1.717 -0.67299998 -0.449 150 16 0
1.71 -0.67400002 -0.45100001 149 16 0
1.705 -0.676 -0.454 150 16 0
1.7029999 -0.67900002 -0.45699999 145 16 0
1.698 -0.68099999 -0.46000001 150 16 0
1.696 -0.68400002 -0.46399999 150 16 0
1.687 -0.685 -0.465 150 16 0
1.6849999 -0.68800002 -0.46900001 150 16 0
1.673 -0.68599999 -0.47 146 16 0
1.6720001 -0.69 -0.47400001 150 16 0
1.661 -0.68900001 -0.47400001 150 16 0
1.659 -0.69199997 -0.47799999 150 16 0
1.658 -0.69499999 -0.48199999 1 0 0
1.652 -0.69599998 -0.484 150 16 0
1.643 -0.69599998 -0.486 150 16 0
1.641 -0.699 -0.48899999 150 16 0
1.6339999 -0.699 -0.491 43 0 0
1.633 -0.70200002 -0.495 150 16 0
1.627 -0.70300001 -0.49700001 1 0 0
1.622 -0.704 -0.49900001 150 16 0
1.62 -0.70700002 -0.50300002 150 16 0
1.615 -0.708 -0.505 65 0 0
1.61 -0.70899999 -0.50800002 1 0 0
1.605 -0.70999998 -0.50999999 150 16 0
1.603 -0.71200001 -0.514 1 0 0
1.598 -0.713 -0.51599997 150 16 0
1.591 -0.713 -0.51800001 54 0 0
1.59 -0.71600002 -0.52200001 150 16 0
1.585 -0.71600002 -0.52399999 66 0 0
1.5829999 -0.71799999 -0.52700001 94 0 0
1.58 -0.72000003 -0.52999997 150 16 0
1.576 -0.72100002 -0.53299999 2 0 0
1.569 -0.72100002 -0.53399998 83 0 0
1.567 -0.72299999 -0.53799999 3 0 0
1.5650001 -0.72399998 -0.54100001 75 0 0
1.559 -0.72500002 -0.54299998 80 0 0
1.558 -0.727 -0.54699999 150 16 0
1.552 -0.72600001 -0.54799998 1 0 0
1.553 -0.72899997 -0.55199999 75 0 0
1.548 -0.73000002 -0.55500001 2 0 0
1.536 -0.72600001 -0.55400002 77 3 0
1.533 -0.72799999 -0.55699998 75 0 0
1.531 -0.72899997 -0.56 83 0 0
1.53 -0.73100001 -0.56400001 84 0 0
1.526 -0.73100001 -0.56599998 116 0 0
1.523 -0.73199999 -0.56900001 110 0 0
1.522 -0.73400003 -0.57200003 97 0 0
1.521 -0.73500001 -0.57499999 123 0 0
1.516 -0.73500001 -0.57700002 119 0 0
1.5140001 -0.736 -0.57999998 108 0 0
1.513 -0.73699999 -0.583 99 0 0
1.511 -0.73900002 -0.58600003 126 0 0
1.5089999 -0.74000001 -0.58899999 111 0 0
1.507 -0.74000001 -0.59200001 112 0 0
1.505 -0.741 -0.59500003 87 0 0
1.499 -0.74000001 -0.59600002 83 0 0
1.497 -0.74000001 -0.59899998 88 0 0
1.495 -0.741 -0.602 104 0 0
1.494 -0.74199998 -0.60500002 101 0 0
1.4910001 -0.74199998 -0.60699999 110 0 0
1.4910001 -0.74400002 -0.611 117 0 0
1.489 -0.74400002 -0.61299998 125 0 0
1.4910001 -0.74599999 -0.61799997 138 0 0
1.4859999 -0.745 -0.61900002 105 0 0
1.483 -0.745 -0.62099999 107 0 0
1.4809999 -0.745 -0.62400001 97 0 0
1.478 -0.745 -0.62599999 100 0 0
1.4809999 -0.74699998 -0.63 101 0 0
1.477 -0.74599999 -0.63200003 101 0 0
1.476 -0.74699998 -0.63499999 118 0 0
1.474 -0.74699998 -0.63700002 133 0 0
1.473 -0.74699998 -0.63999999 121 0 0
1.472 -0.74699998 -0.64200002 111 0 0
1.466 -0.745 -0.64300001 97 0 0
1.4680001 -0.74599999 -0.64700001 122 0 0
1.4680001 -0.74699998 -0.64999998 112 0 0
1.467 -0.74699998 -0.653 125 0 0
1.466 -0.74699998 -0.65499997 141 0 0
1.465 -0.74699998 -0.65799999 150 0 0
1.462 -0.74599999 -0.65899998 115 0 0
1.461 -0.74599999 -0.662 148 0 0
1.462 -0.74699998 -0.66500002 122 0 0
1.462 -0.74699998 -0.66799998 113 0 0
1.46 -0.74599999 -0.67000002 113 0 0
1.46 -0.74599999 -0.67199999 130 0 0
1.462 -0.74699998 -0.676 148 0 0
1.4579999 -0.745 -0.67699999 105 0 0
1.457 -0.74400002 -0.67900002 101 0 0
1.456 -0.74400002 -0.68099999 132 0 0
1.455 -0.74299997 -0.68300003 150 0 0
1.46 -0.745 -0.68800002 129 0 0
1.456 -0.74199998 -0.68800002 150 16 0
1.455 -0.74199998 -0.69 150 16 0
1.459 -0.74299997 -0.69400001 150 0 0
1.4579999 -0.74199998 -0.69599998 150 0 0
1.456 -0.741 -0.69700003 150 16 0
1.457 -0.74000001 -0.69999999 150 16 0
1.456 -0.73900002 -0.70200002 150 16 0
1.456 -0.73900002 -0.704 150 16 0
1.4579999 -0.73799998 -0.70700002 150 0 0
1.456 -0.736 -0.708 150 16 0
1.459 -0.73699999 -0.71100003 150 16 0
1.46 -0.73699999 -0.71399999 150 0 0
1.455 -0.73299998 -0.713 150 19 0
1.459 -0.73400003 -0.71600002 150 0 0
1.464 -0.73500001 -0.72100002 150 16 0
1.4630001 -0.73400003 -0.722 150 16 0
1.461 -0.73100001 -0.722 150 0 0
1.465 -0.73100001 -0.72600001 150 16 0
1.465 -0.73000002 -0.727 150 16 0
1.467 -0.72899997 -0.73000002 150 16 0
1.465 -0.727 -0.73000002 150 0 0
1.47 -0.72799999 -0.73400003 150 16 0
1.47 -0.72600001 -0.73500001 150 16 0
1.4680001 -0.72299999 -0.73500001 150 0 0
1.472 -0.72399998 -0.73900002 150 16 0
1.475 -0.72299999 -0.741 150 16 0
1.479 -0.72299999 -0.74400002 150 16 0
1.48 -0.722 -0.74599999 150 16 0
1.48 -0.72000003 -0.74699998 150 16 0
1.483 -0.71899998 -0.74900001 150 16 0
1.485 -0.71799999 -0.75099999 150 16 0
1.485 -0.71600002 -0.75199997 150 0 0
1.49 -0.71600002 -0.755 150 16 0
1.49 -0.713 -0.755 150 0 0
1.4960001 -0.71399999 -0.759 150 19 0
1.4960001 -0.71200001 -0.759 150 0 0
1.501 -0.71100003 -0.76200002 150 0 0
1.502 -0.70999998 -0.76300001 150 0 0
1.5039999 -0.708 -0.76499999 150 0 0
1.506 -0.70599997 -0.76599997 150 16 0
1.508 -0.704 -0.76700002 150 16 0
1.51 -0.70300001 -0.76800001 150 16 0
1.513 -0.70099998 -0.76899999 150 16 0
1.52 -0.70200002 -0.773 150 19 0
1.525 -0.70099998 -0.77499998 150 0 0
1.52 -0.69599998 -0.77200001 150 0 0
1.529 -0.69700003 -0.77700001 150 0 0
1.535 -0.69700003 -0.77999997 150 0 0
1.535 -0.69400001 -0.77899998 114 0 0
1.539 -0.69300002 -0.78100002 147 0 0
1.54 -0.69 -0.78100002 116 0 0
1.5420001 -0.68800002 -0.78100002 150 0 0
1.545 -0.68599999 -0.78200001 119 0 0
1.551 -0.685 -0.78500003 86 0 0
1.552 -0.68199998 -0.78500003 109 0 0
1.5549999 -0.68000001 -0.78500003 109 0 0
1.563 -0.68000001 -0.78899997 104 0 0
1.5700001 -0.68000001 -0.79100001 109 0 0
1.576 -0.67900002 -0.79299998 121 0 0
1.5779999 -0.67699999 -0.79299998 115 0 0
1.571 -0.67000002 -0.78899997 78 3 0
1.5829999 -0.67199999 -0.79400003 102 0 0
1.585 -0.66900003 -0.79299998 111 0 0
1.594 -0.66900003 -0.796 4 0 0
1.595 -0.66600001 -0.796 3 0 0
1.599 -0.66399997 -0.796 2 0 0
1.6 -0.66100001 -0.79500002 2 0 0
1.604 -0.65799999 -0.796 2 0 0
1.6109999 -0.65700001 -0.79799998 150 16 0
1.617 -0.65600002 -0.79900002 150 16 0
1.615 -0.65100002 -0.796 2 0 0
1.626 -0.65200001 -0.80000001 150 19 0
1.6289999 -0.64899999 -0.79900002 150 16 0
1.635 -0.648 -0.80000001 150 16 0
1.64 -0.64600003 -0.801 150 16 0
1.645 -0.64399999 -0.80199999 150 16 0
1.651 -0.64200002 -0.80199999 150 16 0
1.654 -0.639 -0.80199999 150 16 0
1.656 -0.63599998 -0.80000001 150 16 0
1.66 -0.63300002 -0.80000001 150 16 0
1.6670001 -0.63099998 -0.801 150 16 0
1.671 -0.62900001 -0.801 150 16 0
1.678 -0.62699997 -0.801 150 16 0
1.687 -0.62599999 -0.80299997 150 16 0
1.689 -0.62300003 -0.80199999 150 16 0
1.689 -0.61900002 -0.79900002 150 16 0
1.7029999 -0.62 -0.80299997 150 19 0
1.707 -0.61699998 -0.80199999 150 16 0
1.711 -0.61400002 -0.801 150 16 0
1.715 -0.611 -0.80000001 150 16 0
1.723 -0.60900003 -0.801 150 16 0
1.727 -0.60600001 -0.80000001 2 0 0
1.7309999 -0.60399997 -0.79900002 150 16 0
1.7410001 -0.60299999 -0.801 150 16 0
1.745 -0.60000002 -0.80000001 2 0 0
1.7539999 -0.59799999 -0.80000001 150 16 0
1.7589999 -0.59600002 -0.80000001 2 0 0
1.768 -0.59399998 -0.80000001 2 0 0
1.767 -0.58899999 -0.79699999 150 16 0
1.776 -0.588 -0.79699999 150 16 0
1.781 -0.58499998 -0.796 150 16 0
1.785 -0.58200002 -0.79400003 150 16 0
1.788 -0.57800001 -0.792 150 16 0
1.794 -0.57499999 -0.79100001 150 16 0
1.799 -0.57200003 -0.79000002 150 16 0
1.8150001 -0.57300001 -0.79400003 150 19 0
1.817 -0.56900001 -0.79100001 150 16 0
1.824 -0.56699997 -0.79000002 150 16 0
1.8279999 -0.56400001 -0.78799999 150 16 0
1.8380001 -0.56199998 -0.78799999 150 16 0
1.848 -0.56 -0.78899997 150 16 0
1.851 -0.55699998 -0.78600001 150 16 0
1.8559999 -0.55299997 -0.78399998 150 16 0
1.8660001 -0.55199999 -0.78500003 150 16 0
1.876 -0.55000001 -0.78500003 150 16 0
1.878 -0.546 -0.78200001 150 16 0
1.88 -0.542 -0.77899998 150 16 0
1.893 -0.54100001 -0.77899998 150 16 0
1.901 -0.53799999 -0.778 150 16 0
1.906 -0.53500003 -0.77600002 150 16 0
1.911 -0.53200001 -0.77399999 150 16 0
1.919 -0.52999997 -0.773 150 16 0
1.923 -0.52600002 -0.76999998 143 16 0
1.932 -0.52399999 -0.76899999 150 16 0
1.939 -0.52100003 -0.76700002 140 16 0
1.943 -0.51700002 -0.76499999 145 16 0
1.952 -0.51499999 -0.76300001 146 16 0
1.959 -0.51200002 -0.76200002 148 16 0
1.9680001 -0.50999999 -0.75999999 150 16 0
1.971 -0.50599998 -0.75700003 150 16 0
1.984 -0.50400001 -0.75700003 150 16 0
1.987 -0.50099999 -0.75300002 143 16 0
1.998 -0.498 -0.75300002 138 16 0
2.0050001 -0.495 -0.75 143 16 0
2.0109999 -0.49200001 -0.74800003 150 16 0
2.0209999 -0.49000001 -0.74699998 142 16 0
2.0239999 -0.486 -0.74299997 138 16 0
2.0320001 -0.48300001 -0.741 144 16 0
2.0369999 -0.479 -0.73699999 133 16 0
2.052 -0.47799999 -0.73799998 140 16 0
2.0639999 -0.47600001 -0.73699999 136 16 0
2.0710001 -0.47299999 -0.73400003 133 16 0
2.0780001 -0.47 -0.73100001 125 16 0
2.086 -0.46700001 -0.72899997 102 16 0
2.0940001 -0.46399999 -0.72600001 99 16 0
2.096 -0.46000001 -0.722 94 16 0
2.109 -0.458 -0.72100002 96 16 0
2.118 -0.45500001 -0.71799999 97 16 0
2.125 -0.45199999 -0.71499997 97 16 0
2.132 -0.449 -0.71200001 102 16 0
2.1429999 -0.44600001 -0.70999998 90 16 0
2.148 -0.442 -0.70599997 97 16 0
2.1570001 -0.44 -0.704 100 16 0
2.1689999 -0.43700001 -0.70200002 92 16 0
2.174 -0.43399999 -0.69800001 91 16 0
2.181 -0.43000001 -0.69499999 86 16 0
2.1900001 -0.42699999 -0.69199997 90 16 0
2.1960001 -0.42399999 -0.68800002 88 16 0
2.207 -0.421 -0.685 90 16 0
2.2130001 -0.417 -0.68099999 88 16 0
2.223 -0.41499999 -0.67900002 84 16 0
2.234 -0.412 -0.676 86 16 0
2.2420001 -0.40900001 -0.67199999 79 16 0
2.2490001 -0.405 -0.66900003 81 16 0
2.2550001 -0.40200001 -0.66399997 83 16 0
2.2639999 -0.398 -0.66100001 73 16 0
2.2750001 -0.39500001 -0.65799999 72 16 0
2.289 -0.39300001 -0.65600002 47 16 0
2.2950001 -0.389 -0.65100002 63 16 0
2.303 -0.38600001 -0.64700001 64 16 0
2.312 -0.38299999 -0.64399999 52 16 0
2.323 -0.38 -0.63999999 66 16 0
2.3269999 -0.37599999 -0.63499999 46 16 0
2.342 -0.373 -0.63300002 61 16 0
2.352 -0.37 -0.62900001 58 16 0
2.3610001 -0.36700001 -0.625 52 16 0
2.3659999 -0.36300001 -0.62 54 16 0
2.3789999 -0.36000001 -0.61699998 62 16 0
2.391 -0.35699999 -0.61400002 54 16 0
2.3929999 -0.35299999 -0.60799998 50 16 0
2.405 -0.34999999 -0.60399997 52 16 0
2.4070001 -0.34599999 -0.59799999 48 16 0
2.4189999 -0.34299999 -0.59399998 46 16 0
2.4330001 -0.34 -0.59100002 46 16 0
2.4400001 -0.336 -0.58600003 42 16 0
2.4519999 -0.333 -0.58200002 40 16 0
2.457 -0.329 -0.57599998 42 16 0
2.4649999 -0.32499999 -0.57099998 44 16 0
2.4760001 -0.322 -0.56699997 39 16 0
2.4849999 -0.31900001 -0.56199998 38 16 0
2.497 -0.31600001 -0.55800003 46 16 0
2.5039999 -0.31200001 -0.55299997 33 16 0
2.5190001 -0.30899999 -0.54900002 42 16 0
2.527 -0.30500001 -0.54400003 34 16 0
2.5339999 -0.301 -0.53799999 34 16 0
2.546 -0.29800001 -0.53399998 34 16 0
2.559 -0.29499999 -0.52899998 34 16 0
2.562 -0.28999999 -0.523 34 16 0
2.573 -0.287 -0.51800001 34 16 0
2.586 -0.28400001 -0.51300001 34 16 0
2.5929999 -0.28 -0.50700003 31 16 0
2.608 -0.27700001 -0.50300002 34 16 0
2.6159999 -0.273 -0.49700001 33 16 0
2.625 -0.26899999 -0.49200001 32 16 0
2.641 -0.266 -0.48699999 32 16 0
2.6429999 -0.26199999 -0.47999999 30 16 0
2.6600001 -0.259 -0.47600001 33 16 0
2.6670001 -0.255 -0.47 35 16 0
2.6819999 -0.252 -0.465 33 16 0
2.687 -0.24699999 -0.458 32 16 0
2.6989999 -0.244 -0.45199999 32 16 0
2.7049999 -0.23999999 -0.44600001 31 16 0
2.717 -0.236 -0.44 32 16 0
2.7279999 -0.23199999 -0.43399999 31 16 0
2.7349999 -0.228 -0.42699999 27 16 0
2.747 -0.22499999 -0.42199999 28 16 0
2.76 -0.221 -0.41600001 28 16 0
2.7690001 -0.21699999 -0.40900001 27 16 0
2.7820001 -0.213 -0.403 28 16 0
2.793 -0.20999999 -0.39700001 28 16 0
2.806 -0.206 -0.391 28 16 0
2.8199999 -0.20200001 -0.38499999 28 16 0
2.8269999 -0.198 -0.37799999 28 16 0
2.8340001 -0.19400001 -0.37099999 28 16 0
2.8499999 -0.19 -0.36500001 27 16 0
2.8599999 -0.186 -0.35800001 28 16 0
2.8710001 -0.182 -0.35100001 28 16 0
2.8870001 -0.17900001 -0.345 28 16 0
2.8970001 -0.175 -0.338 29 16 0
2.901 -0.17 -0.33000001 28 16 0
2.918 -0.167 -0.324 27 16 0
2.934 -0.163 -0.317 29 16 0
2.944 -0.15899999 -0.31 28 16 0
2.9579999 -0.155 -0.303 27 16 0
2.9660001 -0.15099999 -0.29499999 27 16 0
2.9760001 -0.146 -0.28799999 28 16 0
2.9860001 -0.142 -0.28 28 16 0
2.997 -0.138 -0.27200001 28 16 0
3.023 -0.13500001 -0.266 29 16 0
3.033 -0.13 -0.25799999 28 16 0
3.0439999 -0.126 -0.25 28 16 0
3.056 -0.122 -0.243 29 16 0
3.0669999 -0.118 -0.235 27 16 0
3.0810001 -0.114 -0.227 28 16 0
3.0940001 -0.109 -0.219 28 16 0
3.1040001 -0.105 -0.211 29 16 0
3.1210001 -0.101 -0.20299999 29 16 0
3.131 -0.096000001 -0.19499999 29 16 0
3.1470001 -0.092 -0.186 29 16 0
3.158 -0.088 -0.178 32 16 0
3.171 -0.082999997 -0.17 30 16 0
3.188 -0.079000004 -0.161 33 16 0
3.201 -0.075000003 -0.153 47 16 0
3.2019999 -0.07 -0.14399999 114 16 0
3.214 -0.066 -0.13500001 150 16 0
3.214 -0.061000001 -0.125 150 16 0
3.221 -0.056000002 -0.116 150 16 0
3.2249999 -0.052000001 -0.107 150 16 0
3.2179999 -0.046999998 -0.097999997 150 16 0
3.2179999 -0.041999999 -0.088 150 16 0
3.2260001 -0.037999999 -0.079000004 150 16 0
3.233 -0.033 -0.07 150 16 0
3.2290001 -0.028999999 -0.059999999 150 16 0
3.2320001 -0.024 -0.050999999 150 16 0
3.2309999 -0.02 -0.041999999 92 16 0
3.2349999 -0.015 -0.032000002 40 16 0
3.2420001 -0.011 -0.023 26 16 0
3.257 -0.0060000001 -0.013 19 16 0
3.2690001 -0.0020000001 -0.0040000002 19 16 0
3.29 0.0020000001 0.0049999999 19 16 0
3.299 0.0070000002 0.014 19 16 0
3.3110001 0.011 0.024 20 16 0
3.325 0.016000001 0.034000002 20 16 0
3.3399999 0.02 0.044 23 16 0
3.355 0.025 0.054000001 33 16 0
3.362 0.029999999 0.064000003 56 16 0
3.3629999 0.034000002 0.074000001 142 16 0
3.3469999 0.037999999 0.082999997 32 16 0
3.3310001 0.043000001 0.093000002 31 16 0
3.3069999 0.046999998 0.102 33 16 0
3.2839999 0.050999999 0.111 33 16 0
3.266 0.055 0.12 55 16 0
3.267 0.059 0.13 150 16 0
3.267 0.064000003 0.139 150 16 0
3.266 0.068000004 0.149 150 16 0
3.27 0.071999997 0.15899999 150 16 0
3.2690001 0.075999998 0.169 150 16 0
3.27 0.081 0.178 150 16 0
3.2739999 0.085000001 0.18799999 150 16 0
3.2750001 0.089000002 0.198 150 16 0
3.283 0.093999997 0.20900001 150 16 0
3.2839999 0.097999997 0.21799999 150 16 0
3.283 0.102 0.228 150 16 0
3.2820001 0.106 0.23800001 150 16 0
3.29 0.111 0.248 150 16 0
3.2920001 0.115 0.25799999 150 16 0
3.29 0.119 0.26800001 150 16 0
3.2969999 0.123 0.278 150 16 0
3.296 0.127 0.28799999 150 16 0
3.3 0.132 0.29899999 150 16 0
3.302 0.13600001 0.30899999 150 16 0
3.3050001 0.14 0.31900001 150 16 0
3.313 0.14399999 0.33000001 150 16 0
3.313 0.148 0.34 150 16 0
3.312 0.152 0.34999999 150 16 0
3.3150001 0.156 0.36000001 150 16 0
3.316 0.16 0.37 150 16 0
3.293 0.163 0.37799999 45 16 0
3.28 0.167 0.38600001 45 16 0
3.256 0.169 0.39300001 43 16 0
3.2479999 0.17299999 0.40200001 44 16 0
3.2279999 0.175 0.41 43 16 0
3.211 0.178 0.417 45 16 0
3.1930001 0.18099999 0.42500001 45 16 0
3.177 0.184 0.43200001 43 16 0
3.1600001 0.186 0.44 46 16 0
3.142 0.189 0.447 42 16 0
3.118 0.191 0.45300001 44 16 0
3.108 0.19400001 0.461 42 16 0
3.0840001 0.19599999 0.46700001 41 16 0
3.0739999 0.199 0.47499999 40 16 0
3.0580001 0.20100001 0.48199999 41 16 0
3.0350001 0.20299999 0.48800001 43 16 0
3.0220001 0.206 0.495 43 16 0
3.0020001 0.207 0.50099999 45 16 0
2.9860001 0.20999999 0.50800002 43 16 0
2.974 0.212 0.51499999 44 16 0
2.96 0.214 0.52200001 46 16 0
2.9449999 0.21600001 0.528 45 16 0
2.9300001 0.21799999 0.53500003 48 16 0
2.9189999 0.221 0.542 46 16 0
2.902 0.223 0.54799998 42 16 0
2.888 0.22499999 0.55500001 41 16 0
2.8759999 0.227 0.56099999 44 16 0
2.859 0.228 0.56699997 42 16 0
2.842 0.23 0.57300001 45 16 0
2.8329999 0.23199999 0.57999998 55 16 0
2.8169999 0.234 0.58499998 46 16 0
2.8039999 0.235 0.59100002 57 16 0
2.793 0.237 0.59799999 62 16 0
2.78 0.23899999 0.60399997 57 16 0
2.7620001 0.23999999 0.60900003 64 16 0
2.753 0.242 0.616 106 16 0
2.74 0.244 0.62099999 71 16 0
2.7249999 0.245 0.62699997 64 16 0
2.7119999 0.24699999 0.63200003 68 16 0
2.7049999 0.249 0.639 70 16 0
2.6830001 0.249 0.64300001 58 16 0
2.6760001 0.25099999 0.64999998 76 16 0
2.6630001 0.252 0.65499997 76 16 0
2.654 0.25400001 0.662 115 16 0
2.6389999 0.255 0.66600001 113 16 0
2.6270001 0.25600001 0.67199999 125 16 0
2.618 0.25799999 0.67799997 119 16 0
2.602 0.259 0.68199998 120 16 0
2.5899999 0.25999999 0.68800002 122 16 0
2.5840001 0.26100001 0.69400001 115 16 0
2.569 0.26199999 0.699 148 16 0
2.5569999 0.26300001 0.704 150 16 0
2.5439999 0.264 0.708 147 16 0
2.5320001 0.26499999 0.713 148 16 0
2.5209999 0.266 0.71799999 110 16 0
2.513 0.26699999 0.72399998 84 16 0
2.4979999 0.26800001 0.72799999 108 16 0
2.4920001 0.26899999 0.73500001 147 16 0
2.4760001 0.26899999 0.73799998 150 16 0
2.4679999 0.271 0.74400002 146 16 0
2.4560001 0.271 0.74800003 150 16 0
2.4460001 0.27200001 0.75300002 150 16 0
2.4289999 0.27200001 0.75599998 150 16 0
2.4219999 0.273 0.76200002 150 16 0
2.4130001 0.27399999 0.76700002 150 16 0
2.4030001 0.27500001 0.77200001 150 16 0
2.392 0.27500001 0.77600002 150 16 0
2.3859999 0.27599999 0.78200001 150 16 0
2.3710001 0.27599999 0.78500003 150 16 0
2.365 0.27700001 0.79100001 150 16 0
2.3559999 0.278 0.796 150 16 0
2.345 0.278 0.80000001 150 16 0
2.3310001 0.278 0.80299997 150 16 0
2.3269999 0.27900001 0.80900002 150 16 0
2.3180001 0.28 0.81400001 150 16 0
2.3050001 0.28 0.81699997 150 16 0
2.2950001 0.28 0.82099998 150 16 0
2.2880001 0.28099999 0.82700002 150 16 0
2.273 0.28 0.82800001 150 16 0
2.266 0.28099999 0.833 150 16 0
2.2590001 0.28099999 0.83899999 150 16 0
2.2460001 0.28099999 0.84200001 150 16 0
2.237 0.28099999 0.84600002 150 16 0
2.2249999 0.28099999 0.84899998 150 16 0
2.217 0.28099999 0.85299999 150 16 0
2.2130001 0.28200001 0.85900003 150 16 0
2.201 0.28200001 0.86199999 150 16 0
2.1900001 0.28099999 0.86500001 150 16 0
2.1819999 0.28099999 0.86900002 150 16 0
2.175 0.28200001 0.87300003 150 16 0
2.161 0.28099999 0.875 150 16 0
2.152 0.28099999 0.87900001 150 16 0
2.1470001 0.28099999 0.884 150 16 0
2.1389999 0.28099999 0.88800001 150 16 0
2.1289999 0.28099999 0.89099997 150 16 0
2.1199999 0.28 0.89399999 150 16 0
2.1140001 0.28 0.89899999 150 16 0
2.1070001 0.28 0.903 150 16 0
2.1010001 0.28 0.90700001 150 16 0
2.086 0.27900001 0.90799999 150 16 0
2.0829999 0.27900001 0.91299999 150 16 0
2.0710001 0.27900001 0.91500002 150 16 0
2.0669999 0.27900001 0.921 150 16 0
2.0610001 0.27900001 0.92500001 150 16 0
2.0469999 0.27700001 0.92500001 150 16 0
2.0469999 0.278 0.93199998 150 16 0
2.04 0.27700001 0.93599999 150 16 0
2.0339999 0.27700001 0.94 150 16 0
2.0209999 0.27599999 0.94099998 150 16 0
2.013 0.27500001 0.94400001 150 16 0
2.003 0.27399999 0.94599998 150 16 0
1.998 0.27399999 0.94999999 150 16 0
1.994 0.27399999 0.95499998 150 16 0
1.979 0.27200001 0.954 150 16 0
1.974 0.27200001 0.958 150 16 0
1.967 0.271 0.96100003 150 16 0
1.961 0.271 0.96499997 150 16 0
1.952 0.27000001 0.96700001 150 16 0
1.946 0.26899999 0.97000003 150 16 0
1.937 0.26800001 0.972 150 16 0
1.932 0.26699999 0.97600001 150 16 0
1.925 0.266 0.97899997 150 16 0
1.916 0.26499999 0.98000002 150 16 0
1.909 0.264 0.98299998 150 16 0
1.905 0.26300001 0.98699999 150 16 0
1.896 0.26199999 0.98900002 150 16 0
1.891 0.26100001 0.99199998 150 16 0
1.886 0.26100001 0.995 150 16 0
1.882 0.25999999 0.99900001 150 16 0
1.867 0.25799999 0.99699998 150 16 0
1.865 0.257 1.003 150 16 0
1.858 0.25600001 1.0039999 150 16 0
1.851 0.255 1.006 150 16 0
1.847 0.25400001 1.01 150 16 0
