# .PCD v0.7 - Point Cloud Data file format
VERSION 0.7
FIELDS x y z intensity tag line
SIZE 4 4 4 4 1 1
TYPE F F F F U U
COUNT 1 1 1 1 1 1
WIDTH 1355
HEIGHT 1
VIEWPOINT 0 0 0 1 0 0 0
POINTS 1355
DATA ascii
2.3599999 0.86500001 -1.159 150 16 0
2.3629999 0.86500001 -1.154 150 16 0
2.3659999 0.86400002 -1.149 150 16 0
2.3710001 0.86400002 -1.1440001 150 16 0
2.3729999 0.86299998 -1.1390001 150 16 0
2.378 0.86199999 -1.1339999 150 16 0
2.3770001 0.86000001 -1.127 150 16 0
2.3789999 0.85900003 -1.122 150 16 0
2.385 0.85900003 -1.117 150 16 0
2.388 0.85799998 -1.112 150 16 0
2.391 0.85699999 -1.1059999 150 16 0
2.395 0.85600001 -1.101 150 16 0
2.398 0.85399997 -1.096 150 16 0
2.401 0.85299999 -1.09 150 16 0
2.405 0.852 -1.085 150 16 0
2.408 0.85000002 -1.079 150 16 0
2.4100001 0.84799999 -1.073 150 16 0
2.4130001 0.847 -1.068 150 16 0
2.4170001 0.84600002 -1.062 150 16 0
2.4170001 0.84299999 -1.0549999 150 16 0
2.4219999 0.84200001 -1.05 150 16 0
2.427 0.83999997 -1.045 150 16 0
2.4330001 0.83999997 -1.041 150 16 0
2.434 0.83700001 -1.034 150 16 0
2.437 0.83499998 -1.028 150 16 0
2.4400001 0.833 -1.022 150 16 0
2.4449999 0.83099997 -1.017 150 16 0
2.448 0.829 -1.011 150 16 0
2.4489999 0.82599998 -1.0039999 150 16 0
2.4560001 0.82499999 -1 150 16 0
2.4579999 0.82200003 -0.99299997 150 16 0
2.4649999 0.82099998 -0.98900002 150 16 0
2.464 0.81699997 -0.98100001 150 16 0
2.47 0.81599998 -0.97600001 150 16 0
2.484 0.81699997 -0.97399998 18 16 0
2.4679999 0.80800003 -0.96100003 0 16 0
2.5599999 0.83399999 -0.98900002 0 16 0
2.5079999 0.81300002 -0.96100003 0 16 0
2.572 0.82999998 -0.97799999 0 16 0
2.4460001 0.78600001 -0.92299998 1 18 0
2.4400001 0.77999997 -0.91299999 7 16 0
2.4449999 0.778 -0.90899998 16 16 0
2.4519999 0.77600002 -0.90399998 16 16 0
2.447 0.77100003 -0.89499998 4 16 0
2.5539999 0.80000001 -0.926 0 17 0
2.6059999 0.81300002 -0.93800002 0 16 0
2.608 0.80900002 -0.93099999 0 16 0
2.5380001 0.78299999 -0.898 3 17 0
2.5350001 0.778 -0.88999999 28 16 0
2.5339999 0.773 -0.88200003 150 16 0
2.5380001 0.76999998 -0.87599999 150 16 0
2.5409999 0.76700002 -0.86900002 150 16 0
2.5469999 0.764 -0.86400002 150 16 0
2.55 0.76099998 -0.85799998 150 16 0
2.5539999 0.75700003 -0.85100001 150 16 0
2.5580001 0.75400001 -0.84500003 150 16 0
2.5599999 0.75 -0.83899999 150 16 0
2.5639999 0.74699998 -0.83200002 150 16 0
2.5680001 0.74299997 -0.82599998 150 16 0
2.5710001 0.74000001 -0.81999999 150 16 0
2.5739999 0.736 -0.81400001 150 16 0
2.5769999 0.73199999 -0.80699998 150 16 0
2.5929999 0.73100001 -0.80400002 150 16 0
2.595 0.727 -0.79799998 150 16 0
2.6029999 0.72500002 -0.79299998 150 16 0
2.6059999 0.72100002 -0.78600001 150 16 0
2.6110001 0.71700001 -0.77999997 150 16 0
2.6140001 0.713 -0.77399999 150 16 0
2.6199999 0.70999998 -0.76800001 150 16 0
2.622 0.70499998 -0.76099998 150 16 0
2.6240001 0.69999999 -0.75400001 150 16 0
2.632 0.69800001 -0.74900001 150 16 0
2.638 0.69400001 -0.74400002 150 16 0
2.642 0.69 -0.73699999 150 16 0
2.648 0.68599999 -0.73199999 150 16 0
2.652 0.68199998 -0.72600001 150 16 0
2.655 0.67799997 -0.71899998 150 16 0
2.6589999 0.67400002 -0.713 150 16 0
2.671 0.671 -0.708 150 16 0
2.674 0.66600001 -0.70200002 150 16 0
2.678 0.662 -0.69599998 150 16 0
2.688 0.65899998 -0.69099998 150 16 0
2.688 0.65399998 -0.68300003 150 16 0
2.6930001 0.64999998 -0.67699999 150 16 0
2.6949999 0.64499998 -0.671 150 16 0
2.7 0.63999999 -0.66500002 150 16 0
2.7079999 0.63599998 -0.65899998 150 16 0
2.707 0.63099998 -0.65200001 150 16 0
2.7130001 0.62599999 -0.64600003 150 16 0
2.721 0.62300003 -0.63999999 150 16 0
2.724 0.61799997 -0.634 150 16 0
2.73 0.61299998 -0.62800002 150 16 0
2.7360001 0.60900003 -0.62199998 150 16 0
2.7390001 0.60399997 -0.61500001 150 16 0
2.744 0.59899998 -0.60900003 150 16 0
2.7539999 0.59500003 -0.60399997 150 16 0
2.7539999 0.58999997 -0.597 150 16 0
2.766 0.58600003 -0.59200001 150 16 0
2.7679999 0.58099997 -0.58499998 150 16 0
2.776 0.57700002 -0.57999998 150 16 0
2.78 0.57200003 -0.57300001 150 16 0
2.786 0.56699997 -0.56699997 150 16 0
2.7880001 0.56099999 -0.56 150 16 0
2.793 0.55599999 -0.55400002 150 16 0
2.799 0.551 -0.54799998 150 16 0
2.803 0.546 -0.542 150 16 0
2.8110001 0.542 -0.53600001 150 16 0
2.8180001 0.537 -0.52999997 150 16 0
2.8239999 0.53200001 -0.52399999 150 16 0
2.829 0.52700001 -0.51800001 150 16 0
2.8329999 0.52100003 -0.51099998 150 16 0
2.839 0.51599997 -0.505 150 16 0
2.846 0.51099998 -0.49900001 150 16 0
2.8499999 0.505 -0.493 150 16 0
2.8559999 0.5 -0.48699999 150 16 0
2.859 0.49399999 -0.47999999 150 16 0
2.8629999 0.48899999 -0.47400001 150 16 0
2.8710001 0.484 -0.46799999 150 16 0
2.8770001 0.47799999 -0.46200001 150 16 0
2.882 0.47299999 -0.45500001 150 16 0
2.8870001 0.46700001 -0.449 150 16 0
2.891 0.461 -0.44299999 150 16 0
2.895 0.45500001 -0.43599999 150 16 0
2.911 0.45100001 -0.43099999 150 16 0
2.915 0.44499999 -0.42500001 150 16 0
2.9219999 0.44 -0.419 150 16 0
2.9300001 0.43399999 -0.41299999 150 16 0
2.9319999 0.428 -0.40599999 150 16 0
2.9400001 0.42300001 -0.40000001 150 16 0
2.9460001 0.417 -0.39399999 150 16 0
2.944 0.41 -0.38600001 150 16 0
2.9560001 0.405 -0.38100001 150 16 0
2.9619999 0.39899999 -0.375 150 16 0
2.9719999 0.39300001 -0.36899999 150 16 0
2.971 0.38600001 -0.361 150 16 0
2.9790001 0.38100001 -0.35499999 150 16 0
2.9879999 0.375 -0.34900001 150 16 0
2.9879999 0.368 -0.34200001 150 16 0
2.9949999 0.36199999 -0.336 150 16 0
3.0039999 0.35600001 -0.33000001 150 16 0
3.006 0.34900001 -0.32300001 150 16 0
3.0190001 0.34400001 -0.31799999 150 16 0
3.0209999 0.33700001 -0.31099999 150 16 0
3.0250001 0.331 -0.30399999 150 16 0
3.0320001 0.324 -0.29800001 150 16 0
3.033 0.317 -0.29100001 150 16 0
3.046 0.31200001 -0.285 150 16 0
3.053 0.30500001 -0.27900001 150 16 0
3.0580001 0.29899999 -0.27200001 150 16 0
3.0639999 0.292 -0.266 150 16 0
3.069 0.285 -0.259 150 16 0
3.0699999 0.278 -0.252 150 16 0
3.0810001 0.27200001 -0.24600001 150 16 0
3.0940001 0.266 -0.23999999 150 16 0
3.095 0.259 -0.233 150 16 0
3.1040001 0.252 -0.227 150 16 0
3.1129999 0.24600001 -0.221 150 16 0
3.119 0.23899999 -0.214 150 16 0
3.1240001 0.23199999 -0.207 150 16 0
3.1289999 0.22499999 -0.20100001 134 16 0
3.1359999 0.21799999 -0.19400001 150 16 0
3.145 0.211 -0.18799999 149 16 0
3.1500001 0.204 -0.18099999 150 16 0
3.161 0.197 -0.175 141 16 0
3.168 0.19 -0.168 148 16 0
3.1719999 0.182 -0.161 150 16 0
3.177 0.175 -0.154 148 16 0
3.1860001 0.168 -0.148 146 16 0
3.1919999 0.161 -0.141 137 16 0
3.198 0.153 -0.13500001 130 16 0
3.214 0.146 -0.12800001 141 16 0
3.2149999 0.139 -0.121 136 16 0
3.2249999 0.131 -0.115 128 16 0
3.2309999 0.124 -0.108 145 16 0
3.2409999 0.116 -0.101 128 16 0
3.2409999 0.108 -0.093999997 119 16 0
3.2520001 0.101 -0.086999997 133 16 0
3.2590001 0.093000002 -0.081 122 16 0
3.2620001 0.085000001 -0.074000001 124 16 0
3.2679999 0.078000002 -0.067000002 118 16 0
3.277 0.07 -0.059999999 107 16 0
3.286 0.061999999 -0.052999999 52 16 0
3.2939999 0.054000001 -0.046 53 16 0
3.2980001 0.046 -0.039000001 134 16 0
3.3039999 0.037999999 -0.032000002 118 16 0
3.3180001 0.029999999 -0.026000001 54 16 0
3.3099999 0.022 -0.018999999 26 16 0
3.296 0.014 -0.012 21 16 0
3.2839999 0.0049999999 -0.0049999999 19 16 0
3.2690001 -0.0020000001 0.001 18 16 0
3.2460001 -0.0099999998 0.0080000004 27 16 0
3.25 -0.017999999 0.015 92 16 0
3.263 -0.026000001 0.022 150 16 0
3.2690001 -0.034000002 0.028000001 150 16 0
3.2739999 -0.041999999 0.035 150 16 0
3.2809999 -0.050000001 0.041999999 150 16 0
3.2909999 -0.059 0.048999999 150 16 0
3.289 -0.067000002 0.056000002 92 16 0
3.283 -0.075000003 0.063000001 34 16 0
3.2639999 -0.082999997 0.068999998 31 16 0
3.2509999 -0.090999998 0.075000003 33 16 0
3.234 -0.097999997 0.082000002 33 16 0
3.2190001 -0.106 0.088 29 16 0
3.2060001 -0.114 0.093999997 30 16 0
3.1930001 -0.121 0.1 31 16 0
3.177 -0.12899999 0.106 31 16 0
3.164 -0.13600001 0.112 32 16 0
3.1530001 -0.14399999 0.118 33 16 0
3.132 -0.15099999 0.123 31 16 0
3.1199999 -0.15800001 0.12899999 30 16 0
3.1070001 -0.16500001 0.13500001 31 16 0
3.095 -0.17299999 0.141 30 16 0
3.0799999 -0.18000001 0.146 31 16 0
3.0639999 -0.18700001 0.152 31 16 0
3.049 -0.19400001 0.15700001 31 16 0
3.0409999 -0.20100001 0.163 32 16 0
3.0250001 -0.208 0.168 33 16 0
3 -0.214 0.17200001 31 16 0
2.9890001 -0.221 0.178 31 16 0
2.9809999 -0.228 0.183 30 16 0
2.9660001 -0.234 0.18799999 31 16 0
2.9549999 -0.241 0.193 31 16 0
2.9419999 -0.248 0.198 32 16 0
2.925 -0.25400001 0.20299999 32 16 0
2.9219999 -0.26100001 0.208 33 16 0
2.9070001 -0.26699999 0.213 33 16 0
2.8870001 -0.273 0.21699999 32 16 0
2.8759999 -0.28 0.222 33 16 0
2.865 -0.28600001 0.226 34 16 0
2.849 -0.292 0.23 31 16 0
2.839 -0.29899999 0.235 34 16 0
2.8299999 -0.30500001 0.23999999 34 16 0
2.813 -0.31099999 0.244 35 16 0
2.8010001 -0.317 0.248 34 16 0
2.7920001 -0.32300001 0.25299999 35 16 0
2.7809999 -0.329 0.257 35 16 0
2.7739999 -0.336 0.26100001 37 16 0
2.7579999 -0.34099999 0.26499999 37 16 0
2.7460001 -0.347 0.26899999 39 16 0
2.7360001 -0.35299999 0.273 37 16 0
2.723 -0.359 0.27700001 38 16 0
2.7130001 -0.36500001 0.28099999 38 16 0
2.707 -0.37200001 0.28600001 37 16 0
2.6960001 -0.377 0.28999999 38 16 0
2.684 -0.38299999 0.294 43 16 0
2.671 -0.38800001 0.29699999 46 16 0
2.6600001 -0.39399999 0.301 42 16 0
2.651 -0.40000001 0.30500001 55 16 0
2.638 -0.405 0.308 50 16 0
2.6240001 -0.41 0.31099999 52 16 0
2.6140001 -0.41600001 0.315 48 16 0
2.6059999 -0.42199999 0.31900001 56 16 0
2.592 -0.42699999 0.322 63 16 0
2.5840001 -0.433 0.32600001 58 16 0
2.572 -0.43799999 0.329 60 16 0
2.5639999 -0.44299999 0.33199999 61 16 0
2.5480001 -0.44800001 0.33500001 57 16 0
2.5450001 -0.454 0.33899999 65 16 0
2.529 -0.458 0.34099999 58 16 0
2.5179999 -0.46399999 0.345 68 16 0
2.51 -0.46900001 0.34799999 62 16 0
2.5 -0.47400001 0.35100001 66 16 0
2.4909999 -0.47999999 0.354 65 16 0
2.4790001 -0.484 0.35699999 70 16 0
2.4679999 -0.48899999 0.36000001 71 16 0
2.4630001 -0.495 0.36300001 70 16 0
2.4530001 -0.5 0.366 71 16 0
2.4419999 -0.505 0.36899999 75 16 0
2.431 -0.509 0.37099999 75 16 0
2.4230001 -0.51499999 0.375 72 16 0
2.414 -0.51999998 0.377 79 16 0
2.4059999 -0.52499998 0.38 82 16 0
2.3970001 -0.52999997 0.38299999 78 16 0
2.388 -0.53500003 0.38600001 77 16 0
2.382 -0.54000002 0.389 72 16 0
2.362 -0.54299998 0.389 66 16 0
2.3599999 -0.54900002 0.39300001 75 16 0
2.346 -0.55299997 0.39500001 79 16 0
2.3369999 -0.55699998 0.39700001 77 16 0
2.3269999 -0.56199998 0.40000001 87 16 0
2.316 -0.56599998 0.40099999 83 16 0
2.3069999 -0.56999999 0.40400001 106 16 0
2.3010001 -0.57599998 0.40700001 92 16 0
2.2880001 -0.579 0.40799999 94 16 0
2.28 -0.58399999 0.41 107 16 0
2.2750001 -0.58999997 0.41299999 117 16 0
2.2609999 -0.59200001 0.414 108 16 0
2.2539999 -0.597 0.417 98 16 0
2.2479999 -0.602 0.419 117 16 0
2.234 -0.60500002 0.41999999 106 16 0
2.227 -0.61000001 0.42199999 112 16 0
2.217 -0.61400002 0.42399999 110 16 0
2.2090001 -0.61799997 0.426 114 16 0
2.1960001 -0.62199998 0.42699999 108 16 0
2.1930001 -0.62699997 0.43000001 123 16 0
2.1800001 -0.63 0.43099999 112 16 0
2.174 -0.63499999 0.433 119 16 0
2.165 -0.639 0.43399999 111 16 0
2.1570001 -0.64300001 0.43599999 118 16 0
2.145 -0.64600003 0.43700001 130 16 0
2.141 -0.65100002 0.43900001 122 16 0
2.1289999 -0.65399998 0.44 113 16 0
2.125 -0.65899998 0.44299999 131 16 0
2.118 -0.66399997 0.44400001 127 16 0
2.109 -0.667 0.44600001 136 16 0
2.0969999 -0.67000002 0.44600001 133 16 0
2.095 -0.676 0.449 135 16 0
2.082 -0.67799997 0.449 145 16 0
2.0650001 -0.67900002 0.44800001 127 16 0
2.0569999 -0.68300003 0.44999999 133 16 0
2.0539999 -0.68800002 0.45199999 142 16 0
2.046 -0.69099998 0.45300001 140 16 0
2.0369999 -0.69499999 0.454 149 16 0
2.0309999 -0.699 0.45500001 149 16 0
2.017 -0.70099998 0.45500001 135 16 0
2.013 -0.70499998 0.45699999 150 16 0
2.0039999 -0.70899999 0.45699999 144 16 0
1.999 -0.713 0.45899999 131 16 0
1.989 -0.71600002 0.45899999 144 16 0
1.984 -0.72000003 0.461 150 16 0
1.973 -0.722 0.461 134 16 0
1.9680001 -0.727 0.46200001 140 16 0
1.9579999 -0.72899997 0.46200001 150 16 0
1.949 -0.73199999 0.463 146 16 0
1.943 -0.736 0.46399999 150 16 0
1.939 -0.741 0.465 150 16 0
1.927 -0.74199998 0.465 150 16 0
1.92 -0.745 0.465 150 16 0
1.915 -0.75 0.46700001 150 16 0
1.909 -0.75300002 0.46700001 150 16 0
1.905 -0.75800002 0.46900001 150 16 0
1.898 -0.76099998 0.46900001 150 16 0
1.89 -0.764 0.46900001 150 16 0
1.8839999 -0.76700002 0.47 150 16 0
1.874 -0.76899999 0.47 150 16 0
1.865 -0.77100003 0.46900001 150 16 0
1.858 -0.77399999 0.47 150 16 0
1.853 -0.778 0.47 150 16 0
1.837 -0.77700001 0.46799999 150 16 0
1.832 -0.78100002 0.46900001 150 16 0
1.826 -0.78399998 0.46900001 150 16 0
1.824 -0.78899997 0.47099999 150 16 0
1.816 -0.79100001 0.47 150 16 0
1.8099999 -0.79500002 0.47 150 16 0
1.804 -0.79699999 0.47 150 16 0
1.799 -0.801 0.47099999 150 16 0
1.794 -0.80400002 0.47099999 150 16 0
1.7819999 -0.80500001 0.47 150 16 0
1.78 -0.80900002 0.47099999 150 16 0
1.772 -0.81099999 0.47 150 16 0
1.766 -0.81400001 0.47 150 16 0
1.757 -0.815 0.46900001 150 16 0
1.751 -0.81800002 0.46900001 150 16 0
1.748 -0.82200003 0.47 150 16 0
1.745 -0.82599998 0.47 150 16 0
1.74 -0.829 0.47 150 16 0
1.724 -0.82700002 0.46700001 150 19 0
1.7180001 -0.82999998 0.46700001 150 16 0
1.715 -0.833 0.46700001 150 16 0
1.709 -0.83600003 0.46700001 150 16 0
1.705 -0.83899999 0.46700001 150 16 0
1.6950001 -0.83899999 0.465 150 16 0
1.693 -0.84399998 0.46599999 150 16 0
1.689 -0.847 0.465 150 16 0
1.6799999 -0.847 0.46399999 150 16 0
1.676 -0.85000002 0.46399999 150 16 0
1.674 -0.85399997 0.46399999 5 0 0
1.663 -0.85399997 0.46200001 4 0 0
1.659 -0.85600001 0.461 3 0 0
1.6569999 -0.86000001 0.46200001 3 0 0
1.652 -0.86299998 0.461 134 0 0
1.6440001 -0.86400002 0.45899999 4 0 0
1.636 -0.86400002 0.458 5 0 0
1.633 -0.86699998 0.45699999 5 0 0
1.631 -0.87099999 0.45699999 111 0 0
1.623 -0.87099999 0.456 105 0 0
1.619 -0.87400001 0.45500001 130 0 0
1.617 -0.87699997 0.45500001 102 0 0
1.614 -0.88 0.45500001 136 0 0
1.61 -0.88200003 0.454 146 0 0
1.603 -0.88300002 0.45199999 112 0 0
1.6 -0.88599998 0.45199999 105 0 0
1.5930001 -0.88700002 0.44999999 115 0 0
1.587 -0.88700002 0.44800001 124 0 0
1.577 -0.88599998 0.44600001 123 0 0
1.575 -0.889 0.44499999 86 0 0
1.573 -0.89200002 0.44499999 85 0 0
1.569 -0.89499998 0.44400001 106 0 0
1.567 -0.89700001 0.44299999 117 0 0
1.563 -0.89899999 0.442 132 0 0
1.559 -0.90100002 0.44100001 122 0 0
1.554 -0.90200001 0.43900001 92 0 0
1.553 -0.90499997 0.43900001 142 0 0
1.544 -0.90399998 0.43599999 112 0 0
1.5420001 -0.90700001 0.435 135 0 0
1.538 -0.90700001 0.433 107 0 0
1.53 -0.90700001 0.43099999 150 0 0
1.529 -0.91000003 0.43000001 122 0 0
1.527 -0.912 0.42899999 104 0 0
1.522 -0.91299999 0.42699999 118 0 0
1.521 -0.91500002 0.426 123 0 0
1.513 -0.91399997 0.42399999 84 0 0
1.513 -0.917 0.42300001 127 0 0
1.511 -0.91900003 0.42199999 128 0 0
1.505 -0.91900003 0.41999999 114 0 0
1.501 -0.92000002 0.41800001 140 0 0
1.499 -0.92199999 0.417 150 0 0
1.4960001 -0.92299998 0.41499999 110 0 0
1.494 -0.92500001 0.414 150 0 0
1.484 -0.921 0.41 129 3 0
1.483 -0.92299998 0.40900001 130 0 0
1.48 -0.92400002 0.40700001 101 0 0
1.475 -0.92400002 0.405 143 0 0
1.474 -0.926 0.40400001 98 0 0
1.473 -0.92799997 0.40200001 112 0 0
1.47 -0.92900002 0.40000001 131 0 0
1.4680001 -0.93000001 0.39899999 7 0 0
1.4680001 -0.93199998 0.39700001 124 0 0
1.465 -0.93300003 0.39500001 138 0 0
1.464 -0.93400002 0.39399999 126 0 0
1.461 -0.93400002 0.39199999 127 0 0
1.461 -0.93599999 0.38999999 150 0 0
1.457 -0.93599999 0.38800001 130 0 0
1.456 -0.93699998 0.38699999 119 0 0
1.455 -0.93900001 0.38499999 86 0 0
1.451 -0.93800002 0.382 97 0 0
1.452 -0.94 0.38100001 114 0 0
1.45 -0.94 0.37900001 92 0 0
1.446 -0.94 0.377 101 0 0
1.447 -0.94099998 0.375 127 0 0
1.437 -0.93699998 0.37099999 85 2 0
1.438 -0.93900001 0.37 98 0 0
1.441 -0.94199997 0.36899999 103 0 0
1.437 -0.94099998 0.366 89 0 0
1.437 -0.94199997 0.36399999 108 0 0
1.436 -0.94199997 0.36199999 101 0 0
1.432 -0.94 0.359 120 0 0
1.432 -0.94099998 0.35800001 116 0 0
1.4299999 -0.94099998 0.35499999 80 0 0
1.4299999 -0.94199997 0.35299999 114 0 0
1.431 -0.94300002 0.352 104 0 0
1.4299999 -0.94300002 0.34999999 88 0 0
1.4299999 -0.94400001 0.34799999 77 0 0
1.428 -0.94300002 0.345 106 0 0
1.429 -0.94400001 0.34299999 121 0 0
1.429 -0.94400001 0.34099999 90 0 0
1.428 -0.94400001 0.33899999 150 0 0
1.429 -0.94499999 0.33700001 115 0 0
1.424 -0.94199997 0.33399999 105 3 0
1.425 -0.94199997 0.33199999 127 0 0
1.42 -0.93900001 0.329 88 3 0
1.423 -0.94099998 0.32699999 99 0 0
1.423 -0.94099998 0.32499999 105 0 0
1.421 -0.94 0.32300001 122 0 0
1.4220001 -0.94 0.32100001 100 0 0
1.42 -0.93800002 0.31799999 118 0 0
1.4220001 -0.93900001 0.31600001 114 0 0
1.421 -0.93800002 0.31400001 113 0 0
1.423 -0.93800002 0.31200001 89 0 0
1.424 -0.93800002 0.31 126 0 0
1.423 -0.93699998 0.30700001 82 0 0
1.4220001 -0.935 0.30500001 150 0 0
1.421 -0.93400002 0.30199999 137 0 0
1.4220001 -0.93300003 0.30000001 107 0 0
1.428 -0.93599999 0.29899999 86 0 0
1.427 -0.93400002 0.296 111 0 0
1.425 -0.93199998 0.294 74 0 0
1.425 -0.93099999 0.29100001 103 0 0
1.426 -0.93000001 0.289 85 0 0
1.431 -0.93199998 0.287 92 0 0
1.432 -0.93099999 0.285 80 0 0
1.429 -0.92799997 0.28200001 75 0 0
1.4349999 -0.93000001 0.28099999 88 0 0
1.431 -0.926 0.278 103 0 0
1.433 -0.92500001 0.27500001 108 0 0
1.434 -0.92400002 0.273 105 0 0
1.436 -0.92299998 0.271 78 0 0
1.441 -0.92500001 0.26899999 73 0 0
1.4400001 -0.92199999 0.26699999 100 0 0
1.439 -0.91900003 0.264 79 0 0
1.443 -0.92000002 0.26199999 86 0 0
1.447 -0.92000002 0.26100001 81 0 0
1.448 -0.91799998 0.25799999 70 0 0
1.45 -0.917 0.25600001 99 0 0
1.45 -0.91500002 0.25400001 101 0 0
1.452 -0.91299999 0.25099999 96 0 0
1.454 -0.912 0.249 85 0 0
1.4630001 -0.91500002 0.248 87 3 0
1.464 -0.91399997 0.24600001 82 0 0
1.4579999 -0.90700001 0.242 79 0 0
1.462 -0.90700001 0.23999999 106 0 0
1.469 -0.90799999 0.23899999 103 0 0
1.472 -0.90700001 0.237 89 0 0
1.476 -0.90700001 0.235 131 0 0
1.475 -0.903 0.23199999 135 0 0
1.479 -0.903 0.23 92 0 0
1.4809999 -0.90100002 0.228 75 0 0
1.484 -0.89899999 0.226 68 0 0
1.484 -0.89600003 0.22400001 72 0 0
1.489 -0.89600003 0.222 78 0 0
1.4910001 -0.89399999 0.22 68 0 0
1.493 -0.89099997 0.21699999 81 0 0
1.495 -0.88999999 0.215 66 0 0
1.499 -0.88800001 0.213 3 0 0
1.502 -0.88599998 0.211 84 0 0
1.503 -0.884 0.20900001 71 0 0
1.505 -0.88099998 0.206 116 0 0
1.507 -0.87800002 0.204 76 0 0
1.511 -0.87699997 0.20200001 93 0 0
1.5190001 -0.87800002 0.20100001 76 0 0
1.523 -0.87599999 0.199 63 0 0
1.526 -0.87400001 0.197 60 0 0
1.528 -0.87099999 0.19499999 63 0 0
1.5319999 -0.87 0.193 65 0 0
1.534 -0.86699998 0.191 73 0 0
1.538 -0.86500001 0.189 69 0 0
1.54 -0.86199999 0.18700001 60 0 0
1.5420001 -0.85900003 0.184 78 0 0
1.544 -0.85600001 0.182 69 0 0
1.551 -0.85600001 0.18099999 90 0 0
1.553 -0.852 0.178 80 0 0
1.557 -0.85100001 0.177 70 0 0
1.559 -0.847 0.17399999 70 0 0
1.561 -0.84399998 0.17200001 69 0 0
1.566 -0.84200001 0.171 71 0 0
1.571 -0.83999997 0.169 81 0 0
1.584 -0.84299999 0.168 68 3 0
1.584 -0.838 0.16599999 60 0 0
1.59 -0.83700001 0.164 55 0 0
1.589 -0.83200002 0.162 54 0 0
1.602 -0.83399999 0.161 49 0 0
1.6059999 -0.83099997 0.15899999 43 0 0
1.608 -0.82800001 0.15700001 44 0 0
1.61 -0.824 0.155 55 0 0
1.6160001 -0.82200003 0.153 59 0 0
1.618 -0.81800002 0.15099999 63 0 0
1.628 -0.81800002 0.15000001 57 0 0
1.633 -0.81599998 0.148 54 0 0
1.635 -0.81199998 0.146 50 0 0
1.643 -0.81099999 0.145 55 0 0
1.646 -0.80800003 0.14300001 49 0 0
1.653 -0.80599999 0.141 48 0 0
1.655 -0.80199999 0.139 49 0 0
1.663 -0.80000001 0.138 47 0 0
1.671 -0.79900002 0.13600001 51 0 0
1.676 -0.796 0.13500001 53 0 0
1.684 -0.79500002 0.133 26 0 0
1.683 -0.78899997 0.131 39 0 0
1.691 -0.78799999 0.13 35 0 0
1.696 -0.78399998 0.12800001 28 0 0
1.702 -0.78200001 0.126 30 0 0
1.712 -0.78100002 0.125 29 0 0
1.711 -0.77499998 0.123 34 0 0
1.719 -0.773 0.122 28 0 0
1.73 -0.77200001 0.12 2 0 0
1.7359999 -0.76899999 0.119 1 0 0
1.742 -0.76700002 0.117 1 0 0
1.75 -0.76499999 0.116 1 0 0
1.75 -0.759 0.114 137 16 0
1.758 -0.75700003 0.112 2 0 0
1.766 -0.75400001 0.111 124 16 0
1.768 -0.75 0.109 125 16 0
1.781 -0.75 0.108 134 16 0
1.783 -0.745 0.107 124 16 0
1.7920001 -0.74199998 0.105 139 16 0
1.793 -0.73699999 0.104 118 16 0
1.803 -0.73500001 0.102 136 16 0
1.809 -0.73199999 0.101 122 16 0
1.816 -0.72899997 0.098999999 133 16 0
1.8200001 -0.72399998 0.097999997 131 16 0
1.836 -0.72500002 0.097000003 131 16 0
1.8380001 -0.72000003 0.094999999 128 16 0
1.844 -0.71600002 0.093999997 1 0 0
1.849 -0.71200001 0.092 120 16 0
1.859 -0.70899999 0.090999998 1 0 0
1.868 -0.70700002 0.090000004 119 16 0
1.874 -0.70300001 0.088 130 16 0
1.8839999 -0.70099998 0.086999997 1 0 0
1.89 -0.69599998 0.086000003 120 16 0
1.897 -0.69300002 0.085000001 121 16 0
1.901 -0.68800002 0.082999997 116 16 0
1.911 -0.685 0.082000002 114 16 0
1.914 -0.68000001 0.079999998 116 16 0
1.921 -0.676 0.079000004 101 16 0
1.926 -0.67199999 0.078000002 113 16 0
1.942 -0.671 0.077 108 16 0
1.951 -0.667 0.075999998 118 16 0
1.9579999 -0.66299999 0.074000001 112 16 0
1.964 -0.65899998 0.072999999 105 16 0
1.976 -0.65600002 0.071999997 107 16 0
1.984 -0.65200001 0.071000002 105 16 0
1.9910001 -0.648 0.07 105 16 0
1.9960001 -0.64300001 0.068000004 98 16 0
2.0050001 -0.639 0.067000002 104 16 0
2.013 -0.63499999 0.066 98 16 0
2.023 -0.63200003 0.064999998 101 16 0
2.036 -0.62900001 0.064000003 95 16 0
2.039 -0.62300003 0.063000001 102 16 0
2.053 -0.62 0.061999999 92 16 0
2.0569999 -0.61500001 0.059999999 90 16 0
2.0680001 -0.611 0.059 93 16 0
2.0780001 -0.60699999 0.057999998 82 16 0
2.0869999 -0.60299999 0.057 92 16 0
2.095 -0.59899998 0.056000002 83 16 0
2.105 -0.59500003 0.055 81 16 0
2.1170001 -0.59100002 0.054000001 78 16 0
2.1240001 -0.58600003 0.052999999 85 16 0
2.1359999 -0.58200002 0.052000001 78 16 0
2.1470001 -0.57800001 0.050999999 80 16 0
2.154 -0.57300001 0.050000001 81 16 0
2.1630001 -0.56800002 0.048999999 78 16 0
2.178 -0.565 0.048 77 16 0
2.188 -0.56 0.046999998 78 16 0
2.2 -0.55599999 0.046 73 16 0
2.2090001 -0.551 0.045000002 66 16 0
2.22 -0.546 0.044 64 16 0
2.234 -0.542 0.043000001 67 16 0
2.243 -0.537 0.041999999 48 16 0
2.253 -0.53200001 0.041000001 52 16 0
2.2650001 -0.52700001 0.039999999 53 16 0
2.273 -0.52200001 0.039999999 54 16 0
2.2839999 -0.51700002 0.039000001 50 16 0
2.2980001 -0.51200002 0.037999999 54 16 0
2.3069999 -0.50700003 0.037 51 16 0
2.319 -0.50199997 0.035999998 44 16 0
2.3310001 -0.49700001 0.035 46 16 0
2.3410001 -0.491 0.034000002 46 16 0
2.355 -0.486 0.033 47 16 0
2.3670001 -0.48100001 0.033 46 16 0
2.375 -0.47499999 0.032000002 32 16 0
2.388 -0.47 0.030999999 47 16 0
2.408 -0.465 0.029999999 49 16 0
2.4189999 -0.46000001 0.028999999 47 16 0
2.427 -0.45300001 0.028000001 47 16 0
2.441 -0.44800001 0.028000001 45 16 0
2.457 -0.44299999 0.027000001 40 16 0
2.4690001 -0.43700001 0.026000001 48 16 0
2.4790001 -0.43099999 0.025 44 16 0
2.4920001 -0.42500001 0.025 35 16 0
2.5009999 -0.41800001 0.024 39 16 0
2.5139999 -0.412 0.023 32 16 0
2.5250001 -0.405 0.022 33 16 0
2.5420001 -0.40000001 0.022 32 16 0
2.556 -0.39399999 0.021 31 16 0
2.5650001 -0.38699999 0.02 32 16 0
2.582 -0.38100001 0.018999999 32 16 0
2.5969999 -0.375 0.018999999 31 16 0
2.6140001 -0.368 0.017999999 29 16 0
2.6270001 -0.36199999 0.017000001 29 16 0
2.638 -0.35499999 0.017000001 30 16 0
2.6570001 -0.34900001 0.016000001 30 16 0
2.674 -0.34200001 0.016000001 30 16 0
2.6849999 -0.33500001 0.015 29 16 0
2.6989999 -0.32800001 0.014 30 16 0
2.7179999 -0.32100001 0.014 30 16 0
2.7279999 -0.31400001 0.013 29 16 0
2.7379999 -0.30599999 0.012 28 16 0
2.7639999 -0.30000001 0.012 29 16 0
2.7750001 -0.292 0.011 27 16 0
2.79 -0.28400001 0.011 27 16 0
2.806 -0.27700001 0.0099999998 27 16 0
2.823 -0.26899999 0.0099999998 27 16 0
2.8369999 -0.26100001 0.0089999996 27 16 0
2.862 -0.25400001 0.0089999996 27 16 0
2.8729999 -0.24600001 0.0080000004 27 16 0
2.891 -0.23800001 0.0080000004 27 16 0
2.911 -0.23 0.0070000002 28 16 0
2.9260001 -0.222 0.0070000002 27 16 0
2.95 -0.214 0.0060000001 26 16 0
2.9660001 -0.206 0.0060000001 27 16 0
2.9849999 -0.197 0.0049999999 27 16 0
3.0020001 -0.189 0.0049999999 27 16 0
3.017 -0.18000001 0.0049999999 26 16 0
3.0439999 -0.17200001 0.0040000002 27 16 0
3.0669999 -0.163 0.0040000002 27 16 0
3.0869999 -0.154 0.003 27 16 0
3.1110001 -0.145 0.003 27 16 0
3.1259999 -0.13600001 0.003 27 16 0
3.1459999 -0.127 0.0020000001 28 16 0
3.165 -0.117 0.0020000001 27 16 0
3.1900001 -0.108 0.0020000001 28 16 0
3.21 -0.097999997 0.0020000001 27 16 0
3.2290001 -0.088 0.001 28 16 0
3.257 -0.078000002 0.001 30 16 0
3.2720001 -0.068000004 0.001 127 16 0
3.263 -0.057 0 149 16 0
3.26 -0.046999998 0 130 16 0
3.26 -0.035999998 0 127 16 0
3.25 -0.026000001 0 93 16 0
3.2449999 -0.015 0 28 16 0
3.2709999 -0.0040000002 0 16 16 0
3.2850001 0.0049999999 0 17 16 0
3.3180001 0.016000001 0 20 16 0
3.3329999 0.027000001 0 40 16 0
3.3239999 0.037 0 52 16 0
3.3139999 0.048 0 47 16 0
3.312 0.059 0 40 16 0
3.3050001 0.068999998 0 53 16 0
3.3050001 0.079999998 0 54 16 0
3.293 0.090999998 0 51 16 0
3.2909999 0.101 0 62 16 0
3.2880001 0.112 0 54 16 0
3.2839999 0.122 0 57 16 0
3.277 0.133 0 54 16 0
3.2709999 0.14300001 0 55 16 0
3.2650001 0.153 0 61 16 0
3.26 0.164 0 62 16 0
3.2550001 0.17399999 0 67 16 0
3.2479999 0.184 0 62 16 0
3.247 0.19499999 0 71 16 0
3.2420001 0.205 0 61 16 0
3.2360001 0.215 0.001 68 16 0
3.23 0.22499999 0.001 63 16 0
3.2279999 0.235 0.001 57 16 0
3.2219999 0.245 0.001 87 16 0
3.221 0.25600001 0.0020000001 87 16 0
3.211 0.26499999 0.0020000001 77 16 0
3.2060001 0.27500001 0.0020000001 74 16 0
3.2030001 0.285 0.003 72 16 0
3.1949999 0.29499999 0.003 66 16 0
3.1849999 0.30500001 0.0040000002 62 16 0
3.1830001 0.315 0.0040000002 67 16 0
3.1789999 0.32499999 0.0040000002 73 16 0
3.178 0.33500001 0.0049999999 70 16 0
3.165 0.34400001 0.0049999999 60 16 0
3.161 0.354 0.0060000001 76 16 0
3.1670001 0.36500001 0.0060000001 77 16 0
3.151 0.373 0.0070000002 69 16 0
3.148 0.38299999 0.0070000002 73 16 0
3.1429999 0.39300001 0.0080000004 67 16 0
3.138 0.40200001 0.0089999996 59 16 0
3.1359999 0.412 0.0089999996 62 16 0
3.1300001 0.42199999 0.0099999998 59 16 0
3.122 0.43099999 0.0099999998 66 16 0
3.1210001 0.44100001 0.011 68 16 0
3.1159999 0.44999999 0.012 73 16 0
3.1029999 0.45899999 0.012 69 16 0
3.1010001 0.46900001 0.013 81 16 0
3.0999999 0.479 0.014 93 16 0
3.0940001 0.48800001 0.014 95 16 0
3.0910001 0.49700001 0.015 86 16 0
3.086 0.50700003 0.016000001 90 16 0
3.0829999 0.51599997 0.017000001 84 16 0
3.082 0.52600002 0.017999999 88 16 0
3.0739999 0.53500003 0.017999999 104 16 0
3.063 0.54299998 0.018999999 101 16 0
3.0650001 0.55400002 0.02 95 16 0
3.059 0.56300002 0.021 106 16 0
3.0539999 0.57200003 0.022 103 16 0
3.05 0.58099997 0.023 92 16 0
3.0480001 0.59100002 0.024 111 16 0
3.043 0.60000002 0.025 103 16 0
3.033 0.60799998 0.026000001 106 16 0
3.0309999 0.61699998 0.027000001 104 16 0
3.0280001 0.62699997 0.028000001 105 16 0
3.0209999 0.63499999 0.028999999 106 16 0
3.0179999 0.64499998 0.029999999 105 16 0
3.0139999 0.65399998 0.030999999 120 16 0
3.0090001 0.662 0.032000002 98 16 0
3.007 0.67199999 0.033 104 16 0
3.0039999 0.68099999 0.034000002 117 16 0
2.9979999 0.69 0.035 121 16 0
2.997 0.699 0.037 113 16 0
2.9890001 0.70700002 0.037999999 123 16 0
2.9849999 0.71600002 0.039000001 116 16 0
2.984 0.72600001 0.039999999 126 16 0
2.977 0.73400003 0.041000001 111 16 0
2.9779999 0.74400002 0.043000001 117 16 0
2.97 0.75199997 0.044 120 16 0
2.9649999 0.76099998 0.045000002 116 16 0
2.9549999 0.76800001 0.046999998 104 16 0
2.954 0.778 0.048 120 16 0
2.95 0.78600001 0.048999999 101 16 0
2.948 0.79500002 0.050999999 114 16 0
2.9449999 0.80400002 0.052000001 122 16 0
2.9389999 0.81199998 0.054000001 116 16 0
2.9389999 0.82200003 0.055 112 16 0
2.934 0.83099997 0.057 104 16 0
2.931 0.83999997 0.057999998 107 16 0
2.924 0.847 0.059999999 116 16 0
2.9230001 0.85699999 0.061000001 104 16 0
2.9189999 0.86500001 0.063000001 107 16 0
2.9159999 0.87400001 0.064000003 106 16 0
2.914 0.88300002 0.066 110 16 0
2.9089999 0.89099997 0.068000004 137 16 0
2.904 0.89999998 0.068999998 140 16 0
2.8970001 0.90700001 0.071000002 141 16 0
2.8940001 0.91600001 0.072999999 117 16 0
2.891 0.92400002 0.075000003 128 16 0
2.888 0.93300003 0.075999998 130 16 0
2.8840001 0.94099998 0.078000002 137 16 0
2.881 0.94999999 0.079999998 127 16 0
2.8770001 0.958 0.082000002 130 16 0
2.878 0.96799999 0.083999999 78 16 0
2.882 0.97899997 0.086000003 29 16 0
2.8699999 0.98400003 0.086999997 81 16 0
2.8610001 0.991 0.089000002 134 16 0
2.8540001 0.99800003 0.090999998 131 16 0
2.859 1.0089999 0.093000002 134 16 0
2.849 1.015 0.094999999 134 16 0
2.849 1.024 0.097000003 147 16 0
2.845 1.033 0.098999999 137 16 0
2.8399999 1.04 0.101 137 16 0
2.8380001 1.049 0.103 127 16 0
2.835 1.057 0.106 131 16 0
2.8310001 1.0650001 0.108 130 16 0
2.8299999 1.074 0.11 120 16 0
2.825 1.081 0.112 125 16 0
2.819 1.0880001 0.114 129 16 0
2.812 1.095 0.116 128 16 0
2.809 1.103 0.119 115 16 0
2.8099999 1.113 0.121 123 16 0
2.8110001 1.122 0.124 122 16 0
2.806 1.13 0.126 134 16 0
2.799 1.136 0.12800001 133 16 0
2.799 1.145 0.131 128 16 0
2.7950001 1.153 0.133 133 16 0
2.7920001 1.161 0.13600001 124 16 0
2.783 1.166 0.138 126 16 0
2.786 1.176 0.141 126 16 0
2.7839999 1.1849999 0.14300001 118 16 0
2.779 1.192 0.146 114 16 0
2.7809999 1.202 0.149 124 16 0
2.7739999 1.2079999 0.15099999 125 16 0
2.7709999 1.215 0.154 123 16 0
2.7709999 1.224 0.15700001 119 16 0
2.76 1.228 0.15899999 111 16 0
2.7609999 1.238 0.162 119 16 0
2.7579999 1.245 0.164 111 16 0
2.7579999 1.2539999 0.167 121 16 0
2.7509999 1.2589999 0.17 150 16 0
2.7479999 1.267 0.17299999 150 16 0
2.744 1.274 0.176 150 16 0
2.744 1.283 0.17900001 150 16 0
2.7460001 1.2920001 0.182 150 16 0
2.7420001 1.299 0.185 142 16 0
2.7379999 1.306 0.18799999 150 16 0
2.7349999 1.313 0.191 150 16 0
2.734 1.321 0.19400001 137 16 0
2.73 1.3279999 0.197 150 16 0
2.7290001 1.336 0.2 148 16 0
2.723 1.341 0.20299999 142 16 0
2.7249999 1.351 0.206 130 16 0
2.7249999 1.359 0.20999999 149 16 0
2.7190001 1.364 0.213 139 16 0
2.7149999 1.3710001 0.21600001 150 16 0
2.7149999 1.3789999 0.219 141 16 0
2.71 1.385 0.222 124 16 0
2.7079999 1.392 0.226 145 16 0
2.707 1.399 0.229 150 16 0
2.701 1.404 0.23199999 150 16 0
2.701 1.4119999 0.236 141 16 0
2.7 1.42 0.23999999 117 16 0
2.6989999 1.427 0.243 71 16 0
2.6900001 1.4299999 0.24600001 40 16 0
2.6830001 1.434 0.249 32 16 0
2.675 1.438 0.252 28 16 0
2.6659999 1.441 0.255 27 16 0
2.651 1.4400001 0.257 26 16 0
2.6459999 1.4450001 0.26100001 26 16 0
2.642 1.45 0.264 27 16 0
2.6340001 1.4529999 0.26699999 31 16 0
2.622 1.454 0.27000001 35 16 0
2.6270001 1.464 0.27399999 46 16 0
2.6229999 1.469 0.27700001 91 16 0
2.6159999 1.472 0.28099999 101 16 0
2.619 1.4809999 0.285 121 16 0
2.6129999 1.485 0.28799999 119 16 0
2.6129999 1.492 0.292 119 16 0
2.612 1.498 0.296 102 16 0
2.6099999 1.503 0.30000001 107 16 0
2.6099999 1.51 0.30399999 100 16 0
2.609 1.516 0.308 101 16 0
2.609 1.523 0.31200001 98 16 0
2.6059999 1.527 0.315 94 16 0
2.6059999 1.534 0.31999999 107 16 0
2.6070001 1.541 0.324 112 16 0
2.605 1.546 0.32800001 107 16 0
2.6099999 1.5549999 0.333 114 16 0
2.6140001 1.564 0.33700001 131 16 0
2.6270001 1.5779999 0.34299999 128 16 0
2.642 1.5930001 0.34999999 117 16 0
2.6500001 1.604 0.35499999 91 16 0
2.648 1.608 0.359 51 16 0
2.6459999 1.613 0.36300001 43 16 0
2.642 1.6160001 0.36700001 34 16 0
2.6329999 1.6160001 0.37 33 16 0
2.6289999 1.619 0.37400001 31 16 0
2.618 1.618 0.377 30 16 0
2.605 1.615 0.37900001 29 16 0
2.598 1.6160001 0.382 29 16 0
2.5929999 1.618 0.38600001 29 16 0
2.5840001 1.618 0.389 27 16 0
2.575 1.617 0.39199999 31 16 0
2.5699999 1.619 0.396 38 16 0
2.559 1.6160001 0.398 55 16 0
2.559 1.6210001 0.403 112 16 0
2.5599999 1.626 0.40700001 143 16 0
2.556 1.628 0.41100001 138 16 0
2.556 1.632 0.41499999 128 16 0
2.559 1.638 0.41999999 148 16 0
2.5580001 1.641 0.42399999 142 16 0
2.556 1.6440001 0.428 145 16 0
2.559 1.65 0.433 150 16 0
2.5580001 1.652 0.43700001 150 16 0
2.5550001 1.655 0.44100001 150 16 0
2.556 1.658 0.44600001 150 16 0
2.553 1.66 0.44999999 140 16 0
2.559 1.6670001 0.45500001 140 16 0
2.5569999 1.669 0.45899999 140 16 0
2.556 1.671 0.463 147 16 0
2.562 1.678 0.46799999 141 16 0
2.5599999 1.6799999 0.472 139 16 0
2.559 1.681 0.47600001 138 16 0
2.559 1.684 0.48100001 128 16 0
2.559 1.687 0.48500001 148 16 0
2.5610001 1.6900001 0.49000001 150 16 0
2.5610001 1.692 0.49399999 137 16 0
2.5599999 1.693 0.498 141 16 0
2.5639999 1.698 0.50300002 132 16 0
2.5639999 1.7 0.50700003 139 16 0
2.563 1.701 0.51099998 131 16 0
2.562 1.701 0.51499999 145 16 0
2.5639999 1.704 0.51999998 123 16 0
2.5699999 1.709 0.52499998 146 16 0
2.5699999 1.71 0.52899998 140 16 0
2.569 1.711 0.53299999 140 16 0
2.5680001 1.711 0.537 140 16 0
2.572 1.714 0.54100001 127 16 0
2.5799999 1.72 0.54699999 143 16 0
2.5780001 1.719 0.551 133 16 0
2.582 1.722 0.55500001 139 16 0
2.5799999 1.721 0.55900002 139 16 0
2.5769999 1.719 0.56199998 126 16 0
2.5780001 1.72 0.56599998 130 16 0
2.585 1.724 0.57099998 132 16 0
2.585 1.724 0.57499999 132 16 0
2.586 1.724 0.579 134 16 0
2.586 1.723 0.58200002 140 16 0
2.5899999 1.725 0.58700001 119 16 0
2.5880001 1.723 0.58999997 128 16 0
2.589 1.723 0.59399998 118 16 0
2.5899999 1.722 0.59799999 119 16 0
2.5899999 1.721 0.60100001 116 16 0
2.598 1.724 0.60600001 110 16 0
2.5999999 1.724 0.61000001 119 16 0
2.6010001 1.723 0.61299998 114 16 0
2.6040001 1.723 0.61699998 135 16 0
2.605 1.721 0.62099999 150 16 0
2.6040001 1.719 0.62400001 129 16 0
2.6110001 1.721 0.62800002 149 16 0
2.615 1.721 0.63300002 149 16 0
2.6140001 1.7180001 0.63499999 149 16 0
2.618 1.7180001 0.639 150 16 0
2.618 1.715 0.64200002 150 16 0
2.6199999 1.7130001 0.64499998 150 16 0
2.6240001 1.7130001 0.64899999 140 16 0
2.619 1.706 0.64999998 80 16 0
2.6170001 1.702 0.65200001 47 16 0
2.6099999 1.694 0.653 40 16 0
2.609 1.6900001 0.65600002 38 16 0
2.6070001 1.684 0.65700001 37 16 0
2.5999999 1.676 0.65799999 37 16 0
2.598 1.671 0.66000003 38 16 0
2.5929999 1.664 0.66100001 36 16 0
2.5899999 1.658 0.662 38 16 0
2.5880001 1.652 0.66399997 38 16 0
2.586 1.647 0.66500002 37 16 0
2.5840001 1.641 0.667 37 16 0
2.582 1.635 0.66799998 38 16 0
2.576 1.627 0.66799998 37 16 0
2.576 1.6210001 0.67000002 36 16 0
2.5769999 1.617 0.67199999 38 16 0
2.5710001 1.609 0.67199999 37 16 0
2.569 1.602 0.67299998 33 16 0
2.566 1.595 0.67400002 33 16 0
2.5650001 1.589 0.67500001 32 16 0
2.566 1.584 0.676 33 16 0
2.5639999 1.5779999 0.67699999 33 16 0
2.5610001 1.5700001 0.67699999 33 16 0
2.5610001 1.5650001 0.67900002 34 16 0
2.5569999 1.557 0.67900002 34 16 0
2.5539999 1.549 0.67900002 34 16 0
2.553 1.543 0.67900002 35 16 0
2.5510001 1.536 0.68000001 36 16 0
2.546 1.526 0.67900002 35 16 0
2.553 1.524 0.68199998 35 16 0
2.5510001 1.517 0.68199998 36 16 0
2.552 1.511 0.68300003 35 16 0
2.549 1.5039999 0.68300003 35 16 0
2.5550001 1.501 0.685 37 16 0
2.5480001 1.49 0.68300003 36 16 0
2.543 1.4809999 0.68199998 36 16 0
2.5539999 1.48 0.685 38 16 0
2.54 1.466 0.68199998 35 16 0
2.5439999 1.461 0.68300003 36 16 0
2.5469999 1.456 0.68400002 37 16 0
2.5450001 1.448 0.68400002 36 16 0
2.5480001 1.443 0.68400002 37 16 0
2.55 1.437 0.685 38 16 0
2.5469999 1.428 0.68400002 37 16 0
2.5480001 1.4220001 0.68400002 38 16 0
2.5510001 1.416 0.68400002 38 16 0
2.55 1.409 0.68300003 37 16 0
2.5539999 1.403 0.68400002 38 16 0
2.5539999 1.396 0.68400002 39 16 0
2.55 1.386 0.68199998 39 16 0
2.5550001 1.382 0.68300003 38 16 0
2.556 1.375 0.68199998 39 16 0
2.559 1.369 0.68199998 38 16 0
2.559 1.3609999 0.68099999 39 16 0
2.5580001 1.354 0.68099999 41 16 0
2.5610001 1.348 0.68000001 39 16 0
2.562 1.34 0.68000001 39 16 0
2.566 1.335 0.68000001 39 16 0
2.569 1.329 0.67900002 40 16 0
2.5639999 1.318 0.67699999 39 16 0
2.5669999 1.312 0.676 40 16 0
2.5699999 1.306 0.676 39 16 0
2.573 1.299 0.67500001 40 16 0
2.5799999 1.295 0.676 43 16 0
2.579 1.2869999 0.67400002 40 16 0
2.5810001 1.279 0.67299998 40 16 0
2.5810001 1.271 0.67199999 41 16 0
2.5840001 1.265 0.671 42 16 0
2.5829999 1.256 0.66900003 40 16 0
2.5910001 1.252 0.66900003 43 16 0
2.5940001 1.2460001 0.66799998 42 16 0
2.5969999 1.239 0.667 42 16 0
2.5940001 1.229 0.66500002 42 16 0
2.6040001 1.226 0.66500002 42 16 0
2.6029999 1.217 0.66299999 43 16 0
2.6070001 1.21 0.662 44 16 0
2.6099999 1.204 0.66100001 43 16 0
2.6110001 1.196 0.65899998 43 16 0
2.6159999 1.1900001 0.65799999 44 16 0
2.6199999 1.183 0.65700001 45 16 0
2.6240001 1.177 0.65499997 45 16 0
2.6270001 1.17 0.65399998 50 16 0
2.628 1.1619999 0.65200001 43 16 0
2.6340001 1.156 0.65100002 47 16 0
2.635 1.148 0.64899999 43 16 0
2.641 1.142 0.648 47 16 0
2.6440001 1.135 0.64600003 43 16 0
2.648 1.128 0.64399999 48 16 0
2.651 1.1210001 0.64200002 48 16 0
2.6589999 1.1160001 0.64200002 43 16 0
2.6630001 1.109 0.63999999 44 16 0
2.664 1.101 0.63700002 42 16 0
2.6689999 1.095 0.63599998 43 16 0
2.6760001 1.089 0.63499999 43 16 0
2.677 1.081 0.63200003 43 16 0
2.6830001 1.075 0.63 43 16 0
2.6860001 1.067 0.62800002 42 16 0
2.6919999 1.061 0.62599999 43 16 0
2.701 1.056 0.625 44 16 0
2.7030001 1.048 0.62300003 47 16 0
2.7079999 1.0420001 0.62099999 43 16 0
2.7119999 1.034 0.61799997 37 16 0
2.7149999 1.027 0.616 38 16 0
2.7179999 1.02 0.61299998 38 16 0
2.733 1.016 0.61299998 39 16 0
2.7360001 1.0089999 0.611 40 16 0
2.737 1.001 0.60799998 40 16 0
2.744 0.99400002 0.60500002 37 16 0
2.75 0.98799998 0.60299999 39 16 0
2.7539999 0.98100001 0.60100001 37 16 0
2.76 0.97399998 0.59799999 39 16 0
2.766 0.96700001 0.59600002 38 16 0
2.7690001 0.95999998 0.59299999 38 16 0
2.7750001 0.95300001 0.59100002 39 16 0
2.7809999 0.94700003 0.588 39 16 0
2.7839999 0.93900001 0.58499998 40 16 0
2.7880001 0.93099999 0.58200002 38 16 0
2.806 0.92799997 0.58200002 38 16 0
2.8 0.91799998 0.57700002 37 16 0
2.8139999 0.91399997 0.57599998 38 16 0
2.8199999 0.90700001 0.574 39 16 0
2.8310001 0.90100002 0.57200003 39 16 0
2.839 0.89499998 0.56900001 39 16 0
2.842 0.88700002 0.56599998 39 16 0
2.846 0.88 0.56199998 38 16 0
2.849 0.87199998 0.55900002 38 16 0
2.862 0.86699998 0.55800003 40 16 0
2.8629999 0.85900003 0.55400002 39 16 0
2.875 0.85299999 0.55199999 39 16 0
2.8870001 0.84799999 0.55000001 38 16 0
2.892 0.84100002 0.546 37 16 0
2.8989999 0.83399999 0.54299998 38 16 0
2.9030001 0.82599998 0.54000002 37 16 0
2.908 0.81900001 0.53600001 37 16 0
2.9170001 0.81199998 0.53299999 37 16 0
2.928 0.80699998 0.53100002 38 16 0
2.9319999 0.79900002 0.52700001 37 16 0
2.9430001 0.79299998 0.52499998 39 16 0
2.9489999 0.78600001 0.52100003 38 16 0
2.9519999 0.778 0.51700002 37 16 0
2.9649999 0.77200001 0.51499999 37 16 0
2.974 0.76599997 0.51099998 37 16 0
2.98 0.75800002 0.50800002 37 16 0
2.9860001 0.75099999 0.50400001 37 16 0
2.997 0.745 0.50099999 37 16 0
3 0.73699999 0.49700001 36 16 0
3.013 0.73100001 0.49399999 36 16 0
3.0239999 0.72500002 0.491 34 16 0
3.0320001 0.71799999 0.48699999 34 16 0
3.0350001 0.70899999 0.48300001 34 16 0
3.0469999 0.70300001 0.47999999 36 16 0
3.0580001 0.69700003 0.477 38 16 0
3.0669999 0.69 0.47299999 43 16 0
3.0780001 0.68300003 0.46900001 72 16 0
3.0739999 0.67299998 0.46399999 118 16 0
3.079 0.66500002 0.45899999 150 16 0
3.0840001 0.65799999 0.45500001 150 16 0
3.086 0.64899999 0.44999999 150 16 0
3.0910001 0.64099997 0.44600001 150 16 0
3.0969999 0.63300002 0.44100001 150 16 0
3.0929999 0.62400001 0.435 150 16 0
3.098 0.616 0.43099999 150 16 0
3.1059999 0.60799998 0.42699999 150 16 0
3.098 0.59799999 0.41999999 150 16 0
3.1040001 0.58999997 0.41600001 141 16 0
3.1099999 0.583 0.41100001 136 16 0
3.1140001 0.574 0.40599999 140 16 0
3.1099999 0.565 0.40000001 141 16 0
3.1159999 0.55699998 0.396 136 16 0
3.1099999 0.54699999 0.389 150 16 0
3.1210001 0.54000002 0.38499999 150 16 0
3.1159999 0.53100002 0.37900001 150 16 0
3.1240001 0.523 0.375 149 16 0
3.1210001 0.514 0.36899999 150 16 0
3.1289999 0.50700003 0.36399999 145 16 0
3.1270001 0.498 0.359 134 16 0
3.1289999 0.48899999 0.35299999 144 16 0
3.135 0.48100001 0.34799999 150 16 0
3.1359999 0.47299999 0.34299999 150 16 0
3.138 0.465 0.33700001 144 16 0
3.1400001 0.456 0.33199999 145 16 0
3.141 0.447 0.32600001 144 16 0
3.1440001 0.43900001 0.32100001 141 16 0
3.145 0.43099999 0.315 149 16 0
3.1470001 0.42300001 0.31 150 16 0
3.1470001 0.414 0.30399999 150 16 0
3.152 0.40599999 0.29899999 147 16 0
3.154 0.39700001 0.29300001 146 16 0
3.154 0.389 0.287 148 16 0
3.1570001 0.38100001 0.28200001 139 16 0
3.1589999 0.37200001 0.27599999 144 16 0
3.158 0.36399999 0.271 137 16 0
3.1589999 0.35499999 0.26499999 135 16 0
3.164 0.347 0.259 125 16 0
3.164 0.33899999 0.25299999 106 16 0
3.1719999 0.331 0.248 141 16 0
3.1670001 0.322 0.242 127 16 0
3.174 0.31400001 0.236 127 16 0
3.174 0.30599999 0.23 137 16 0
3.1719999 0.29699999 0.22400001 134 16 0
3.1789999 0.289 0.219 118 16 0
3.1789999 0.28099999 0.213 122 16 0
3.181 0.273 0.207 126 16 0
3.1819999 0.264 0.20100001 134 16 0
3.1830001 0.25600001 0.19499999 110 16 0
3.184 0.24699999 0.189 119 16 0
3.1830001 0.23899999 0.183 80 16 0
3.1500001 0.228 0.175 30 19 0
3.1619999 0.221 0.169 40 16 0
3.1849999 0.214 0.16500001 45 16 0
3.152 0.204 0.15700001 22 16 0
3.1659999 0.19599999 0.15099999 21 16 0
3.2019999 0.19 0.147 34 19 0
3.2160001 0.182 0.141 34 16 0
3.2290001 0.175 0.13600001 30 16 0
3.247 0.167 0.13 29 16 0
3.2620001 0.16 0.124 30 16 0
3.276 0.152 0.118 29 16 0
3.2939999 0.14399999 0.113 30 16 0
3.3050001 0.13600001 0.107 34 16 0
3.312 0.12800001 0.1 48 16 0
3.319 0.12 0.093999997 76 16 0
3.319 0.111 0.086999997 82 16 0
3.3169999 0.102 0.081 66 16 0
3.3210001 0.093999997 0.074000001 43 16 0
3.3280001 0.086000003 0.068000004 7 16 0
3.3010001 0.077 0.061000001 1 16 0
3.3099999 0.068000004 0.054000001 4 16 0
3.329 0.059999999 0.048 14 16 0
3.3340001 0.052000001 0.041000001 34 16 0
3.332 0.043000001 0.035 56 16 0
3.336 0.035 0.028000001 59 16 0
3.336 0.027000001 0.021 42 16 0
3.323 0.017999999 0.014 21 16 0
3.302 0.0089999996 0.0080000004 18 16 0
3.279 0.001 0.001 17 16 0
3.2579999 -0.0060000001 -0.0049999999 17 16 0
3.2379999 -0.014 -0.011 26 16 0
3.2390001 -0.022 -0.017999999 55 16 0
3.2420001 -0.029999999 -0.025 128 16 0
3.24 -0.039000001 -0.030999999 119 16 0
3.2420001 -0.046999998 -0.037999999 122 16 0
3.2449999 -0.055 -0.045000002 127 16 0
3.2449999 -0.063000001 -0.050999999 150 16 0
3.2409999 -0.071000002 -0.057999998 57 16 0
3.221 -0.078000002 -0.064000003 27 16 0
3.2060001 -0.086000003 -0.071000002 25 16 0
3.1849999 -0.093000002 -0.077 25 16 0
3.1630001 -0.101 -0.082999997 26 16 0
3.1429999 -0.108 -0.089000002 26 16 0
3.1240001 -0.115 -0.094999999 24 16 0
3.112 -0.122 -0.101 25 16 0
3.0910001 -0.12899999 -0.107 25 16 0
3.076 -0.13600001 -0.113 25 16 0
3.0580001 -0.14300001 -0.119 25 16 0
3.0369999 -0.149 -0.124 25 16 0
3.0150001 -0.155 -0.13 25 16 0
2.9990001 -0.162 -0.13600001 24 16 0
2.9790001 -0.168 -0.141 25 16 0
2.9660001 -0.175 -0.147 25 16 0
2.947 -0.18099999 -0.152 24 16 0
2.9330001 -0.18700001 -0.15800001 25 16 0
2.914 -0.193 -0.163 25 16 0
2.902 -0.199 -0.169 25 16 0
2.8859999 -0.205 -0.17399999 25 16 0
2.8670001 -0.211 -0.17900001 25 16 0
2.8559999 -0.21699999 -0.185 26 16 0
2.842 -0.223 -0.19 25 16 0
2.8280001 -0.228 -0.19499999 25 16 0
2.8080001 -0.233 -0.2 26 16 0
2.7950001 -0.23899999 -0.205 26 16 0
2.779 -0.244 -0.20999999 26 16 0
2.7620001 -0.25 -0.215 26 16 0
2.7520001 -0.255 -0.22 26 16 0
2.7379999 -0.26100001 -0.22499999 25 16 0
2.7279999 -0.266 -0.23 26 16 0
2.7190001 -0.27200001 -0.236 25 16 0
2.7090001 -0.27700001 -0.241 26 16 0
2.6930001 -0.28200001 -0.245 28 16 0
2.677 -0.287 -0.25 26 16 0
2.665 -0.292 -0.255 27 16 0
2.648 -0.296 -0.259 27 16 0
2.6400001 -0.30199999 -0.26499999 27 16 0
2.6259999 -0.30599999 -0.26899999 26 16 0
2.6159999 -0.31099999 -0.27399999 28 16 0
2.602 -0.31600001 -0.278 27 16 0
2.5880001 -0.31999999 -0.28299999 27 16 0
2.5739999 -0.32499999 -0.287 28 16 0
2.5650001 -0.329 -0.292 28 16 0
2.55 -0.333 -0.296 27 16 0
2.5380001 -0.338 -0.301 28 16 0
2.5309999 -0.34299999 -0.30599999 27 16 0
2.517 -0.347 -0.31 28 16 0
2.507 -0.35100001 -0.315 28 16 0
2.494 -0.35499999 -0.31900001 28 16 0
2.4860001 -0.36000001 -0.324 28 16 0
2.4719999 -0.36399999 -0.32800001 29 16 0
2.4630001 -0.368 -0.33199999 29 16 0
2.448 -0.37099999 -0.336 28 16 0
2.4460001 -0.377 -0.34099999 29 16 0
2.438 -0.38100001 -0.34599999 29 16 0
2.4230001 -0.38499999 -0.34999999 27 16 0
2.4100001 -0.38800001 -0.354 28 16 0
2.398 -0.39199999 -0.35800001 35 16 0
2.3929999 -0.396 -0.36300001 34 16 0
2.3829999 -0.40000001 -0.36700001 42 16 0
2.368 -0.403 -0.37 41 16 0
2.358 -0.40700001 -0.375 29 16 0
2.3499999 -0.41100001 -0.37900001 30 16 0
2.339 -0.414 -0.38299999 37 16 0
2.329 -0.41800001 -0.38699999 41 16 0
2.323 -0.42199999 -0.39199999 41 16 0
2.309 -0.42399999 -0.39500001 45 16 0
2.3 -0.428 -0.39899999 38 16 0
2.29 -0.43099999 -0.403 40 16 0
2.283 -0.435 -0.40700001 43 16 0
2.2750001 -0.43900001 -0.412 46 16 0
2.2650001 -0.442 -0.41499999 41 16 0
2.2539999 -0.44499999 -0.419 47 16 0
2.244 -0.44800001 -0.42300001 41 16 0
2.2390001 -0.45199999 -0.428 42 16 0
2.2260001 -0.454 -0.43099999 43 16 0
2.221 -0.458 -0.435 40 16 0
2.2119999 -0.461 -0.43900001 39 16 0
2.2019999 -0.46399999 -0.44299999 46 16 0
2.197 -0.46799999 -0.447 45 16 0
2.1860001 -0.47 -0.45100001 43 16 0
2.178 -0.47299999 -0.45500001 47 16 0
2.168 -0.47600001 -0.458 48 16 0
2.1619999 -0.479 -0.463 45 16 0
2.1570001 -0.48300001 -0.46700001 65 16 0
2.145 -0.48500001 -0.47 62 16 0
2.131 -0.486 -0.472 69 16 0
2.1229999 -0.48899999 -0.47600001 65 16 0
2.115 -0.49200001 -0.47999999 72 16 0
2.1110001 -0.495 -0.484 72 16 0
2.0999999 -0.49700001 -0.48800001 69 16 0
2.0910001 -0.49900001 -0.491 71 16 0
2.089 -0.50300002 -0.49599999 74 16 0
2.0799999 -0.50599998 -0.49900001 66 16 0
2.073 -0.50800002 -0.50300002 71 16 0
2.0610001 -0.50999999 -0.50599998 70 16 0
2.0569999 -0.51300001 -0.50999999 75 16 0
2.049 -0.51499999 -0.514 67 16 0
2.046 -0.51899999 -0.51899999 71 16 0
2.036 -0.52100003 -0.52200001 71 16 0
2.026 -0.52200001 -0.52499998 72 16 0
2.0220001 -0.52499998 -0.52899998 76 16 0
2.0120001 -0.52700001 -0.53200001 72 16 0
2.0039999 -0.52899998 -0.53500003 82 16 0
2.0009999 -0.53200001 -0.54000002 85 16 0
1.995 -0.53399998 -0.54400003 72 16 0
1.987 -0.53600001 -0.54699999 67 16 0
1.98 -0.53899997 -0.551 78 16 0
1.974 -0.54100001 -0.55400002 79 16 0
1.969 -0.54299998 -0.55800003 86 16 0
1.959 -0.54500002 -0.56099999 79 16 0
1.956 -0.54799998 -0.56599998 88 16 0
1.951 -0.55000001 -0.56900001 86 16 0
1.942 -0.551 -0.57200003 92 16 0
1.9400001 -0.55400002 -0.57700002 88 16 0
1.9349999 -0.55699998 -0.58099997 81 16 0
1.925 -0.55800003 -0.583 82 16 0
1.919 -0.56 -0.58700001 82 16 0
1.914 -0.56199998 -0.59100002 83 16 0
1.909 -0.56400001 -0.59500003 85 16 0
1.901 -0.565 -0.59799999 85 16 0
1.897 -0.56699997 -0.602 94 16 0
1.892 -0.56900001 -0.60600001 90 16 0
1.887 -0.57099998 -0.60900003 89 16 0
1.878 -0.57200003 -0.61199999 91 16 0
1.864 -0.57099998 -0.61299998 89 16 0
1.86 -0.57300001 -0.61699998 88 16 0
1.853 -0.57499999 -0.62 84 16 0
1.85 -0.57700002 -0.62400001 99 16 0
1.848 -0.57999998 -0.62900001 150 16 0
1.842 -0.58099997 -0.63200003 147 16 0
1.841 -0.58399999 -0.63700002 150 16 0
1.836 -0.58600003 -0.64099997 150 16 0
1.832 -0.58700001 -0.64499998 150 16 0
1.8279999 -0.58899999 -0.648 150 16 0
1.822 -0.58999997 -0.65200001 150 16 0
1.8200001 -0.59299999 -0.65600002 150 16 0
1.814 -0.59399998 -0.65899998 150 16 0
1.8049999 -0.59399998 -0.66100001 150 16 0
1.808 -0.59799999 -0.66799998 150 16 0
1.801 -0.59799999 -0.67000002 147 16 0
1.798 -0.60000002 -0.67400002 150 16 0
1.794 -0.602 -0.67799997 141 16 0
1.786 -0.602 -0.68000001 150 16 0
1.784 -0.60399997 -0.685 147 16 0
1.779 -0.60500002 -0.68800002 150 16 0
1.772 -0.60500002 -0.69099998 147 16 0
1.767 -0.60600001 -0.69400001 150 16 0
1.7640001 -0.60799998 -0.69800001 150 16 0
1.762 -0.60900003 -0.70200002 150 16 0
1.757 -0.61000001 -0.70499998 150 16 0
1.752 -0.611 -0.708 150 16 0
