# .PCD v0.7 - Point Cloud Data file format
VERSION 0.7
FIELDS x y z intensity tag line
SIZE 4 4 4 4 1 1
TYPE F F F F U U
COUNT 1 1 1 1 1 1
WIDTH 1366
HEIGHT 1
VIEWPOINT 0 0 0 1 0 0 0
POINTS 1366
DATA ascii
3.0810001 0.46799999 -0.046 88 16 0
3.076 0.477 -0.046999998 73 16 0
3.0710001 0.48699999 -0.046999998 87 16 0
3.062 0.495 -0.048 99 16 0
3.0569999 0.50400001 -0.048 82 16 0
3.05 0.51300001 -0.048 92 16 0
3.0409999 0.52200001 -0.048999999 88 16 0
3.0409999 0.53200001 -0.048999999 85 16 0
3.0350001 0.54100001 -0.048999999 90 16 0
3.0320001 0.55000001 -0.050000001 91 16 0
3.029 0.56 -0.050000001 97 16 0
3.023 0.56900001 -0.050000001 89 16 0
3.0179999 0.57800001 -0.050000001 94 16 0
3.0139999 0.58700001 -0.050999999 91 16 0
3.0050001 0.59500003 -0.050999999 94 16 0
3.003 0.60399997 -0.050999999 90 16 0
2.9990001 0.61400002 -0.050999999 91 16 0
2.997 0.62300003 -0.050999999 90 16 0
2.987 0.63099998 -0.052000001 102 16 0
2.9849999 0.64099997 -0.052000001 117 16 0
2.9820001 0.64999998 -0.052000001 106 16 0
2.974 0.65799999 -0.052000001 105 16 0
2.9749999 0.66799998 -0.052000001 106 16 0
2.9690001 0.67699999 -0.052000001 108 16 0
2.9619999 0.685 -0.052000001 101 16 0
2.954 0.69300002 -0.052000001 104 16 0
2.954 0.70300001 -0.052000001 104 16 0
2.9489999 0.71100003 -0.052000001 102 16 0
2.9419999 0.72000003 -0.050999999 119 16 0
2.937 0.72799999 -0.050999999 118 16 0
2.9330001 0.73699999 -0.050999999 113 16 0
2.9300001 0.74599999 -0.050999999 121 16 0
2.9219999 0.75400001 -0.050999999 113 16 0
2.9200001 0.76300001 -0.050999999 101 16 0
2.9170001 0.77200001 -0.050000001 119 16 0
2.9100001 0.77999997 -0.050000001 128 16 0
2.9030001 0.78799999 -0.050000001 124 16 0
2.901 0.79699999 -0.050000001 124 16 0
2.898 0.80599999 -0.048999999 109 16 0
2.895 0.815 -0.048999999 124 16 0
2.892 0.824 -0.048999999 115 16 0
2.8859999 0.83099997 -0.048 126 16 0
2.8800001 0.83999997 -0.048 125 16 0
2.8770001 0.84899998 -0.046999998 134 16 0
2.8729999 0.85699999 -0.046999998 130 16 0
2.8670001 0.86500001 -0.046 131 16 0
2.8670001 0.87400001 -0.046 120 16 0
2.8599999 0.88200003 -0.045000002 134 16 0
2.8559999 0.88999999 -0.045000002 147 16 0
2.842 0.89600003 -0.044 128 16 0
2.8399999 0.90399998 -0.043000001 127 16 0
2.8369999 0.91299999 -0.043000001 135 16 0
2.8340001 0.92199999 -0.041999999 125 16 0
2.832 0.93099999 -0.041000001 135 16 0
2.8280001 0.93900001 -0.039999999 135 16 0
2.819 0.94499999 -0.039999999 124 16 0
2.8150001 0.954 -0.039000001 128 16 0
2.8199999 0.96499997 -0.037999999 62 16 0
2.826 0.977 -0.037999999 27 16 0
2.8069999 0.98000002 -0.037 101 16 0
2.8 0.98699999 -0.035999998 126 16 0
2.7969999 0.995 -0.035 134 16 0
2.7939999 1.0039999 -0.034000002 126 16 0
2.79 1.011 -0.033 133 16 0
2.7880001 1.02 -0.032000002 149 16 0
2.783 1.028 -0.030999999 139 16 0
2.777 1.035 -0.029999999 150 16 0
2.777 1.044 -0.028999999 147 16 0
2.7720001 1.052 -0.028000001 150 16 0
2.7690001 1.0599999 -0.027000001 150 16 0
2.766 1.068 -0.025 150 16 0
2.763 1.076 -0.024 150 16 0
2.7579999 1.084 -0.023 150 16 0
2.7550001 1.092 -0.022 150 16 0
2.7479999 1.099 -0.021 150 16 0
2.7449999 1.1059999 -0.018999999 148 16 0
2.7449999 1.1160001 -0.017999999 150 16 0
2.7379999 1.122 -0.017000001 149 16 0
2.7349999 1.13 -0.015 150 16 0
2.7320001 1.138 -0.014 150 16 0
2.727 1.146 -0.012 150 16 0
2.7249999 1.154 -0.011 150 16 0
2.7219999 1.161 -0.0099999998 150 16 0
2.7190001 1.169 -0.0080000004 150 16 0
2.7149999 1.177 -0.0070000002 138 16 0
2.7119999 1.1849999 -0.0049999999 150 16 0
2.7090001 1.192 -0.003 150 16 0
2.7049999 1.2 -0.0020000001 150 16 0
2.7 1.207 0 129 16 0
2.698 1.215 0.001 150 16 0
2.6949999 1.222 0.0020000001 150 16 0
2.6919999 1.23 0.0040000002 150 16 0
2.687 1.237 0.0060000001 150 16 0
2.6849999 1.244 0.0080000004 150 16 0
2.6819999 1.252 0.0089999996 150 16 0
2.678 1.2589999 0.011 150 16 0
2.675 1.266 0.013 145 16 0
2.671 1.273 0.015 146 16 0
2.6730001 1.283 0.017000001 150 16 0
2.668 1.289 0.018999999 150 16 0
2.661 1.295 0.021 147 16 0
2.661 1.303 0.023 146 16 0
2.658 1.3099999 0.025 140 16 0
2.655 1.318 0.027000001 144 16 0
2.654 1.326 0.029999999 150 16 0
2.651 1.3329999 0.032000002 134 16 0
2.648 1.339 0.034000002 148 16 0
2.642 1.345 0.035999998 147 16 0
2.641 1.353 0.037999999 141 16 0
2.6389999 1.36 0.041000001 150 16 0
2.6359999 1.367 0.043000001 150 16 0
2.632 1.373 0.045000002 150 16 0
2.631 1.381 0.048 150 16 0
2.625 1.386 0.050000001 150 16 0
2.622 1.393 0.052000001 150 16 0
2.622 1.401 0.055 150 16 0
2.6199999 1.408 0.057 150 16 0
2.615 1.413 0.059999999 150 16 0
2.612 1.419 0.061999999 150 16 0
2.615 1.429 0.064999998 150 16 0
2.609 1.434 0.068000004 150 16 0
2.609 1.441 0.07 150 16 0
2.605 1.447 0.072999999 150 16 0
2.602 1.4529999 0.075999998 150 16 0
2.6010001 1.461 0.078000002 136 16 0
2.6059999 1.471 0.082000002 145 16 0
2.592 1.471 0.083999999 150 16 0
2.599 1.482 0.086999997 146 16 0
2.596 1.488 0.090000004 148 16 0
2.5940001 1.494 0.093000002 142 16 0
2.5940001 1.501 0.096000001 141 16 0
2.592 1.508 0.098999999 150 16 0
2.5869999 1.512 0.102 130 16 0
2.5869999 1.5190001 0.105 131 16 0
2.586 1.525 0.108 140 16 0
2.5829999 1.531 0.111 135 16 0
2.5829999 1.538 0.114 144 16 0
2.5799999 1.543 0.117 143 16 0
2.579 1.549 0.12 141 16 0
2.5769999 1.5549999 0.124 149 16 0
2.575 1.5599999 0.127 142 16 0
2.5739999 1.566 0.13 139 16 0
2.5710001 1.571 0.133 131 16 0
2.5680001 1.575 0.13600001 135 16 0
2.5669999 1.581 0.14 127 16 0
2.5680001 1.5880001 0.14300001 130 16 0
2.566 1.5930001 0.147 127 16 0
2.563 1.597 0.15000001 134 16 0
2.566 1.605 0.154 136 16 0
2.566 1.6109999 0.15700001 136 16 0
2.5599999 1.613 0.16 132 16 0
2.563 1.6210001 0.164 126 16 0
2.5569999 1.623 0.167 113 16 0
2.5599999 1.631 0.171 121 16 0
2.5580001 1.6339999 0.175 120 16 0
2.553 1.636 0.178 128 16 0
2.552 1.642 0.182 123 16 0
2.5550001 1.649 0.185 126 16 0
2.553 1.653 0.189 129 16 0
2.5550001 1.659 0.193 127 16 0
2.553 1.6619999 0.19599999 118 16 0
2.5569999 1.67 0.20100001 118 16 0
2.552 1.671 0.204 121 16 0
2.5539999 1.677 0.208 122 16 0
2.5550001 1.682 0.212 124 16 0
2.553 1.6849999 0.215 119 16 0
2.552 1.689 0.219 110 16 0
2.553 1.693 0.223 125 16 0
2.55 1.696 0.227 117 16 0
2.5469999 1.698 0.23 115 16 0
2.549 1.7029999 0.234 114 16 0
2.5480001 1.706 0.23800001 117 16 0
2.552 1.712 0.242 69 16 0
2.5510001 1.715 0.24600001 41 16 0
2.5510001 1.719 0.25 35 16 0
2.55 1.721 0.25400001 35 16 0
2.549 1.723 0.25799999 46 16 0
2.5450001 1.723 0.26100001 83 16 0
2.549 1.729 0.26499999 111 16 0
2.55 1.732 0.26899999 111 16 0
2.546 1.732 0.273 96 16 0
2.549 1.737 0.27700001 110 16 0
2.55 1.74 0.28099999 143 16 0
2.5539999 1.745 0.28600001 150 16 0
2.5550001 1.748 0.289 140 16 0
2.559 1.752 0.294 90 16 0
2.5550001 1.752 0.29699999 47 16 0
2.553 1.751 0.301 33 16 0
2.556 1.755 0.30500001 25 16 0
2.5469999 1.751 0.308 18 16 0
2.5350001 1.743 0.31 13 16 0
2.529 1.7410001 0.31299999 12 16 0
2.526 1.739 0.317 12 16 0
2.516 1.734 0.31900001 14 19 0
2.5039999 1.726 0.32100001 16 16 0
2.497 1.722 0.324 18 16 0
2.4920001 1.719 0.32699999 22 16 0
2.4860001 1.715 0.33000001 25 16 0
2.4809999 1.711 0.333 27 16 0
2.487 1.716 0.33700001 30 16 0
2.4849999 1.714 0.34099999 34 16 0
2.4849999 1.714 0.34400001 38 16 0
2.487 1.715 0.34799999 42 16 0
2.4860001 1.714 0.35100001 44 16 0
2.4860001 1.7130001 0.35499999 46 16 0
2.487 1.7130001 0.35800001 48 16 0
2.4909999 1.715 0.36199999 52 16 0
2.4920001 1.715 0.366 63 16 0
2.494 1.715 0.37 57 16 0
2.5 1.717 0.37400001 50 16 0
2.497 1.714 0.377 46 16 0
2.4990001 1.714 0.38 40 16 0
2.5039999 1.715 0.384 37 16 0
2.503 1.712 0.38699999 33 16 0
2.5079999 1.714 0.391 30 16 0
2.516 1.717 0.39500001 28 16 0
2.5190001 1.717 0.39899999 29 16 0
2.5239999 1.7180001 0.403 31 16 0
2.533 1.721 0.40700001 35 16 0
2.529 1.716 0.41 38 16 0
2.53 1.714 0.41299999 40 16 0
2.526 1.7079999 0.41499999 47 16 0
2.523 1.7029999 0.417 81 16 0
2.5209999 1.699 0.41999999 134 16 0
2.5250001 1.698 0.42300001 150 16 0
2.527 1.696 0.42699999 150 16 0
2.5280001 1.694 0.42899999 150 16 0
2.533 1.693 0.433 150 16 0
2.5309999 1.688 0.435 150 16 0
2.5380001 1.688 0.43900001 150 16 0
2.54 1.686 0.442 150 16 0
2.5409999 1.683 0.44400001 150 16 0
2.546 1.681 0.447 150 16 0
2.5450001 1.676 0.44999999 150 16 0
2.5469999 1.673 0.45199999 150 16 0
2.5510001 1.671 0.45500001 150 16 0
2.5550001 1.669 0.458 150 16 0
2.5550001 1.664 0.46000001 150 16 0
2.5580001 1.661 0.463 150 16 0
2.562 1.659 0.46599999 150 16 0
2.566 1.656 0.46799999 150 16 0
2.5680001 1.652 0.47099999 150 16 0
2.5699999 1.648 0.47299999 150 16 0
2.5699999 1.643 0.47499999 150 16 0
2.5780001 1.642 0.47799999 150 16 0
2.582 1.6390001 0.48100001 150 16 0
2.582 1.633 0.48199999 150 16 0
2.5869999 1.63 0.48500001 150 16 0
2.5899999 1.626 0.48699999 150 16 0
2.5899999 1.62 0.48800001 150 16 0
2.595 1.617 0.491 150 16 0
2.5999999 1.614 0.493 150 16 0
2.5999999 1.607 0.49399999 150 16 0
2.6040001 1.604 0.49599999 150 16 0
2.615 1.604 0.5 150 16 0
2.609 1.5930001 0.5 150 16 0
2.6170001 1.592 0.50199997 150 16 0
2.618 1.586 0.50400001 150 16 0
2.6199999 1.579 0.505 150 16 0
2.6270001 1.577 0.50700003 150 16 0
2.632 1.573 0.509 150 16 0
2.632 1.5650001 0.50999999 150 16 0
2.635 1.561 0.51099998 150 16 0
2.642 1.557 0.51300001 150 16 0
2.6440001 1.551 0.514 150 16 0
2.6470001 1.545 0.51599997 150 16 0
2.651 1.54 0.51700002 150 16 0
2.654 1.534 0.51800001 150 16 0
2.6570001 1.529 0.51899999 150 16 0
2.6600001 1.523 0.51999998 150 16 0
2.664 1.517 0.52100003 150 16 0
2.6689999 1.512 0.52200001 150 16 0
2.668 1.5039999 0.52200001 150 16 0
2.6730001 1.499 0.52399999 150 16 0
2.6819999 1.495 0.52499998 150 16 0
2.684 1.489 0.52600002 150 16 0
2.6830001 1.48 0.52600002 150 16 0
2.687 1.474 0.52600002 150 16 0
2.6960001 1.471 0.528 150 16 0
2.6919999 1.46 0.52700001 150 16 0
2.697 1.455 0.528 150 16 0
2.7 1.448 0.528 150 16 0
2.707 1.443 0.52899998 150 16 0
2.707 1.4349999 0.52899998 150 16 0
2.711 1.428 0.52899998 150 16 0
2.714 1.421 0.52899998 150 16 0
2.723 1.4170001 0.52999997 150 16 0
2.7260001 1.41 0.52999997 150 16 0
2.7279999 1.403 0.52999997 150 16 0
2.733 1.396 0.52999997 150 16 0
2.7349999 1.3890001 0.52999997 150 16 0
2.7390001 1.382 0.52999997 150 16 0
2.743 1.375 0.52999997 150 16 0
2.747 1.368 0.52999997 150 16 0
2.75 1.3609999 0.52899998 150 16 0
2.7539999 1.354 0.52899998 150 16 0
2.7579999 1.347 0.52899998 150 16 0
2.76 1.339 0.528 150 16 0
2.7650001 1.3329999 0.528 150 16 0
2.7690001 1.326 0.52700001 150 16 0
2.766 1.3150001 0.52499998 150 16 0
2.776 1.311 0.52600002 150 16 0
2.78 1.304 0.52499998 150 16 0
2.7809999 1.295 0.52399999 150 16 0
2.786 1.288 0.52399999 150 16 0
2.79 1.281 0.523 150 16 0
2.7939999 1.273 0.52200001 150 16 0
2.7969999 1.266 0.52100003 150 16 0
2.802 1.258 0.52100003 150 16 0
2.803 1.25 0.51899999 150 16 0
2.809 1.243 0.51800001 150 16 0
2.8099999 1.234 0.51700002 150 16 0
2.8139999 1.226 0.51599997 150 16 0
2.8169999 1.219 0.51499999 150 16 0
2.8180001 1.21 0.51300001 150 16 0
2.8269999 1.204 0.51300001 150 16 0
2.8299999 1.196 0.51099998 150 16 0
2.8310001 1.187 0.509 150 16 0
2.8299999 1.178 0.50700003 150 16 0
2.8399999 1.1720001 0.50700003 150 16 0
2.8410001 1.163 0.505 150 16 0
2.846 1.156 0.50300002 150 16 0
2.848 1.147 0.50199997 150 16 0
2.8540001 1.14 0.5 150 16 0
2.8529999 1.13 0.498 150 16 0
2.855 1.122 0.49599999 150 16 0
2.859 1.114 0.49399999 150 16 0
2.862 1.1059999 0.49200001 150 16 0
2.865 1.097 0.49000001 150 16 0
2.869 1.089 0.48899999 150 16 0
2.872 1.081 0.48699999 150 16 0
2.8829999 1.076 0.486 150 16 0
2.882 1.066 0.48300001 150 16 0
2.8870001 1.058 0.48100001 150 16 0
2.8900001 1.05 0.479 150 16 0
2.892 1.041 0.477 150 16 0
2.892 1.0319999 0.47400001 150 16 0
2.8989999 1.024 0.472 150 16 0
2.8989999 1.015 0.46900001 150 16 0
2.902 1.007 0.46700001 150 16 0
2.9059999 0.99800003 0.465 150 16 0
2.904 0.98799998 0.46200001 150 16 0
2.9119999 0.98199999 0.46000001 150 16 0
2.9189999 0.97399998 0.458 150 16 0
2.918 0.96499997 0.45500001 150 16 0
2.9219999 0.95599997 0.45199999 150 16 0
2.928 0.949 0.44999999 150 16 0
2.9330001 0.94099998 0.44800001 150 16 0
2.9330001 0.93199998 0.44499999 150 16 0
2.9360001 0.92299998 0.442 150 16 0
2.937 0.91399997 0.43900001 150 16 0
2.9419999 0.90600002 0.43700001 150 16 0
2.951 0.89899999 0.435 150 16 0
2.951 0.88999999 0.43099999 150 16 0
2.954 0.88099998 0.42899999 150 16 0
2.957 0.87300003 0.426 150 16 0
2.96 0.86400002 0.42300001 150 16 0
2.9630001 0.85500002 0.41999999 150 16 0
2.9679999 0.847 0.417 150 16 0
2.973 0.83999997 0.414 150 16 0
2.97 0.829 0.41 150 16 0
2.974 0.82099998 0.40700001 150 16 0
2.9790001 0.81300002 0.40400001 150 16 0
2.983 0.80400002 0.40099999 150 16 0
2.987 0.796 0.398 150 16 0
2.99 0.78799999 0.39500001 150 16 0
2.9909999 0.778 0.39199999 150 16 0
2.9960001 0.76999998 0.389 150 16 0
2.9990001 0.76200002 0.38499999 150 16 0
3.0020001 0.75300002 0.382 150 16 0
3.0039999 0.74400002 0.37900001 150 16 0
3.0120001 0.73699999 0.37599999 150 16 0
3.0120001 0.727 0.37200001 150 16 0
3.0120001 0.71799999 0.368 150 16 0
3.017 0.70999998 0.36500001 150 16 0
3.02 0.70099998 0.361 150 16 0
3.029 0.69400001 0.35800001 150 16 0
3.027 0.68400002 0.354 150 16 0
3.027 0.67500001 0.34999999 150 16 0
3.0350001 0.667 0.347 150 16 0
3.039 0.65899998 0.34400001 150 16 0
3.0380001 0.64899999 0.34 150 16 0
3.043 0.64099997 0.336 150 16 0
3.0450001 0.63200003 0.33199999 150 16 0
3.043 0.62199998 0.32800001 150 16 0
3.05 0.61400002 0.32499999 146 16 0
3.0539999 0.60600001 0.32100001 150 16 0
3.056 0.597 0.317 150 16 0
3.059 0.588 0.31299999 150 16 0
3.066 0.57999998 0.31 150 16 0
3.063 0.57099998 0.30500001 138 16 0
3.0650001 0.56199998 0.301 150 16 0
3.0739999 0.55400002 0.29800001 147 16 0
3.0769999 0.54500002 0.294 150 16 0
3.079 0.53600001 0.28999999 135 16 0
3.0810001 0.528 0.28600001 142 16 0
3.082 0.51899999 0.28099999 138 16 0
3.0880001 0.50999999 0.27700001 144 16 0
3.0869999 0.50099999 0.273 146 16 0
3.0880001 0.49200001 0.26899999 145 16 0
3.0969999 0.484 0.26499999 150 16 0
3.095 0.47499999 0.25999999 146 16 0
3.0969999 0.46599999 0.25600001 136 16 0
3.102 0.45699999 0.252 150 16 0
3.1059999 0.449 0.248 150 16 0
3.1059999 0.44 0.243 150 16 0
3.105 0.43000001 0.23899999 150 16 0
3.1129999 0.42199999 0.235 150 16 0
3.115 0.41299999 0.23 150 16 0
3.115 0.40400001 0.226 150 16 0
3.118 0.39500001 0.221 150 16 0
3.119 0.38699999 0.21699999 150 16 0
3.125 0.37799999 0.213 150 16 0
3.131 0.37 0.208 150 16 0
3.1229999 0.36000001 0.20299999 150 16 0
3.135 0.352 0.199 150 16 0
3.138 0.34299999 0.19400001 147 16 0
3.138 0.33399999 0.19 150 16 0
3.1389999 0.32499999 0.185 150 16 0
3.1459999 0.317 0.18099999 150 16 0
3.1470001 0.308 0.176 133 16 0
3.1530001 0.29899999 0.171 91 16 0
3.1559999 0.28999999 0.167 44 16 0
3.1670001 0.28299999 0.162 38 16 0
3.181 0.27500001 0.15800001 32 16 0
3.1930001 0.266 0.154 31 16 0
3.1819999 0.25600001 0.148 25 16 0
3.1919999 0.248 0.14399999 25 16 0
3.224 0.242 0.14 30 19 0
3.2219999 0.23199999 0.13500001 28 16 0
3.204 0.222 0.12899999 25 16 0
3.217 0.214 0.125 28 16 0
3.2509999 0.207 0.121 31 19 0
3.2750001 0.199 0.117 39 16 0
3.286 0.19 0.112 53 16 0
3.2820001 0.18099999 0.106 71 16 0
3.2709999 0.171 0.101 115 16 0
3.26 0.161 0.094999999 118 16 0
3.2490001 0.15099999 0.090000004 90 16 0
3.2420001 0.142 0.083999999 83 16 0
3.2479999 0.133 0.079000004 84 16 0
3.2850001 0.125 0.075000003 60 19 0
3.313 0.117 0.07 42 16 0
3.3150001 0.108 0.064000003 45 16 0
3.316 0.098999999 0.059 45 16 0
3.323 0.089000002 0.054000001 20 16 0
3.3239999 0.079999998 0.048 26 16 0
3.3169999 0.071000002 0.043000001 44 16 0
3.325 0.061999999 0.037 43 16 0
3.3299999 0.052999999 0.032000002 44 16 0
3.3239999 0.043000001 0.026000001 58 16 0
3.3280001 0.034000002 0.021 55 16 0
3.3369999 0.025 0.015 36 16 0
3.3199999 0.016000001 0.0089999996 20 16 0
3.296 0.0060000001 0.0040000002 18 16 0
3.276 -0.0020000001 -0.001 17 16 0
3.2449999 -0.011 -0.0060000001 20 16 0
3.2420001 -0.018999999 -0.012 44 16 0
3.243 -0.028000001 -0.017000001 139 16 0
3.2420001 -0.037 -0.023 149 16 0
3.2420001 -0.046 -0.028000001 124 16 0
3.2490001 -0.055 -0.034000002 150 16 0
3.2460001 -0.064000003 -0.039999999 150 16 0
3.2409999 -0.072999999 -0.045000002 42 16 0
3.22 -0.081 -0.050999999 26 16 0
3.2049999 -0.090000004 -0.056000002 27 16 0
3.1830001 -0.097999997 -0.061000001 27 16 0
3.1630001 -0.106 -0.066 27 16 0
3.1370001 -0.113 -0.071000002 27 16 0
3.1199999 -0.121 -0.075999998 26 16 0
3.1029999 -0.12899999 -0.081 26 16 0
3.0810001 -0.13600001 -0.086000003 26 16 0
3.0650001 -0.14399999 -0.090999998 26 16 0
3.0450001 -0.15099999 -0.096000001 27 16 0
3.026 -0.15899999 -0.101 26 16 0
3.0009999 -0.16500001 -0.105 25 16 0
2.9890001 -0.17299999 -0.11 25 16 0
2.9679999 -0.18000001 -0.115 24 16 0
2.948 -0.186 -0.119 24 16 0
2.934 -0.19400001 -0.124 25 16 0
2.914 -0.2 -0.12800001 26 16 0
2.895 -0.206 -0.133 25 16 0
2.881 -0.213 -0.138 25 16 0
2.8640001 -0.22 -0.142 24 16 0
2.845 -0.226 -0.146 25 16 0
2.832 -0.23199999 -0.15099999 26 16 0
2.812 -0.23800001 -0.155 26 16 0
2.8010001 -0.245 -0.16 25 16 0
2.7869999 -0.25099999 -0.164 26 16 0
2.77 -0.257 -0.168 27 16 0
2.76 -0.264 -0.17299999 26 16 0
2.74 -0.26899999 -0.177 26 16 0
2.7279999 -0.27500001 -0.18099999 26 16 0
2.72 -0.28099999 -0.186 26 16 0
2.704 -0.287 -0.19 27 16 0
2.687 -0.292 -0.193 28 16 0
2.6730001 -0.29800001 -0.198 29 16 0
2.6600001 -0.303 -0.20200001 32 16 0
2.645 -0.30899999 -0.206 31 16 0
2.628 -0.31400001 -0.20900001 31 16 0
2.6170001 -0.31900001 -0.214 31 16 0
2.5999999 -0.324 -0.21699999 30 16 0
2.5910001 -0.33000001 -0.222 31 16 0
2.579 -0.33500001 -0.226 30 16 0
2.5699999 -0.34099999 -0.23 31 16 0
2.549 -0.345 -0.233 30 16 0
2.5409999 -0.34999999 -0.237 31 16 0
2.5239999 -0.35499999 -0.241 31 16 0
2.513 -0.36000001 -0.245 31 16 0
2.5039999 -0.36500001 -0.249 32 16 0
2.4909999 -0.37 -0.252 32 16 0
2.4779999 -0.37400001 -0.25600001 31 16 0
2.4679999 -0.37900001 -0.25999999 31 16 0
2.4549999 -0.384 -0.26300001 33 16 0
2.4489999 -0.389 -0.26800001 34 16 0
2.4349999 -0.39300001 -0.271 33 16 0
2.418 -0.39700001 -0.27399999 30 16 0
2.4100001 -0.40200001 -0.278 30 16 0
2.3989999 -0.40599999 -0.28200001 36 16 0
2.3870001 -0.41 -0.285 31 16 0
2.3740001 -0.414 -0.289 41 16 0
2.3670001 -0.419 -0.29300001 34 16 0
2.3529999 -0.42300001 -0.296 36 16 0
2.346 -0.428 -0.30000001 40 16 0
2.3329999 -0.43099999 -0.303 44 16 0
2.3210001 -0.435 -0.30599999 41 16 0
2.312 -0.43900001 -0.31 38 16 0
2.299 -0.44299999 -0.31299999 41 16 0
2.286 -0.44600001 -0.31600001 44 16 0
2.277 -0.44999999 -0.31999999 41 16 0
2.2679999 -0.454 -0.32300001 44 16 0
2.2609999 -0.45899999 -0.32699999 47 16 0
2.25 -0.46200001 -0.33000001 44 16 0
2.2390001 -0.46599999 -0.33399999 44 16 0
2.2290001 -0.46900001 -0.33700001 46 16 0
2.224 -0.47400001 -0.34099999 48 16 0
2.2130001 -0.477 -0.34400001 42 16 0
2.1989999 -0.47999999 -0.347 40 16 0
2.194 -0.484 -0.35100001 51 16 0
2.181 -0.48699999 -0.354 51 16 0
2.175 -0.491 -0.35800001 49 16 0
2.165 -0.49399999 -0.361 55 16 0
2.1500001 -0.49599999 -0.36300001 63 16 0
2.1459999 -0.50099999 -0.36700001 55 16 0
2.135 -0.50400001 -0.37 59 16 0
2.1259999 -0.50700003 -0.373 55 16 0
2.119 -0.51099998 -0.377 51 16 0
2.1110001 -0.514 -0.38 54 16 0
2.0999999 -0.51599997 -0.38299999 51 16 0
2.0899999 -0.51899999 -0.38600001 56 16 0
2.0829999 -0.523 -0.389 57 16 0
2.073 -0.52499998 -0.39199999 60 16 0
2.0680001 -0.52899998 -0.396 56 16 0
2.063 -0.53299999 -0.40000001 58 16 0
2.0580001 -0.537 -0.40400001 59 16 0
2.039 -0.537 -0.405 61 16 0
2.0309999 -0.54000002 -0.40799999 66 16 0
2.026 -0.54299998 -0.412 66 16 0
2.0190001 -0.546 -0.41499999 65 16 0
2.0150001 -0.55000001 -0.419 74 16 0
2.003 -0.55199999 -0.421 70 16 0
1.995 -0.55400002 -0.42399999 74 16 0
1.988 -0.55699998 -0.42699999 65 16 0
1.984 -0.56099999 -0.43099999 73 16 0
1.974 -0.56300002 -0.43399999 71 16 0
1.964 -0.565 -0.43599999 68 16 0
1.96 -0.56800002 -0.44 92 16 0
1.951 -0.56999999 -0.44299999 78 16 0
1.9450001 -0.57300001 -0.44600001 118 16 0
1.936 -0.57499999 -0.449 117 16 0
1.933 -0.579 -0.45300001 123 16 0
1.925 -0.58099997 -0.456 111 16 0
1.918 -0.583 -0.45899999 118 16 0
1.899 -0.58200002 -0.45899999 111 19 0
1.897 -0.58600003 -0.463 122 16 0
1.892 -0.58899999 -0.46700001 129 16 0
1.887 -0.59100002 -0.47 116 16 0
1.883 -0.59500003 -0.47400001 126 16 0
1.878 -0.59799999 -0.47799999 128 16 0
1.872 -0.60000002 -0.48100001 122 16 0
1.8660001 -0.602 -0.484 128 16 0
1.857 -0.60299999 -0.486 121 16 0
1.855 -0.60699999 -0.491 134 16 0
1.845 -0.60799998 -0.493 121 16 0
1.839 -0.61000001 -0.49599999 121 16 0
1.836 -0.61299998 -0.5 131 16 0
1.827 -0.61400002 -0.50199997 139 16 0
1.817 -0.61500001 -0.50400001 143 16 0
1.8150001 -0.61799997 -0.50800002 146 16 0
1.812 -0.62099999 -0.51200002 146 16 0
1.808 -0.62400001 -0.51599997 135 16 0
1.801 -0.625 -0.51800001 134 16 0
1.7970001 -0.62800002 -0.52200001 140 16 0
1.784 -0.62699997 -0.523 138 16 0
1.7819999 -0.63 -0.52700001 143 16 0
1.773 -0.63099998 -0.52899998 148 16 0
1.7690001 -0.63300002 -0.53200001 145 16 0
1.765 -0.63499999 -0.53600001 141 16 0
1.76 -0.63700002 -0.53899997 150 16 0
1.753 -0.63800001 -0.54100001 139 16 0
1.751 -0.64099997 -0.54500002 150 16 0
1.747 -0.64300001 -0.54900002 150 16 0
1.742 -0.64499998 -0.55199999 147 16 0
1.738 -0.64700001 -0.55500001 145 16 0
1.734 -0.64899999 -0.55900002 150 16 0
1.73 -0.65100002 -0.56199998 150 16 0
1.72 -0.64999998 -0.56300002 150 16 0
1.7180001 -0.653 -0.56699997 147 16 0
1.711 -0.65399998 -0.56999999 146 16 0
1.706 -0.65499997 -0.57300001 150 16 0
1.7 -0.65600002 -0.57499999 142 16 0
1.696 -0.65799999 -0.57800001 150 16 0
1.694 -0.66000003 -0.58200002 150 16 0
1.689 -0.66100001 -0.58499998 150 16 0
1.6849999 -0.662 -0.588 150 16 0
1.6799999 -0.66399997 -0.59100002 150 16 0
1.678 -0.66600001 -0.59500003 150 16 0
1.675 -0.66799998 -0.59899998 150 16 0
1.67 -0.66799998 -0.60100001 150 16 0
1.664 -0.66900003 -0.60299999 150 16 0
1.66 -0.67000002 -0.60699999 150 16 0
1.656 -0.67199999 -0.61000001 150 16 0
1.652 -0.67299998 -0.61299998 150 16 0
1.648 -0.67400002 -0.616 150 16 0
1.648 -0.676 -0.62 150 16 0
1.642 -0.67699999 -0.62199998 1 0 0
1.638 -0.67799997 -0.625 150 16 0
1.6339999 -0.67799997 -0.62800002 150 16 0
1.632 -0.68000001 -0.63200003 150 16 0
1.627 -0.68099999 -0.634 1 0 0
1.6210001 -0.68099999 -0.63700002 150 16 0
1.619 -0.68199998 -0.63999999 1 0 0
1.617 -0.68400002 -0.64399999 150 16 0
1.615 -0.685 -0.64700001 2 0 0
1.607 -0.68400002 -0.648 150 16 0
1.604 -0.68400002 -0.65100002 2 0 0
1.602 -0.68599999 -0.65499997 3 0 0
1.6 -0.68699998 -0.65799999 1 0 0
1.596 -0.68699998 -0.66100001 70 0 0
1.595 -0.68900001 -0.66500002 3 0 0
1.592 -0.69 -0.66799998 2 0 0
1.59 -0.69099998 -0.671 68 0 0
1.584 -0.69 -0.67299998 2 0 0
1.582 -0.69099998 -0.676 86 0 0
1.5779999 -0.69099998 -0.67799997 71 0 0
1.579 -0.69300002 -0.68300003 78 0 0
1.576 -0.69300002 -0.68599999 77 0 0
1.572 -0.69400001 -0.68800002 99 0 0
1.571 -0.69400001 -0.69199997 72 0 0
1.569 -0.69499999 -0.69499999 70 0 0
1.566 -0.69499999 -0.69800001 76 0 0
1.563 -0.69499999 -0.69999999 81 0 0
1.5599999 -0.69599998 -0.70300001 73 0 0
1.561 -0.69700003 -0.70700002 80 0 0
1.556 -0.69599998 -0.70899999 74 0 0
1.5549999 -0.69700003 -0.71200001 82 0 0
1.554 -0.69800001 -0.71499997 89 0 0
1.551 -0.69800001 -0.71799999 128 0 0
1.551 -0.699 -0.722 93 0 0
1.549 -0.699 -0.72399998 86 0 0
1.5470001 -0.699 -0.727 88 0 0
1.546 -0.699 -0.73000002 81 0 0
1.536 -0.69499999 -0.72899997 77 3 0
1.5369999 -0.69700003 -0.73400003 75 0 0
1.541 -0.699 -0.73900002 93 0 0
1.538 -0.69800001 -0.741 100 0 0
1.539 -0.699 -0.745 103 0 0
1.538 -0.699 -0.74800003 83 0 0
1.536 -0.699 -0.75 94 0 0
1.5319999 -0.69800001 -0.75199997 96 0 0
1.533 -0.699 -0.755 107 0 0
1.53 -0.69800001 -0.75700003 82 0 0
1.53 -0.69800001 -0.76099998 78 0 0
1.533 -0.69999999 -0.76499999 72 0 0
1.529 -0.69800001 -0.76599997 93 0 0
1.527 -0.69700003 -0.76899999 84 0 0
1.525 -0.69599998 -0.77100003 150 16 0
1.526 -0.69599998 -0.77399999 100 0 0
1.525 -0.69599998 -0.77600002 150 16 0
1.524 -0.69499999 -0.77899998 150 16 0
1.523 -0.69499999 -0.78100002 150 0 0
1.522 -0.69400001 -0.78399998 150 0 0
1.524 -0.69499999 -0.78799999 150 0 0
1.524 -0.69400001 -0.79000002 150 16 0
1.524 -0.69400001 -0.79299998 150 0 0
1.526 -0.69400001 -0.796 150 0 0
1.522 -0.69199997 -0.79699999 150 16 0
1.524 -0.69199997 -0.80000001 150 16 0
1.524 -0.69199997 -0.80299997 150 16 0
1.527 -0.69199997 -0.80699998 150 16 0
1.528 -0.69199997 -0.81 150 16 0
1.527 -0.69099998 -0.81199998 150 16 0
1.525 -0.68900001 -0.81300002 150 16 0
1.526 -0.68800002 -0.81599998 150 16 0
1.527 -0.68800002 -0.81800002 150 16 0
1.527 -0.68699998 -0.81999999 150 16 0
1.528 -0.68599999 -0.82300001 143 0 0
1.5319999 -0.68599999 -0.82700002 150 16 0
1.531 -0.685 -0.82800001 150 16 0
1.53 -0.68300003 -0.82999998 150 16 0
1.536 -0.68400002 -0.83499998 150 19 0
1.5319999 -0.68099999 -0.83399999 150 16 0
1.534 -0.68099999 -0.83700001 150 16 0
1.54 -0.68199998 -0.84100002 150 19 0
1.539 -0.68000001 -0.84299999 150 16 0
1.541 -0.67900002 -0.84500003 150 16 0
1.543 -0.67799997 -0.84799999 150 16 0
1.546 -0.67799997 -0.85100001 150 16 0
1.548 -0.67699999 -0.85299999 150 16 0
1.545 -0.67400002 -0.85299999 150 16 0
1.548 -0.67299998 -0.85500002 150 16 0
1.549 -0.67199999 -0.85699999 150 16 0
1.55 -0.67000002 -0.85799998 150 16 0
1.551 -0.66799998 -0.86000001 150 16 0
1.556 -0.66799998 -0.86400002 150 16 0
1.559 -0.66799998 -0.866 150 16 0
1.559 -0.66500002 -0.86699998 150 16 0
1.561 -0.66399997 -0.86900002 150 16 0
1.568 -0.66399997 -0.87300003 150 19 0
1.567 -0.66100001 -0.87199998 150 16 0
1.567 -0.65899998 -0.87300003 150 16 0
1.571 -0.65799999 -0.87599999 150 16 0
1.576 -0.65799999 -0.87900001 150 16 0
1.58 -0.65700001 -0.88099998 150 16 0
1.58 -0.65499997 -0.88099998 150 16 0
1.584 -0.65399998 -0.884 150 16 0
1.584 -0.65100002 -0.884 150 16 0
0 0 0 0 0 0
1.592 -0.64899999 -0.88800001 127 0 0
1.596 -0.64700001 -0.88999999 150 16 0
1.6 -0.64600003 -0.89200002 150 16 0
1.601 -0.64300001 -0.89200002 150 16 0
1.604 -0.64200002 -0.89300001 3 0 0
1.6059999 -0.639 -0.89399999 130 0 0
1.61 -0.63800001 -0.89600003 150 16 0
1.617 -0.63700002 -0.898 3 0 0
1.618 -0.63499999 -0.898 3 0 0
1.619 -0.63200003 -0.898 2 0 0
1.622 -0.63 -0.89899999 4 0 0
1.6289999 -0.63 -0.90200001 150 16 0
1.632 -0.62699997 -0.903 150 16 0
1.641 -0.62699997 -0.90700001 2 3 0
1.643 -0.625 -0.90700001 2 0 0
1.647 -0.62300003 -0.90799999 2 0 0
1.65 -0.62099999 -0.90799999 150 16 0
1.654 -0.61900002 -0.90899998 150 16 0
1.655 -0.61500001 -0.90799999 150 16 0
1.6619999 -0.61500001 -0.91000003 150 16 0
1.668 -0.61299998 -0.912 150 16 0
1.67 -0.61000001 -0.91100001 150 16 0
1.675 -0.60900003 -0.912 150 16 0
1.681 -0.60699999 -0.91399997 150 16 0
1.683 -0.60399997 -0.91299999 150 16 0
1.692 -0.60399997 -0.91600001 150 16 0
1.696 -0.60100001 -0.91600001 150 16 0
1.6950001 -0.597 -0.91399997 150 16 0
1.704 -0.59600002 -0.91600001 150 16 0
1.707 -0.59399998 -0.91600001 150 16 0
1.7130001 -0.59200001 -0.917 150 16 0
1.717 -0.58999997 -0.917 150 16 0
1.719 -0.58600003 -0.91500002 150 16 0
1.725 -0.58399999 -0.91600001 150 16 0
1.729 -0.58200002 -0.91600001 150 16 0
1.734 -0.579 -0.91500002 150 16 0
1.739 -0.57700002 -0.91600001 150 16 0
1.7410001 -0.574 -0.91399997 150 16 0
1.757 -0.57499999 -0.91900003 150 19 0
1.761 -0.57200003 -0.91900003 150 16 0
1.765 -0.56900001 -0.91799998 150 16 0
1.7690001 -0.56599998 -0.917 150 16 0
1.779 -0.56599998 -0.91900003 150 16 0
1.7819999 -0.56300002 -0.91799998 150 16 0
1.79 -0.56099999 -0.91799998 150 16 0
1.794 -0.55800003 -0.91799998 150 16 0
1.8 -0.55599999 -0.917 150 16 0
1.803 -0.55199999 -0.91500002 150 16 0
1.8099999 -0.55000001 -0.91500002 150 16 0
1.814 -0.54699999 -0.91399997 150 16 0
1.822 -0.54500002 -0.91500002 150 16 0
1.826 -0.542 -0.91299999 150 16 0
1.832 -0.54000002 -0.912 150 16 0
1.839 -0.53799999 -0.912 150 16 0
1.844 -0.53500003 -0.91100001 150 16 0
1.854 -0.53399998 -0.912 150 16 0
1.857 -0.52999997 -0.91000003 150 16 0
1.86 -0.52700001 -0.90700001 150 16 0
1.87 -0.52499998 -0.90799999 150 16 0
1.873 -0.52200001 -0.90600002 150 16 0
1.8839999 -0.51999998 -0.90700001 150 16 0
1.89 -0.51800001 -0.90499997 150 16 0
1.898 -0.51599997 -0.90499997 150 16 0
1.903 -0.51300001 -0.903 150 16 0
1.91 -0.50999999 -0.90200001 150 16 0
1.9170001 -0.50800002 -0.90100002 150 16 0
1.92 -0.50400001 -0.898 145 16 0
1.929 -0.50199997 -0.898 131 16 0
1.933 -0.49900001 -0.89499998 131 16 0
1.942 -0.49700001 -0.89499998 130 16 0
1.947 -0.49399999 -0.89300001 131 16 0
1.954 -0.491 -0.89099997 139 16 0
1.9630001 -0.48899999 -0.88999999 127 16 0
1.966 -0.48500001 -0.88700002 128 16 0
1.975 -0.48300001 -0.88599998 133 16 0
1.979 -0.479 -0.88300002 122 16 0
1.988 -0.477 -0.88200003 118 16 0
2.0039999 -0.477 -0.884 119 16 0
2.0109999 -0.47400001 -0.88200003 131 16 0
2.0190001 -0.47099999 -0.88099998 120 16 0
2.023 -0.46799999 -0.87800002 111 16 0
2.0339999 -0.46599999 -0.87699997 123 16 0
2.0369999 -0.46200001 -0.87300003 118 16 0
2.043 -0.45899999 -0.87 109 16 0
2.0510001 -0.456 -0.86900002 118 16 0
2.062 -0.45500001 -0.86799997 112 16 0
2.0680001 -0.45100001 -0.86500001 108 16 0
2.073 -0.44800001 -0.86199999 114 16 0
2.0799999 -0.44499999 -0.85900003 102 16 0
2.0910001 -0.44299999 -0.85799998 105 16 0
2.0940001 -0.44 -0.85399997 114 16 0
2.0999999 -0.43599999 -0.85100001 99 16 0
2.1110001 -0.43399999 -0.85000002 109 16 0
2.118 -0.43099999 -0.847 112 16 0
2.1270001 -0.42899999 -0.84500003 104 16 0
2.1300001 -0.42500001 -0.83999997 102 16 0
2.1389999 -0.42199999 -0.838 101 16 0
2.145 -0.419 -0.83399999 108 16 0
2.155 -0.417 -0.83200002 105 16 0
2.164 -0.414 -0.82999998 106 16 0
2.171 -0.41100001 -0.82700002 108 16 0
2.1789999 -0.40799999 -0.824 110 16 0
2.188 -0.40599999 -0.82099998 107 16 0
2.197 -0.403 -0.81800002 101 16 0
2.2 -0.39899999 -0.81300002 91 16 0
2.2119999 -0.39700001 -0.81199998 119 16 0
2.2160001 -0.39300001 -0.80699998 97 16 0
2.2290001 -0.391 -0.80500001 97 16 0
2.2349999 -0.38800001 -0.80199999 89 16 0
2.244 -0.38499999 -0.79799998 86 16 0
2.253 -0.382 -0.79500002 105 16 0
2.2579999 -0.37900001 -0.79000002 109 16 0
2.266 -0.37599999 -0.787 94 16 0
2.279 -0.37400001 -0.78500003 94 16 0
2.286 -0.37099999 -0.78100002 95 16 0
2.293 -0.36700001 -0.77600002 87 16 0
2.3010001 -0.36399999 -0.773 87 16 0
2.3110001 -0.36199999 -0.76899999 89 16 0
2.323 -0.359 -0.76700002 91 16 0
2.329 -0.35600001 -0.76200002 94 16 0
2.339 -0.35299999 -0.759 89 16 0
2.346 -0.34999999 -0.75400001 94 16 0
2.3510001 -0.347 -0.74900001 85 16 0
2.3640001 -0.34400001 -0.74599999 95 16 0
2.3670001 -0.34 -0.74000001 80 16 0
2.3759999 -0.33700001 -0.736 87 16 0
2.3859999 -0.33500001 -0.73299998 54 16 0
2.3929999 -0.33199999 -0.72799999 43 16 0
2.401 -0.32800001 -0.72299999 49 16 0
2.4100001 -0.32499999 -0.71899998 52 16 0
2.418 -0.322 -0.71399999 52 16 0
2.428 -0.31900001 -0.70999998 53 16 0
2.4430001 -0.317 -0.70700002 41 16 0
2.434 -0.31200001 -0.69800001 43 16 0
2.4519999 -0.31 -0.69499999 43 16 0
2.4619999 -0.30700001 -0.69099998 41 16 0
2.471 -0.30399999 -0.68599999 34 16 0
2.4809999 -0.301 -0.68199998 43 16 0
2.4909999 -0.29800001 -0.67699999 40 16 0
2.5020001 -0.29499999 -0.67299998 41 16 0
2.5050001 -0.292 -0.66600001 34 16 0
2.513 -0.289 -0.66100001 40 16 0
2.5220001 -0.285 -0.65600002 35 16 0
2.5320001 -0.28299999 -0.65100002 34 16 0
2.54 -0.27900001 -0.64600003 37 16 0
2.552 -0.27700001 -0.64099997 35 16 0
2.559 -0.273 -0.63599998 34 16 0
2.5699999 -0.27000001 -0.63099998 34 16 0
2.5769999 -0.26699999 -0.625 34 16 0
2.585 -0.264 -0.61900002 36 16 0
2.5969999 -0.26100001 -0.61400002 34 16 0
2.602 -0.257 -0.60799998 34 16 0
2.6159999 -0.255 -0.60299999 31 16 0
2.6259999 -0.252 -0.59799999 34 16 0
2.632 -0.248 -0.59100002 34 16 0
2.645 -0.24600001 -0.58600003 34 16 0
2.648 -0.242 -0.579 32 16 0
2.665 -0.23899999 -0.57499999 32 16 0
2.6700001 -0.236 -0.56800002 32 16 0
2.681 -0.233 -0.56199998 31 16 0
2.6860001 -0.229 -0.55500001 31 16 0
2.694 -0.226 -0.54900002 31 16 0
2.7 -0.222 -0.542 30 16 0
2.7160001 -0.22 -0.537 29 16 0
2.7249999 -0.21699999 -0.53100002 30 16 0
2.73 -0.213 -0.52399999 29 16 0
2.743 -0.20999999 -0.51800001 30 16 0
2.75 -0.207 -0.51099998 30 16 0
2.76 -0.204 -0.505 30 16 0
2.7679999 -0.2 -0.498 29 16 0
2.7780001 -0.197 -0.491 30 16 0
2.7920001 -0.19400001 -0.48500001 30 16 0
2.7980001 -0.191 -0.47799999 29 16 0
2.812 -0.18799999 -0.472 30 16 0
2.8199999 -0.184 -0.465 29 16 0
2.8299999 -0.18099999 -0.458 29 16 0
2.8380001 -0.178 -0.45100001 30 16 0
2.8529999 -0.175 -0.44400001 29 16 0
2.8559999 -0.171 -0.43700001 29 16 0
2.8659999 -0.168 -0.42899999 29 16 0
2.8789999 -0.16500001 -0.42300001 29 16 0
2.8900001 -0.162 -0.41600001 29 16 0
2.902 -0.15899999 -0.40900001 29 16 0
2.9119999 -0.155 -0.40099999 29 16 0
2.9189999 -0.152 -0.39300001 30 16 0
2.9300001 -0.149 -0.38600001 29 16 0
2.9400001 -0.145 -0.37900001 29 16 0
2.951 -0.142 -0.37099999 29 16 0
2.961 -0.139 -0.36399999 29 16 0
2.9760001 -0.13600001 -0.35600001 30 16 0
2.983 -0.132 -0.34799999 30 16 0
2.987 -0.12899999 -0.34 30 16 0
3.01 -0.126 -0.333 31 16 0
3.0179999 -0.122 -0.32499999 30 16 0
3.029 -0.119 -0.317 30 16 0
3.0409999 -0.116 -0.30899999 30 16 0
3.053 -0.112 -0.301 30 16 0
3.0639999 -0.109 -0.29300001 28 16 0
3.075 -0.106 -0.285 30 16 0
3.0869999 -0.102 -0.27700001 29 16 0
3.096 -0.098999999 -0.26800001 29 16 0
3.1029999 -0.094999999 -0.259 29 16 0
3.118 -0.092 -0.25099999 29 16 0
3.1289999 -0.089000002 -0.242 28 16 0
3.142 -0.085000001 -0.234 29 16 0
3.151 -0.082000002 -0.22499999 30 16 0
3.1670001 -0.079000004 -0.21699999 31 16 0
3.1719999 -0.075000003 -0.207 44 16 0
3.181 -0.071000002 -0.198 103 16 0
3.1849999 -0.068000004 -0.189 150 16 0
3.1900001 -0.064000003 -0.17900001 150 16 0
3.1919999 -0.061000001 -0.17 150 16 0
3.197 -0.057 -0.16 150 16 0
3.197 -0.052999999 -0.15099999 150 16 0
3.2060001 -0.050000001 -0.141 150 16 0
3.207 -0.046 -0.132 150 16 0
3.21 -0.043000001 -0.122 150 16 0
3.2079999 -0.039000001 -0.112 150 16 0
3.2149999 -0.035999998 -0.103 150 16 0
3.2160001 -0.032000002 -0.093000002 150 16 0
3.2160001 -0.028999999 -0.082999997 150 16 0
3.217 -0.025 -0.072999999 150 16 0
3.224 -0.022 -0.064000003 150 16 0
3.2260001 -0.017999999 -0.054000001 79 16 0
3.2290001 -0.015 -0.044 41 16 0
3.233 -0.012 -0.034000002 28 16 0
3.2379999 -0.0080000004 -0.024 21 16 0
3.256 -0.0049999999 -0.014 19 16 0
3.267 -0.001 -0.0040000002 19 16 0
3.2820001 0.001 0.0049999999 19 16 0
3.293 0.0049999999 0.014 20 16 0
3.3099999 0.0080000004 0.025 20 16 0
3.313 0.011 0.035 19 16 0
3.3299999 0.015 0.045000002 21 16 0
3.3410001 0.017999999 0.056000002 22 16 0
3.3529999 0.022 0.066 26 16 0
3.362 0.025 0.077 43 16 0
3.349 0.028999999 0.086999997 42 16 0
3.326 0.032000002 0.096000001 33 16 0
3.3039999 0.035 0.106 33 16 0
3.276 0.037999999 0.115 48 16 0
3.2679999 0.041000001 0.125 150 16 0
3.2709999 0.044 0.13500001 150 16 0
3.2720001 0.046999998 0.145 150 16 0
3.2809999 0.050999999 0.156 150 16 0
3.2809999 0.054000001 0.16599999 150 16 0
3.2880001 0.057 0.177 150 16 0
3.29 0.059999999 0.18700001 150 16 0
3.289 0.063000001 0.197 150 16 0
3.2920001 0.067000002 0.208 150 16 0
3.2939999 0.07 0.21799999 150 16 0
3.3050001 0.072999999 0.229 150 16 0
3.302 0.075999998 0.23899999 150 16 0
3.303 0.079000004 0.249 150 16 0
3.3080001 0.082000002 0.25999999 150 16 0
3.3099999 0.085000001 0.271 150 16 0
3.3169999 0.089000002 0.28200001 150 16 0
3.3180001 0.092 0.292 150 16 0
3.322 0.094999999 0.303 150 16 0
3.323 0.097999997 0.31299999 150 16 0
3.3280001 0.101 0.324 150 16 0
3.3310001 0.104 0.33500001 150 16 0
3.3310001 0.107 0.345 150 16 0
3.3369999 0.11 0.35699999 150 16 0
3.3299999 0.112 0.366 50 16 0
3.3099999 0.115 0.37400001 37 16 0
3.2880001 0.117 0.382 37 16 0
3.2709999 0.119 0.391 37 16 0
3.2509999 0.121 0.398 36 16 0
3.237 0.123 0.40700001 45 16 0
3.2190001 0.125 0.41499999 43 16 0
3.2 0.127 0.42300001 46 16 0
3.1849999 0.12899999 0.43099999 45 16 0
3.1659999 0.131 0.43799999 45 16 0
3.1500001 0.133 0.44600001 43 16 0
3.128 0.134 0.45300001 40 16 0
3.109 0.13600001 0.46000001 42 16 0
3.0910001 0.13699999 0.46700001 42 16 0
3.076 0.139 0.47499999 42 16 0
3.059 0.141 0.48199999 44 16 0
3.0380001 0.142 0.48800001 43 16 0
3.026 0.14399999 0.49599999 41 16 0
3.0079999 0.145 0.50300002 42 16 0
2.9949999 0.147 0.50999999 44 16 0
2.9790001 0.148 0.51700002 42 16 0
2.9649999 0.15000001 0.52399999 45 16 0
2.944 0.15099999 0.52999997 42 16 0
2.934 0.153 0.537 45 16 0
2.9200001 0.154 0.54400003 45 16 0
2.8959999 0.155 0.54900002 39 16 0
2.8859999 0.156 0.55699998 42 16 0
2.8729999 0.15800001 0.56400001 42 16 0
2.859 0.15899999 0.56999999 43 16 0
2.846 0.16 0.57700002 49 16 0
2.8310001 0.161 0.583 47 16 0
2.8169999 0.162 0.58899999 80 16 0
2.803 0.163 0.59500003 105 16 0
2.7880001 0.164 0.60100001 133 16 0
2.7709999 0.16500001 0.60699999 94 16 0
2.76 0.16599999 0.61299998 95 16 0
2.75 0.168 0.62 103 16 0
2.7309999 0.168 0.625 95 16 0
2.721 0.169 0.63099998 99 16 0
2.7119999 0.17 0.63800001 107 16 0
2.6930001 0.171 0.64200002 105 16 0
2.684 0.17200001 0.64899999 102 16 0
2.6730001 0.17299999 0.65499997 112 16 0
2.6600001 0.17399999 0.66100001 103 16 0
2.6459999 0.17399999 0.66600001 105 16 0
2.6329999 0.175 0.67199999 117 16 0
2.625 0.176 0.67799997 116 16 0
2.618 0.177 0.685 114 16 0
2.5929999 0.177 0.68699998 120 19 0
2.5840001 0.177 0.69300002 118 16 0
2.5710001 0.178 0.69800001 114 16 0
2.559 0.178 0.704 126 16 0
2.549 0.17900001 0.70899999 117 16 0
2.5339999 0.17900001 0.713 111 16 0
2.526 0.18000001 0.71899998 126 16 0
2.51 0.18000001 0.72299999 119 16 0
2.5050001 0.18099999 0.73000002 122 16 0
2.4890001 0.18099999 0.73400003 125 16 0
2.4779999 0.18099999 0.73900002 116 16 0
2.4649999 0.18099999 0.74299997 107 16 0
2.4549999 0.182 0.74900001 135 16 0
2.4449999 0.182 0.75400001 138 16 0
2.431 0.182 0.75800002 138 16 0
2.4219999 0.183 0.76300001 128 16 0
2.4119999 0.183 0.76800001 136 16 0
2.405 0.183 0.77399999 137 16 0
2.395 0.183 0.77899998 145 16 0
2.3840001 0.184 0.78299999 136 16 0
2.3789999 0.184 0.79000002 120 16 0
2.3659999 0.184 0.79299998 102 16 0
2.3529999 0.184 0.79699999 68 16 0
2.3469999 0.184 0.80299997 91 16 0
2.3369999 0.184 0.80699998 112 16 0
2.322 0.184 0.81 124 16 0
2.3150001 0.184 0.815 137 16 0
2.3010001 0.184 0.81800002 134 16 0
2.2880001 0.183 0.82099998 150 16 0
2.2809999 0.183 0.82700002 150 16 0
2.2739999 0.183 0.83200002 150 16 0
2.2620001 0.183 0.83499998 150 16 0
2.2550001 0.183 0.83999997 150 16 0
2.2420001 0.182 0.84299999 150 16 0
2.2360001 0.183 0.84799999 150 16 0
2.2260001 0.182 0.852 150 16 0
2.214 0.182 0.85500002 150 16 0
2.2090001 0.182 0.86000001 150 16 0
2.197 0.18099999 0.86299998 150 16 0
2.1860001 0.18099999 0.866 150 16 0
2.1760001 0.18000001 0.87 150 16 0
2.1700001 0.18000001 0.875 150 16 0
2.1619999 0.18000001 0.87900001 150 16 0
2.1530001 0.17900001 0.88300002 150 16 0
2.145 0.17900001 0.88700002 150 16 0
2.138 0.178 0.89099997 150 16 0
2.1270001 0.178 0.89399999 150 16 0
2.1159999 0.177 0.89700001 150 16 0
2.1140001 0.177 0.903 150 16 0
2.1010001 0.176 0.90399998 150 16 0
2.096 0.176 0.90899998 150 16 0
2.0880001 0.175 0.91299999 150 16 0
2.082 0.175 0.91799998 150 16 0
2.073 0.17399999 0.921 150 16 0
2.069 0.17399999 0.926 150 16 0
2.0569999 0.17200001 0.92699999 150 16 0
2.049 0.17200001 0.93099999 150 16 0
2.0409999 0.171 0.93400002 150 16 0
2.0380001 0.17 0.93900001 150 16 0
2.03 0.17 0.94199997 150 16 0
2.0190001 0.169 0.94400001 150 16 0
2.0109999 0.168 0.94700003 150 16 0
1.998 0.16599999 0.94800001 150 16 0
1.992 0.16599999 0.95200002 150 16 0
1.985 0.16500001 0.95499998 150 16 0
1.98 0.164 0.95899999 150 16 0
1.976 0.163 0.96399999 150 16 0
1.962 0.162 0.963 150 16 0
1.957 0.161 0.96799999 150 16 0
1.9529999 0.16 0.972 150 16 0
1.946 0.15899999 0.97500002 150 16 0
1.937 0.15800001 0.977 150 16 0
1.9299999 0.15700001 0.98000002 150 16 0
1.921 0.156 0.98199999 150 16 0
1.915 0.155 0.98500001 150 16 0
1.909 0.153 0.98699999 150 16 0
1.903 0.152 0.991 150 16 0
1.897 0.15099999 0.99400002 150 16 0
1.888 0.15000001 0.995 150 16 0
1.885 0.149 1 150 16 0
1.878 0.148 1.002 150 16 0
1.8660001 0.146 1.001 150 16 0
1.8609999 0.145 1.005 150 16 0
1.857 0.14399999 1.0089999 150 16 0
1.849 0.142 1.01 150 16 0
1.844 0.141 1.013 150 16 0
1.839 0.14 1.016 150 16 0
1.835 0.138 1.0190001 150 16 0
1.8279999 0.13699999 1.021 150 16 0
1.822 0.13600001 1.024 150 16 0
1.8150001 0.134 1.026 150 16 0
1.808 0.132 1.027 150 16 0
1.8049999 0.131 1.03 150 16 0
1.796 0.13 1.031 150 16 0
1.793 0.12800001 1.035 150 16 0
1.789 0.127 1.038 150 16 0
1.77 0.124 1.0319999 150 18 0
1.765 0.123 1.034 150 16 0
1.763 0.121 1.038 150 16 0
1.757 0.12 1.04 150 16 0
1.755 0.118 1.043 150 16 0
1.753 0.117 1.0470001 150 16 0
1.748 0.115 1.049 150 16 0
1.742 0.114 1.05 150 16 0
1.74 0.112 1.054 150 16 0
1.734 0.11 1.0549999 150 16 0
1.732 0.109 1.058 150 16 0
1.726 0.107 1.0599999 150 16 0
1.723 0.105 1.063 150 16 0
1.717 0.103 1.063 150 16 0
1.71 0.102 1.063 150 16 0
1.706 0.1 1.066 150 16 0
1.7 0.097999997 1.066 150 16 0
1.698 0.096000001 1.069 150 16 0
1.697 0.094999999 1.072 150 16 0
1.6900001 0.092 1.072 150 16 0
1.687 0.090999998 1.075 150 16 0
1.682 0.089000002 1.075 150 16 0
1.677 0.086999997 1.076 150 16 0
1.675 0.085000001 1.079 150 16 0
1.673 0.082999997 1.082 150 16 0
1.6720001 0.081 1.084 150 16 0
1.668 0.079000004 1.085 150 16 0
1.664 0.078000002 1.087 150 16 0
1.661 0.075999998 1.0880001 150 16 0
1.66 0.074000001 1.091 150 16 0
1.656 0.071999997 1.091 150 16 0
1.647 0.068999998 1.089 150 16 0
1.652 0.068000004 1.096 150 16 0
1.642 0.064999998 1.092 150 16 0
1.638 0.063000001 1.0930001 150 16 0
1.6390001 0.061000001 1.097 150 16 0
1.632 0.059 1.095 150 16 0
1.631 0.057 1.097 150 16 0
1.627 0.055 1.097 150 16 0
1.626 0.052999999 1.099 150 16 0
1.623 0.050999999 1.1 150 16 0
1.622 0.048999999 1.102 150 16 0
1.6210001 0.046999998 1.103 150 16 0
1.618 0.045000002 1.104 150 16 0
1.615 0.043000001 1.104 150 16 0
1.614 0.041000001 1.1059999 150 16 0
1.608 0.037999999 1.104 150 16 0
1.6109999 0.035999998 1.108 150 16 0
1.607 0.034000002 1.107 150 16 0
1.6059999 0.032000002 1.108 150 16 0
1.6059999 0.029999999 1.1109999 150 16 0
1.604 0.028000001 1.1109999 150 16 0
1.6 0.025 1.11 150 16 0
1.602 0.023 1.113 150 16 0
1.601 0.021 1.114 150 16 0
1.599 0.018999999 1.113 150 16 0
1.598 0.017000001 1.114 150 16 0
1.597 0.014 1.115 150 16 0
1.596 0.012 1.115 150 16 0
1.596 0.0099999998 1.1160001 150 16 0
1.592 0.0080000004 1.115 150 16 0
1.596 0.0049999999 1.119 150 16 0
1.598 0.003 1.12 142 16 0
1.597 0.001 1.1210001 145 16 0
1.597 0 1.1210001 139 16 0
1.597 -0.003 1.122 147 16 0
1.596 -0.0049999999 1.122 150 16 0
1.595 -0.0070000002 1.1210001 150 16 0
1.592 -0.0089999996 1.12 150 16 0
1.59 -0.012 1.119 150 16 0
1.592 -0.014 1.12 150 16 0
1.59 -0.016000001 1.119 150 16 0
1.5880001 -0.017999999 1.118 150 16 0
1.589 -0.021 1.117 150 16 0
1.589 -0.023 1.117 150 16 0
1.59 -0.025 1.118 150 16 0
1.59 -0.027000001 1.117 150 16 0
1.5880001 -0.029999999 1.1160001 150 16 0
1.592 -0.032000002 1.118 150 16 0
1.59 -0.034000002 1.1160001 150 16 0
1.592 -0.035999998 1.117 150 16 0
1.591 -0.039000001 1.115 150 16 0
1.5930001 -0.041000001 1.1160001 150 16 0
1.594 -0.043000001 1.115 150 16 0
1.594 -0.045000002 1.114 150 16 0
1.595 -0.046999998 1.113 150 16 0
1.597 -0.050000001 1.114 150 16 0
1.596 -0.052000001 1.1109999 150 16 0
1.596 -0.054000001 1.11 150 16 0
1.602 -0.056000002 1.113 150 16 0
1.603 -0.057999998 1.112 150 16 0
1.605 -0.061000001 1.112 150 16 0
1.607 -0.063000001 1.112 150 16 0
1.607 -0.064999998 1.109 150 16 0
1.609 -0.067000002 1.109 150 16 0
1.61 -0.068999998 1.107 150 16 0
1.6109999 -0.071000002 1.1059999 150 16 0
1.615 -0.074000001 1.107 150 16 0
1.618 -0.075999998 1.1059999 150 16 0
1.6210001 -0.078000002 1.1059999 150 16 0
1.624 -0.079999998 1.1059999 150 16 0
1.631 -0.082000002 1.108 150 16 0
1.637 -0.085000001 1.109 150 16 0
1.635 -0.086999997 1.105 141 16 0
1.6390001 -0.089000002 1.105 138 16 0
1.642 -0.090999998 1.105 138 16 0
1.645 -0.093000002 1.104 150 16 0
1.646 -0.094999999 1.102 150 16 0
1.649 -0.097000003 1.101 150 16 0
1.65 -0.098999999 1.098 150 16 0
1.651 -0.101 1.095 150 16 0
1.655 -0.103 1.095 150 16 0
1.6569999 -0.105 1.092 150 16 0
1.661 -0.107 1.092 150 16 0
1.6619999 -0.109 1.089 150 16 0
1.665 -0.11 1.087 150 16 0
1.669 -0.112 1.086 150 16 0
1.67 -0.114 1.0829999 150 16 0
1.675 -0.116 1.0829999 150 16 0
1.678 -0.118 1.081 150 16 0
1.683 -0.12 1.08 150 16 0
1.6849999 -0.122 1.077 150 16 0
1.687 -0.123 1.075 150 16 0
1.694 -0.125 1.075 150 16 0
1.698 -0.127 1.074 150 16 0
1.7029999 -0.12899999 1.072 150 16 0
1.709 -0.131 1.072 150 16 0
1.711 -0.133 1.068 150 16 0
1.721 -0.13500001 1.0700001 150 16 0
1.72 -0.13600001 1.0650001 150 16 0
1.726 -0.138 1.064 150 16 0
1.729 -0.139 1.061 150 16 0
1.734 -0.141 1.0599999 150 16 0
1.7359999 -0.14300001 1.057 150 16 0
1.744 -0.145 1.057 150 16 0
1.7460001 -0.146 1.053 150 16 0
1.748 -0.147 1.049 150 16 0
1.753 -0.149 1.0470001 150 16 0
1.755 -0.15000001 1.043 150 16 0
1.757 -0.152 1.04 150 16 0
1.7640001 -0.153 1.038 150 16 0
1.779 -0.156 1.0420001 150 19 0
1.785 -0.15700001 1.041 150 16 0
1.79 -0.15899999 1.038 150 16 0
1.796 -0.16 1.036 150 16 0
1.8 -0.162 1.033 150 16 0
1.809 -0.163 1.033 150 16 0
1.813 -0.16500001 1.03 150 16 0
1.817 -0.16599999 1.026 150 16 0
1.826 -0.168 1.026 150 16 0
1.832 -0.169 1.024 150 16 0
1.836 -0.17 1.02 150 16 0
1.841 -0.171 1.017 150 16 0
1.848 -0.17299999 1.015 150 16 0
1.851 -0.17399999 1.011 150 16 0
1.859 -0.175 1.0089999 150 16 0
1.865 -0.176 1.007 150 16 0
1.872 -0.178 1.005 150 16 0
1.882 -0.17900001 1.0039999 150 16 0
1.8839999 -0.18000001 0.99900001 150 16 0
1.895 -0.182 0.99900001 150 16 0
1.899 -0.182 0.995 150 16 0
1.9069999 -0.184 0.99299997 150 16 0
1.918 -0.185 0.99199998 150 16 0
1.921 -0.186 0.98799998 150 16 0
1.926 -0.18700001 0.98400003 150 16 0
1.932 -0.18799999 0.98000002 150 16 0
1.942 -0.189 0.97899997 150 16 0
1.948 -0.19 0.97600001 150 16 0
1.955 -0.191 0.97299999 144 16 0
1.966 -0.192 0.972 150 16 0
1.969 -0.193 0.96700001 150 16 0
1.974 -0.193 0.963 150 16 0
1.984 -0.19499999 0.96100003 150 16 0
1.99 -0.19499999 0.95700002 150 16 0
1.995 -0.19599999 0.95300001 150 16 0
2.007 -0.197 0.95200002 150 16 0
2.016 -0.198 0.94999999 149 16 0
2.0280001 -0.199 0.94800001 143 16 0
2.0380001 -0.2 0.94599998 142 16 0
2.0439999 -0.20100001 0.94199997 150 16 0
2.046 -0.20100001 0.93599999 150 16 0
2.0569999 -0.20200001 0.93400002 146 16 0
2.066 -0.20299999 0.93099999 150 16 0
2.073 -0.20299999 0.92699999 147 16 0
2.0829999 -0.204 0.92500001 138 16 0
2.0880001 -0.204 0.92000002 134 16 0
2.0969999 -0.205 0.917 150 16 0
2.1040001 -0.205 0.912 150 16 0
2.1129999 -0.206 0.90899998 140 16 0
2.1170001 -0.206 0.90399998 140 16 0
2.1300001 -0.207 0.90200001 144 16 0
2.1400001 -0.208 0.89899999 141 16 0
2.1429999 -0.208 0.89300001 134 16 0
2.151 -0.208 0.889 132 16 0
2.1600001 -0.208 0.88599998 150 16 0
2.1700001 -0.20900001 0.88200003 130 16 0
2.1800001 -0.20900001 0.87900001 137 16 0
2.1900001 -0.20999999 0.875 124 16 0
2.198 -0.20999999 0.87099999 135 16 0
2.207 -0.20999999 0.86699998 131 16 0
2.211 -0.20999999 0.861 123 16 0
2.221 -0.20999999 0.85799998 114 16 0
2.2379999 -0.211 0.85699999 118 16 0
2.243 -0.211 0.85100001 133 16 0
2.2509999 -0.211 0.84600002 134 16 0
2.2639999 -0.211 0.84399998 126 16 0
2.2709999 -0.211 0.83899999 86 16 0
2.2850001 -0.211 0.83600003 85 16 0
2.293 -0.211 0.83099997 88 16 0
2.3010001 -0.211 0.82599998 86 16 0
2.3150001 -0.212 0.82300001 79 16 0
2.3280001 -0.212 0.81999999 78 16 0
2.3329999 -0.211 0.81400001 84 16 0
2.342 -0.211 0.80900002 83 16 0
2.3559999 -0.211 0.80599999 95 16 0
2.362 -0.211 0.80000001 82 16 0
2.3699999 -0.20999999 0.79500002 81 16 0
2.3840001 -0.20999999 0.79100001 56 16 0
2.395 -0.20999999 0.787 62 16 0
2.398 -0.20900001 0.77999997 58 16 0
2.411 -0.20900001 0.77600002 62 16 0
2.4200001 -0.20900001 0.77100003 61 16 0
2.4349999 -0.20900001 0.76700002 55 16 0
2.4430001 -0.208 0.76200002 64 16 0
2.451 -0.208 0.75599998 56 16 0
2.4630001 -0.207 0.75199997 54 16 0
2.4790001 -0.207 0.74800003 58 16 0
2.4909999 -0.207 0.74400002 61 16 0
2.497 -0.206 0.73699999 56 16 0
