# .PCD v0.7 - Point Cloud Data file format
VERSION 0.7
FIELDS x y z intensity tag line
SIZE 4 4 4 4 1 1
TYPE F F F F U U
COUNT 1 1 1 1 1 1
WIDTH 1336
HEIGHT 1
VIEWPOINT 0 0 0 1 0 0 0
POINTS 1336
DATA ascii
2.2639999 1.395 -0.75 150 16 0
2.2690001 1.398 -0.74800003 150 16 0
2.267 1.397 -0.74299997 150 16 0
2.267 1.397 -0.74000001 150 16 0
2.2720001 1.4 -0.73799998 150 16 0
2.2739999 1.401 -0.73500001 150 16 0
2.27 1.398 -0.73000002 150 16 0
2.2739999 1.4 -0.727 150 16 0
2.2750001 1.4 -0.72399998 150 16 0
2.276 1.4 -0.72000003 150 16 0
2.279 1.401 -0.71700001 150 16 0
2.28 1.401 -0.713 139 16 0
2.2780001 1.398 -0.70899999 110 16 0
2.2850001 1.401 -0.70700002 68 16 0
2.286 1.401 -0.70300001 36 16 0
2.29 1.402 -0.69999999 28 16 0
2.293 1.402 -0.69700003 25 16 0
2.289 1.398 -0.69199997 25 16 0
2.29 1.397 -0.68699998 22 16 0
2.2969999 1.399 -0.685 22 16 0
2.2980001 1.398 -0.68099999 21 16 0
2.299 1.397 -0.67699999 28 16 0
2.3039999 1.397 -0.67400002 65 16 0
2.2969999 1.391 -0.66799998 124 16 0
2.3010001 1.391 -0.66399997 136 16 0
2.3050001 1.391 -0.66100001 150 16 0
2.306 1.3890001 -0.65700001 150 16 0
2.3080001 1.388 -0.653 150 16 0
2.3099999 1.386 -0.64899999 150 16 0
2.3139999 1.386 -0.64600003 137 16 0
2.3150001 1.383 -0.64099997 143 16 0
2.3180001 1.382 -0.63800001 150 16 0
2.3239999 1.383 -0.63499999 150 16 0
2.3239999 1.3789999 -0.63 150 16 0
2.329 1.3789999 -0.62699997 150 16 0
2.329 1.375 -0.62199998 150 16 0
2.3310001 1.373 -0.61799997 150 16 0
2.3369999 1.373 -0.61500001 150 16 0
2.339 1.3710001 -0.611 150 16 0
2.3380001 1.3660001 -0.60600001 150 16 0
2.3440001 1.3660001 -0.60299999 150 16 0
2.3469999 1.363 -0.59799999 150 16 0
2.349 1.3609999 -0.59399998 150 16 0
2.352 1.358 -0.58999997 150 16 0
2.3570001 1.357 -0.58700001 150 16 0
2.359 1.353 -0.58200002 150 16 0
2.3610001 1.351 -0.57800001 150 16 0
2.3640001 1.348 -0.574 150 16 0
2.368 1.345 -0.56999999 150 16 0
2.3710001 1.342 -0.56599998 150 16 0
2.3740001 1.339 -0.56199998 150 16 0
2.3789999 1.337 -0.55900002 150 16 0
2.3870001 1.337 -0.55599999 120 16 0
2.3889999 1.3329999 -0.551 118 16 0
2.391 1.329 -0.54699999 91 16 0
2.398 1.3279999 -0.54400003 47 16 0
2.401 1.324 -0.53899997 63 16 0
2.404 1.3200001 -0.53500003 116 16 0
2.404 1.3150001 -0.53100002 124 16 0
2.4119999 1.314 -0.52700001 28 16 0
2.415 1.3099999 -0.523 7 16 0
2.4159999 1.3049999 -0.51899999 3 16 0
2.4170001 1.3 -0.514 4 16 0
2.424 1.298 -0.51099998 3 16 0
2.4330001 1.2970001 -0.50800002 12 16 0
2.434 1.2920001 -0.50300002 34 16 0
2.4349999 1.2869999 -0.49900001 150 16 0
2.4430001 1.285 -0.49599999 150 16 0
2.438 1.276 -0.49000001 150 16 0
2.441 1.272 -0.486 150 16 0
2.444 1.267 -0.48199999 150 16 0
2.4560001 1.267 -0.479 150 16 0
2.4590001 1.262 -0.47499999 150 16 0
2.4619999 1.257 -0.47099999 150 16 0
2.473 1.257 -0.46799999 150 16 0
2.4760001 1.252 -0.46399999 150 16 0
2.4790001 1.247 -0.46000001 150 16 0
2.4820001 1.242 -0.456 150 16 0
2.4849999 1.237 -0.45199999 150 16 0
2.4890001 1.232 -0.44800001 150 16 0
2.4879999 1.225 -0.44299999 150 16 0
2.4949999 1.221 -0.44 150 16 0
2.4979999 1.216 -0.43599999 150 16 0
2.5020001 1.211 -0.43200001 150 16 0
2.507 1.207 -0.428 150 16 0
2.5139999 1.2029999 -0.42500001 150 16 0
2.5150001 1.196 -0.421 150 16 0
2.5209999 1.192 -0.417 150 16 0
2.5239999 1.187 -0.41299999 150 16 0
2.529 1.182 -0.41 150 16 0
2.5320001 1.176 -0.40599999 150 16 0
2.536 1.171 -0.40200001 150 16 0
2.54 1.166 -0.398 150 16 0
2.546 1.161 -0.39399999 150 16 0
2.549 1.155 -0.391 150 16 0
2.5539999 1.15 -0.38699999 150 16 0
2.5599999 1.145 -0.38299999 150 16 0
2.5680001 1.141 -0.38 150 16 0
2.566 1.133 -0.37599999 150 16 0
2.5739999 1.1289999 -0.373 150 16 0
2.579 1.123 -0.36899999 150 16 0
2.5810001 1.1160001 -0.36500001 150 16 0
2.5880001 1.1109999 -0.36199999 150 16 0
2.5929999 1.1059999 -0.35800001 150 16 0
2.598 1.1 -0.35499999 150 16 0
2.6010001 1.094 -0.35100001 150 16 0
2.6059999 1.0880001 -0.347 150 16 0
2.6129999 1.0829999 -0.34400001 150 16 0
2.6170001 1.077 -0.34099999 150 16 0
2.6170001 1.069 -0.33700001 150 16 0
2.6229999 1.064 -0.333 150 16 0
2.6259999 1.057 -0.33000001 150 16 0
2.6329999 1.052 -0.32699999 150 16 0
2.6400001 1.046 -0.32300001 150 16 0
2.6429999 1.04 -0.31999999 150 16 0
2.6459999 1.033 -0.31600001 150 16 0
2.651 1.027 -0.31299999 150 16 0
2.654 1.02 -0.30899999 150 16 0
2.661 1.0140001 -0.30599999 150 16 0
2.6689999 1.0089999 -0.303 150 16 0
2.674 1.002 -0.30000001 150 16 0
2.677 0.995 -0.296 150 16 0
2.6849999 0.99000001 -0.29300001 150 16 0
2.6830001 0.98100001 -0.289 150 16 0
2.6930001 0.97600001 -0.287 150 16 0
2.717 0.97600001 -0.285 67 16 0
2.7060001 0.96399999 -0.28 95 16 0
2.704 0.95499998 -0.27700001 150 16 0
2.714 0.94999999 -0.27399999 150 16 0
2.717 0.94199997 -0.27000001 150 16 0
2.724 0.93599999 -0.26699999 150 16 0
2.7249999 0.92799997 -0.264 150 16 0
2.727 0.92000002 -0.25999999 150 16 0
2.737 0.91500002 -0.25799999 150 16 0
2.7420001 0.90799999 -0.25400001 150 16 0
2.747 0.90100002 -0.252 150 16 0
2.75 0.89399999 -0.248 150 16 0
2.753 0.88599998 -0.245 150 16 0
2.763 0.88099998 -0.242 150 16 0
2.766 0.87300003 -0.23899999 150 16 0
2.776 0.86699998 -0.236 150 16 0
2.779 0.85900003 -0.233 150 16 0
2.7820001 0.85100001 -0.23 150 16 0
2.7880001 0.84500003 -0.227 150 16 0
2.793 0.83700001 -0.22400001 150 16 0
2.796 0.829 -0.221 150 16 0
2.8050001 0.82300001 -0.21799999 150 16 0
2.809 0.815 -0.215 150 16 0
2.8150001 0.80800003 -0.212 150 16 0
2.8180001 0.80000001 -0.20900001 150 16 0
2.8239999 0.79299998 -0.207 150 16 0
2.829 0.78500003 -0.204 150 16 0
2.8329999 0.77700001 -0.20100001 150 16 0
2.8399999 0.76999998 -0.198 150 16 0
2.8440001 0.76200002 -0.19499999 150 16 0
2.849 0.755 -0.192 150 16 0
2.8529999 0.74699998 -0.189 150 16 0
2.8599999 0.74000001 -0.18700001 150 16 0
2.865 0.73199999 -0.184 150 16 0
2.868 0.72299999 -0.18099999 150 16 0
2.8699999 0.71499997 -0.178 150 16 0
2.8729999 0.70599997 -0.175 150 16 0
2.8859999 0.69999999 -0.17299999 150 16 0
2.8940001 0.69300002 -0.17 150 16 0
2.8970001 0.685 -0.168 150 16 0
2.904 0.67699999 -0.16500001 150 16 0
2.9089999 0.66900003 -0.162 150 16 0
2.9170001 0.66100001 -0.16 150 16 0
2.921 0.653 -0.15700001 150 16 0
2.925 0.64499998 -0.154 150 16 0
2.9349999 0.63800001 -0.152 150 16 0
2.938 0.62900001 -0.149 150 16 0
2.9400001 0.62 -0.146 147 16 0
2.9449999 0.61199999 -0.14399999 150 16 0
2.9530001 0.60399997 -0.141 146 16 0
2.9630001 0.597 -0.139 150 16 0
2.964 0.58700001 -0.13600001 136 16 0
2.9660001 0.57800001 -0.134 150 16 0
2.974 0.57099998 -0.131 139 16 0
2.983 0.56300002 -0.12899999 137 16 0
2.983 0.55299997 -0.126 131 16 0
2.994 0.546 -0.124 139 16 0
2.993 0.53600001 -0.121 150 16 0
3.003 0.528 -0.119 133 16 0
3.0079999 0.51999998 -0.116 135 16 0
3.013 0.51099998 -0.114 139 16 0
3.017 0.50199997 -0.111 143 16 0
3.027 0.49399999 -0.109 141 16 0
3.03 0.48500001 -0.107 123 16 0
3.039 0.477 -0.104 140 16 0
3.0439999 0.46799999 -0.102 122 16 0
3.05 0.45899999 -0.098999999 130 16 0
3.05 0.449 -0.097000003 136 16 0
3.0550001 0.44100001 -0.094999999 136 16 0
3.0650001 0.43200001 -0.092 128 16 0
3.0710001 0.42300001 -0.090000004 135 16 0
3.0769999 0.414 -0.088 127 16 0
3.086 0.40599999 -0.086000003 129 16 0
3.0929999 0.39700001 -0.082999997 131 16 0
3.096 0.38699999 -0.081 96 16 0
3.099 0.37799999 -0.079000004 125 16 0
3.1070001 0.36899999 -0.075999998 121 16 0
3.1159999 0.36000001 -0.074000001 104 16 0
3.1199999 0.35100001 -0.071999997 93 16 0
3.1240001 0.34099999 -0.07 107 16 0
3.1340001 0.33199999 -0.067000002 113 16 0
3.142 0.32300001 -0.064999998 108 16 0
3.1459999 0.31400001 -0.063000001 80 16 0
3.1530001 0.30399999 -0.061000001 113 16 0
3.1600001 0.29499999 -0.059 109 16 0
3.1619999 0.285 -0.057 93 16 0
3.171 0.27599999 -0.054000001 100 16 0
3.1800001 0.26699999 -0.052000001 118 16 0
3.1830001 0.257 -0.050000001 103 16 0
3.1900001 0.24699999 -0.048 89 16 0
3.1960001 0.23800001 -0.046 96 16 0
3.2030001 0.228 -0.044 99 16 0
3.214 0.21799999 -0.041999999 98 16 0
3.223 0.20900001 -0.039999999 113 16 0
3.2249999 0.199 -0.037999999 97 16 0
3.234 0.189 -0.035999998 95 16 0
3.2379999 0.17900001 -0.034000002 91 16 0
3.243 0.169 -0.030999999 103 16 0
3.2479999 0.15899999 -0.028999999 103 16 0
3.2539999 0.149 -0.027000001 99 16 0
3.253 0.138 -0.025 88 16 0
3.2720001 0.12899999 -0.023 91 16 0
3.2750001 0.118 -0.021 92 16 0
3.2739999 0.108 -0.018999999 86 16 0
3.2869999 0.097999997 -0.017000001 101 16 0
3.2920001 0.088 -0.016000001 91 16 0
3.293 0.077 -0.014 77 16 0
3.3050001 0.067000002 -0.012 67 16 0
3.306 0.056000002 -0.0099999998 45 16 0
3.313 0.046 -0.0080000004 78 16 0
3.319 0.035999998 -0.0060000001 79 16 0
3.329 0.025 -0.0040000002 36 16 0
3.302 0.014 -0.0020000001 20 16 0
3.2809999 0.0040000002 0 19 16 0
3.2620001 -0.0060000001 0.001 19 16 0
3.243 -0.016000001 0.0020000001 44 16 0
3.253 -0.026000001 0.0040000002 150 16 0
3.2609999 -0.037 0.0060000001 150 16 0
3.263 -0.046999998 0.0080000004 150 16 0
3.2690001 -0.057999998 0.0089999996 150 16 0
3.2720001 -0.068000004 0.011 84 16 0
3.2539999 -0.078000002 0.013 31 16 0
3.23 -0.088 0.014 30 16 0
3.2090001 -0.097999997 0.016000001 29 16 0
3.1900001 -0.108 0.017000001 30 16 0
3.1689999 -0.117 0.018999999 29 16 0
3.1500001 -0.126 0.02 29 16 0
3.1229999 -0.13500001 0.022 29 16 0
3.108 -0.145 0.023 28 16 0
3.089 -0.154 0.024 28 16 0
3.0650001 -0.162 0.025 28 16 0
3.0450001 -0.171 0.027000001 29 16 0
3.0280001 -0.18000001 0.028000001 28 16 0
3.0039999 -0.18799999 0.028999999 29 16 0
2.9909999 -0.197 0.029999999 28 16 0
2.97 -0.205 0.030999999 28 16 0
2.9519999 -0.213 0.032000002 28 16 0
2.937 -0.222 0.034000002 28 16 0
2.915 -0.229 0.034000002 29 16 0
2.8929999 -0.237 0.035 28 16 0
2.878 -0.245 0.035999998 29 16 0
2.865 -0.25299999 0.037 30 16 0
2.845 -0.25999999 0.037999999 29 16 0
2.8299999 -0.26800001 0.039000001 31 16 0
2.8110001 -0.27500001 0.039999999 30 16 0
2.799 -0.28299999 0.041000001 31 16 0
2.7780001 -0.28999999 0.041999999 31 16 0
2.7650001 -0.29800001 0.041999999 31 16 0
2.7520001 -0.30500001 0.043000001 31 16 0
2.737 -0.31299999 0.044 32 16 0
2.721 -0.31999999 0.045000002 35 16 0
2.7079999 -0.32699999 0.045000002 35 16 0
2.691 -0.33399999 0.046 36 16 0
2.677 -0.34099999 0.046999998 37 16 0
2.661 -0.347 0.046999998 43 16 0
2.6459999 -0.354 0.048 38 16 0
2.6359999 -0.361 0.048999999 40 16 0
2.6199999 -0.36700001 0.048999999 42 16 0
2.602 -0.373 0.050000001 42 16 0
2.589 -0.38 0.050000001 45 16 0
2.5780001 -0.38699999 0.050999999 46 16 0
2.5580001 -0.39199999 0.050999999 47 16 0
2.5450001 -0.398 0.050999999 54 16 0
2.5320001 -0.405 0.052000001 48 16 0
2.516 -0.41 0.052000001 61 16 0
2.5090001 -0.41800001 0.052999999 53 16 0
2.493 -0.42300001 0.052999999 66 16 0
2.477 -0.428 0.052999999 60 16 0
2.4690001 -0.435 0.054000001 67 16 0
2.4579999 -0.44100001 0.054000001 66 16 0
2.444 -0.447 0.054000001 67 16 0
2.434 -0.45300001 0.055 63 16 0
2.4170001 -0.458 0.055 59 16 0
2.4059999 -0.46399999 0.055 67 16 0
2.3929999 -0.46900001 0.055 63 16 0
2.3759999 -0.47400001 0.055 69 16 0
2.3699999 -0.47999999 0.056000002 68 16 0
2.3510001 -0.484 0.056000002 60 16 0
2.3380001 -0.48899999 0.056000002 65 16 0
2.329 -0.495 0.056000002 72 16 0
2.3180001 -0.50099999 0.056000002 66 16 0
2.3039999 -0.505 0.056000002 81 16 0
2.293 -0.50999999 0.056000002 91 16 0
2.2839999 -0.51599997 0.056000002 90 16 0
2.27 -0.51999998 0.056000002 84 16 0
2.257 -0.52499998 0.056000002 81 16 0
2.243 -0.52899998 0.056000002 87 16 0
2.24 -0.53600001 0.056000002 79 16 0
2.2249999 -0.54000002 0.056000002 92 16 0
2.2119999 -0.54400003 0.056000002 95 16 0
2.2030001 -0.54900002 0.056000002 98 16 0
2.1989999 -0.55500001 0.056000002 95 16 0
2.1860001 -0.55900002 0.056000002 101 16 0
2.175 -0.56400001 0.055 105 16 0
2.168 -0.56900001 0.055 110 16 0
2.1440001 -0.56999999 0.055 115 19 0
2.1389999 -0.57599998 0.055 102 16 0
2.131 -0.58099997 0.055 102 16 0
2.119 -0.58499998 0.054000001 115 16 0
2.1070001 -0.58899999 0.054000001 121 16 0
2.099 -0.59399998 0.054000001 117 16 0
2.0869999 -0.597 0.054000001 121 16 0
2.0780001 -0.602 0.052999999 116 16 0
2.0699999 -0.60600001 0.052999999 117 16 0
2.0580001 -0.61000001 0.052999999 126 16 0
2.0510001 -0.61400002 0.052000001 110 16 0
2.0369999 -0.61699998 0.052000001 132 16 0
2.0350001 -0.62400001 0.052000001 123 16 0
2.02 -0.62599999 0.050999999 125 16 0
2.0150001 -0.63099998 0.050999999 128 16 0
2.007 -0.63499999 0.050999999 131 16 0
1.995 -0.63800001 0.050000001 131 16 0
1.987 -0.64200002 0.050000001 139 16 0
1.978 -0.64600003 0.048999999 140 16 0
1.966 -0.64899999 0.048999999 136 16 0
1.9579999 -0.653 0.048 113 16 0
1.942 -0.65399998 0.048 131 16 0
1.9349999 -0.65799999 0.046999998 138 16 0
1.931 -0.66399997 0.046999998 142 16 0
1.923 -0.667 0.046 142 16 0
1.915 -0.671 0.046 150 16 0
1.911 -0.676 0.045000002 135 16 0
1.902 -0.67900002 0.045000002 150 16 0
1.89 -0.68099999 0.044 150 16 0
1.88 -0.68400002 0.043000001 150 16 0
1.872 -0.68800002 0.043000001 150 16 0
1.8660001 -0.69199997 0.041999999 150 16 0
1.862 -0.69700003 0.041000001 150 16 0
1.855 -0.69999999 0.041000001 150 16 0
1.841 -0.70099998 0.039999999 150 16 0
1.835 -0.70499998 0.039000001 150 16 0
1.824 -0.70700002 0.037999999 150 16 0
1.822 -0.713 0.037999999 150 16 0
1.813 -0.71499997 0.037 54 0 0
1.804 -0.71799999 0.035999998 57 0 0
1.804 -0.72399998 0.035999998 6 0 0
1.789 -0.72399998 0.035 51 0 0
1.783 -0.72799999 0.034000002 58 0 0
1.776 -0.73100001 0.033 68 0 0
1.773 -0.736 0.032000002 61 0 0
1.76 -0.736 0.030999999 60 0 0
1.755 -0.74000001 0.030999999 6 0 0
1.751 -0.74400002 0.029999999 63 0 0
1.744 -0.74699998 0.028999999 83 0 0
1.7359999 -0.75 0.028000001 84 0 0
1.73 -0.75300002 0.027000001 4 0 0
1.723 -0.75599998 0.026000001 75 0 0
1.7180001 -0.759 0.025 91 0 0
1.7079999 -0.75999999 0.024 98 0 0
1.697 -0.76099998 0.023 5 0 0
1.692 -0.76499999 0.022 81 0 0
1.6849999 -0.76700002 0.021 89 0 0
1.683 -0.77200001 0.02 74 0 0
1.674 -0.77399999 0.018999999 60 0 0
1.669 -0.77700001 0.017999999 75 0 0
1.6619999 -0.77899998 0.017000001 3 0 0
1.653 -0.77999997 0.016000001 80 0 0
1.651 -0.78500003 0.015 5 0 0
1.641 -0.78500003 0.014 88 0 0
1.6339999 -0.787 0.013 56 0 0
1.631 -0.79100001 0.012 2 0 0
1.625 -0.79400003 0.011 90 0 0
1.6210001 -0.79699999 0.0089999996 3 0 0
1.618 -0.801 0.0080000004 64 0 0
1.603 -0.79900002 0.0070000002 116 0 0
1.598 -0.801 0.0060000001 106 0 0
1.595 -0.80500001 0.0049999999 75 0 0
1.5880001 -0.80699998 0.003 2 0 0
1.586 -0.81099999 0.0020000001 75 0 0
1.58 -0.81300002 0.001 150 16 0
1.576 -0.81599998 0 96 0 0
1.569 -0.81699997 0 112 0 0
1.561 -0.81800002 -0.0020000001 102 0 0
1.558 -0.82099998 -0.003 83 0 0
1.556 -0.82499999 -0.0040000002 114 0 0
1.546 -0.82499999 -0.0060000001 59 0 0
1.541 -0.82700002 -0.0070000002 93 0 0
1.5369999 -0.829 -0.0080000004 78 0 0
1.535 -0.833 -0.0099999998 97 0 0
1.533 -0.83700001 -0.011 109 0 0
1.527 -0.838 -0.012 114 0 0
1.52 -0.83899999 -0.014 110 0 0
1.51 -0.838 -0.015 133 0 0
1.507 -0.84100002 -0.017000001 150 0 0
1.503 -0.84299999 -0.017999999 130 0 0
1.498 -0.84500003 -0.018999999 125 0 0
1.494 -0.847 -0.021 99 0 0
1.49 -0.84899998 -0.022 116 0 0
1.482 -0.84899998 -0.024 106 0 0
1.48 -0.852 -0.025 150 0 0
1.476 -0.85399997 -0.027000001 99 0 0
1.4680001 -0.85299999 -0.028000001 104 0 0
1.466 -0.85699999 -0.029999999 102 0 0
1.4630001 -0.85900003 -0.030999999 110 0 0
1.455 -0.85799998 -0.033 75 0 0
1.45 -0.85900003 -0.034000002 129 0 0
1.449 -0.86199999 -0.035999998 142 0 0
1.446 -0.86500001 -0.037999999 105 0 0
1.444 -0.86799997 -0.039000001 119 0 0
1.441 -0.86900002 -0.041000001 110 0 0
1.431 -0.86699998 -0.041999999 142 3 0
1.4299999 -0.87 -0.044 94 0 0
1.425 -0.87099999 -0.046 85 0 0
1.424 -0.87400001 -0.046999998 147 0 0
1.42 -0.875 -0.048999999 133 0 0
1.416 -0.87599999 -0.050999999 108 0 0
1.4119999 -0.87699997 -0.052000001 150 0 0
1.409 -0.87900001 -0.054000001 110 0 0
1.405 -0.88 -0.055 138 0 0
1.401 -0.88 -0.057 122 0 0
1.397 -0.88099998 -0.059 116 0 0
1.3940001 -0.88300002 -0.061000001 150 0 0
1.393 -0.88499999 -0.061999999 81 0 0
1.388 -0.88499999 -0.064000003 140 0 0
1.386 -0.88700002 -0.066 137 0 0
1.385 -0.889 -0.068000004 128 0 0
1.381 -0.88999999 -0.068999998 106 0 0
1.378 -0.89099997 -0.071000002 133 0 0
1.377 -0.89300001 -0.072999999 128 0 0
1.374 -0.89399999 -0.075000003 150 0 0
1.373 -0.89600003 -0.077 124 0 0
1.372 -0.898 -0.078000002 150 0 0
1.364 -0.89499998 -0.079999998 128 0 0
1.365 -0.898 -0.082000002 122 0 0
1.3609999 -0.898 -0.083999999 105 0 0
1.359 -0.89999998 -0.085000001 129 0 0
1.357 -0.89999998 -0.086999997 127 0 0
1.357 -0.903 -0.089000002 137 0 0
1.353 -0.90200001 -0.090999998 106 0 0
1.35 -0.90200001 -0.093000002 121 0 0
1.346 -0.90200001 -0.093999997 129 0 0
1.345 -0.903 -0.096000001 150 0 0
1.344 -0.90499997 -0.097999997 122 0 0
1.341 -0.90399998 -0.1 150 0 0
1.339 -0.90499997 -0.102 150 0 0
1.341 -0.90799999 -0.104 150 0 0
1.34 -0.90899998 -0.106 144 0 0
1.337 -0.90899998 -0.108 128 0 0
1.331 -0.90600002 -0.109 148 3 0
1.332 -0.90799999 -0.111 150 0 0
1.317 -0.89899999 -0.112 101 1 0
1.317 -0.90100002 -0.114 98 0 0
1.33 -0.91100001 -0.117 145 1 0
1.316 -0.903 -0.118 110 0 0
1.329 -0.912 -0.121 150 0 0
1.311 -0.90100002 -0.121 148 0 0
1.314 -0.90499997 -0.123 95 0 0
1.311 -0.90399998 -0.125 110 0 0
1.309 -0.903 -0.127 116 0 0
1.306 -0.90200001 -0.12899999 102 0 0
1.307 -0.903 -0.131 133 0 0
1.3049999 -0.90200001 -0.132 124 0 0
1.3049999 -0.903 -0.134 131 0 0
1.308 -0.90600002 -0.13699999 150 0 0
1.306 -0.90499997 -0.138 122 0 0
1.306 -0.90499997 -0.14 116 0 0
1.303 -0.90399998 -0.142 117 0 0
1.303 -0.90399998 -0.14399999 136 0 0
1.303 -0.90399998 -0.146 150 0 0
1.303 -0.90399998 -0.148 124 0 0
1.303 -0.90399998 -0.149 137 0 0
1.302 -0.903 -0.15099999 124 0 0
1.3049999 -0.90499997 -0.153 115 0 0
1.302 -0.903 -0.155 131 0 0
1.3049999 -0.90399998 -0.15700001 101 0 0
1.302 -0.90200001 -0.15800001 123 0 0
1.301 -0.90100002 -0.16 117 0 0
1.302 -0.90200001 -0.162 135 0 0
1.298 -0.898 -0.163 111 3 0
1.304 -0.90200001 -0.16599999 122 0 0
1.303 -0.89999998 -0.167 127 0 0
1.299 -0.89700001 -0.169 131 3 0
1.303 -0.89899999 -0.171 101 0 0
1.3 -0.89600003 -0.17200001 133 0 0
1.3 -0.89499998 -0.17399999 137 0 0
1.306 -0.898 -0.176 143 3 0
1.304 -0.89499998 -0.178 150 0 0
1.306 -0.89600003 -0.18000001 118 0 0
1.302 -0.89200002 -0.18099999 146 0 0
1.307 -0.89399999 -0.183 142 0 0
1.308 -0.89300001 -0.185 150 0 0
1.308 -0.89200002 -0.186 130 0 0
1.309 -0.89099997 -0.18799999 146 0 0
1.309 -0.889 -0.19 127 0 0
1.323 -0.89700001 -0.193 150 1 0
1.326 -0.89700001 -0.19499999 150 0 0
1.325 -0.89399999 -0.19599999 150 0 0
1.325 -0.89300001 -0.198 150 0 0
1.329 -0.89399999 -0.2 150 0 0
1.329 -0.89200002 -0.20100001 150 0 0
1.331 -0.89099997 -0.20299999 150 0 0
1.331 -0.889 -0.204 150 0 0
1.332 -0.88800001 -0.206 150 0 0
1.3329999 -0.88599998 -0.207 150 0 0
1.336 -0.88499999 -0.20900001 150 0 0
1.335 -0.88300002 -0.20999999 150 0 0
1.3380001 -0.88200003 -0.212 150 0 0
1.342 -0.88200003 -0.214 150 0 0
1.344 -0.88099998 -0.215 150 0 0
1.345 -0.87900001 -0.21600001 150 0 0
1.346 -0.87699997 -0.21799999 150 0 0
1.35 -0.87699997 -0.219 150 0 0
1.35 -0.87400001 -0.22 150 0 0
1.351 -0.87199998 -0.222 150 0 0
1.36 -0.875 -0.22400001 150 3 0
1.359 -0.87099999 -0.22499999 150 0 0
1.363 -0.87099999 -0.227 150 0 0
1.364 -0.86799997 -0.228 150 0 0
1.367 -0.86699998 -0.229 150 0 0
1.369 -0.86500001 -0.23100001 150 0 0
1.373 -0.86500001 -0.23199999 150 0 0
1.375 -0.86199999 -0.233 150 0 0
1.378 -0.861 -0.235 150 0 0
1.3789999 -0.85799998 -0.236 150 0 0
1.381 -0.85600001 -0.237 150 0 0
1.382 -0.85299999 -0.23800001 150 0 0
1.387 -0.85299999 -0.23899999 150 0 0
1.391 -0.85100001 -0.241 150 0 0
1.39 -0.84799999 -0.241 150 0 0
1.397 -0.84799999 -0.243 150 0 0
1.399 -0.84500003 -0.244 150 0 0
1.404 -0.84399998 -0.245 150 0 0
1.405 -0.84200001 -0.24600001 150 0 0
1.4119999 -0.84200001 -0.248 150 0 0
1.416 -0.83999997 -0.249 150 0 0
1.423 -0.83999997 -0.25099999 150 0 0
1.4220001 -0.83600003 -0.25099999 150 0 0
1.426 -0.83399999 -0.252 143 0 0
1.4299999 -0.833 -0.25299999 145 0 0
1.431 -0.829 -0.25400001 150 0 0
1.4349999 -0.82700002 -0.255 150 0 0
1.439 -0.82499999 -0.25600001 150 0 0
1.446 -0.82499999 -0.257 150 0 0
1.449 -0.82300001 -0.25799999 150 0 0
1.454 -0.82099998 -0.259 150 0 0
1.456 -0.81800002 -0.25999999 150 0 0
1.462 -0.81699997 -0.26100001 150 0 0
1.464 -0.81300002 -0.26100001 150 0 0
1.471 -0.81300002 -0.26300001 150 0 0
1.482 -0.81400001 -0.26499999 150 0 0
1.482 -0.81 -0.26499999 150 0 0
1.485 -0.80699998 -0.26499999 150 0 0
1.4910001 -0.80500001 -0.266 150 0 0
1.494 -0.80299997 -0.26699999 150 0 0
1.499 -0.80000001 -0.26699999 150 0 0
1.5039999 -0.79799998 -0.26800001 150 0 0
1.506 -0.79500002 -0.26899999 150 0 0
1.5140001 -0.79400003 -0.27000001 150 0 0
1.518 -0.79100001 -0.27000001 150 0 0
1.524 -0.78899997 -0.271 150 0 0
1.526 -0.78500003 -0.271 135 0 0
1.533 -0.78399998 -0.27200001 150 0 0
1.543 -0.78399998 -0.27399999 150 0 0
1.546 -0.78100002 -0.27399999 150 0 0
1.55 -0.778 -0.27399999 150 0 0
1.552 -0.77399999 -0.27399999 150 0 0
1.562 -0.77399999 -0.27500001 141 0 0
1.566 -0.77100003 -0.27599999 132 0 0
1.572 -0.76899999 -0.27599999 122 0 0
1.579 -0.76700002 -0.27700001 117 0 0
1.584 -0.764 -0.27700001 134 0 0
1.589 -0.76099998 -0.27700001 118 0 0
1.5930001 -0.75800002 -0.278 98 0 0
1.597 -0.755 -0.278 150 0 0
1.604 -0.75199997 -0.278 105 0 0
1.607 -0.74900001 -0.278 150 0 0
1.6109999 -0.745 -0.278 150 0 0
1.623 -0.74599999 -0.27900001 116 0 0
1.626 -0.74199998 -0.27900001 110 0 0
1.635 -0.74000001 -0.28 116 0 0
1.641 -0.73799998 -0.28 114 0 0
1.649 -0.73500001 -0.28099999 126 0 0
1.654 -0.73199999 -0.28099999 106 0 0
1.66 -0.72899997 -0.28099999 138 0 0
1.6670001 -0.727 -0.28099999 118 0 0
1.67 -0.72299999 -0.28 96 0 0
1.6799999 -0.722 -0.28099999 94 0 0
1.689 -0.72000003 -0.28200001 102 0 0
1.694 -0.71600002 -0.28099999 100 0 0
1.696 -0.71100003 -0.28099999 76 0 0
1.705 -0.70899999 -0.28099999 85 0 0
1.707 -0.70499998 -0.28 79 0 0
1.724 -0.70599997 -0.28200001 82 3 0
1.733 -0.704 -0.28200001 87 0 0
1.7359999 -0.699 -0.28200001 67 0 0
1.74 -0.69499999 -0.28099999 75 0 0
1.75 -0.69300002 -0.28099999 84 0 0
1.755 -0.68900001 -0.28099999 80 0 0
1.7589999 -0.685 -0.28 1 0 0
1.761 -0.68000001 -0.27900001 75 0 0
1.774 -0.67900002 -0.28 53 0 0
1.78 -0.67500001 -0.27900001 1 0 0
1.788 -0.67199999 -0.27900001 66 0 0
1.794 -0.66900003 -0.27900001 2 0 0
1.807 -0.66799998 -0.27900001 1 0 0
1.812 -0.66299999 -0.278 45 0 0
1.816 -0.65899998 -0.278 62 0 0
1.822 -0.65499997 -0.27700001 1 0 0
1.835 -0.65399998 -0.27700001 1 0 0
1.846 -0.65200001 -0.27700001 1 0 0
1.852 -0.648 -0.27700001 150 16 0
1.859 -0.64399999 -0.27599999 150 16 0
1.868 -0.64099997 -0.27599999 150 16 0
1.872 -0.63599998 -0.27500001 1 0 0
1.8839999 -0.634 -0.27500001 1 0 0
1.892 -0.63099998 -0.27399999 132 16 0
1.904 -0.62800002 -0.27399999 1 0 0
1.9069999 -0.62300003 -0.273 129 16 0
1.9170001 -0.62 -0.27200001 142 16 0
1.92 -0.61500001 -0.271 136 16 0
1.929 -0.611 -0.27000001 128 16 0
1.936 -0.60699999 -0.26899999 121 16 0
1.9529999 -0.60600001 -0.27000001 137 16 0
1.959 -0.602 -0.26800001 122 16 0
1.965 -0.597 -0.26699999 128 16 0
1.978 -0.59500003 -0.26699999 119 16 0
1.987 -0.59100002 -0.266 117 16 0
1.997 -0.588 -0.26499999 128 16 0
2.0039999 -0.583 -0.264 128 16 0
2.0120001 -0.579 -0.26300001 122 16 0
2.02 -0.57499999 -0.26199999 104 16 0
2.0320001 -0.57200003 -0.26100001 120 16 0
2.0420001 -0.56800002 -0.25999999 117 16 0
2.0480001 -0.56300002 -0.259 106 16 0
2.0599999 -0.56 -0.25799999 109 16 0
2.073 -0.55699998 -0.25799999 108 16 0
2.0810001 -0.55199999 -0.25600001 116 16 0
2.089 -0.54799998 -0.255 92 16 0
2.0929999 -0.542 -0.25299999 104 16 0
2.108 -0.53899997 -0.252 93 16 0
2.1170001 -0.53500003 -0.25099999 101 16 0
2.1270001 -0.53100002 -0.25 101 16 0
2.1370001 -0.52700001 -0.248 95 16 0
2.148 -0.523 -0.24699999 94 16 0
2.1670001 -0.51999998 -0.24699999 97 16 0
2.177 -0.51599997 -0.245 99 16 0
2.1819999 -0.50999999 -0.243 87 16 0
2.197 -0.50700003 -0.242 96 16 0
2.2060001 -0.50199997 -0.241 83 16 0
2.2190001 -0.498 -0.23899999 85 16 0
2.2290001 -0.49399999 -0.23800001 86 16 0
2.2390001 -0.48899999 -0.236 81 16 0
2.243 -0.48300001 -0.234 78 16 0
2.2620001 -0.47999999 -0.233 79 16 0
2.2709999 -0.47499999 -0.23100001 81 16 0
2.279 -0.46900001 -0.229 77 16 0
2.296 -0.46599999 -0.228 80 16 0
2.3050001 -0.46000001 -0.226 68 16 0
2.3199999 -0.456 -0.22400001 55 16 0
2.3280001 -0.45100001 -0.222 57 16 0
2.335 -0.44499999 -0.22 53 16 0
2.352 -0.44100001 -0.219 54 16 0
2.369 -0.43700001 -0.21699999 44 16 0
2.3800001 -0.43200001 -0.215 53 16 0
2.3900001 -0.426 -0.213 49 16 0
2.401 -0.421 -0.211 46 16 0
2.415 -0.41600001 -0.20900001 52 16 0
2.425 -0.41 -0.206 52 16 0
2.4449999 -0.40599999 -0.205 60 16 0
2.4549999 -0.40000001 -0.20200001 49 16 0
2.4649999 -0.39500001 -0.2 48 16 0
2.477 -0.389 -0.198 48 16 0
2.4860001 -0.38299999 -0.19499999 43 16 0
2.5039999 -0.37799999 -0.193 42 16 0
2.517 -0.373 -0.191 44 16 0
2.5280001 -0.36700001 -0.18799999 41 16 0
2.5409999 -0.361 -0.186 36 16 0
2.563 -0.35699999 -0.184 39 16 0
2.5739999 -0.34999999 -0.18099999 34 16 0
2.585 -0.34400001 -0.178 35 16 0
2.599 -0.338 -0.175 34 16 0
2.6140001 -0.333 -0.17299999 35 16 0
2.6289999 -0.32699999 -0.17 35 16 0
2.6459999 -0.32100001 -0.168 35 16 0
2.6559999 -0.31400001 -0.164 33 16 0
2.6730001 -0.308 -0.162 31 16 0
2.6900001 -0.30199999 -0.15899999 35 16 0
2.707 -0.296 -0.156 33 16 0
2.7179999 -0.28999999 -0.153 32 16 0
2.7309999 -0.28299999 -0.15000001 29 16 0
2.7420001 -0.27599999 -0.146 29 16 0
2.7620001 -0.27000001 -0.14300001 28 16 0
2.7750001 -0.26300001 -0.14 28 16 0
2.7909999 -0.257 -0.13699999 29 16 0
2.8080001 -0.25 -0.134 29 16 0
2.826 -0.243 -0.13 27 16 0
2.8440001 -0.237 -0.127 27 16 0
2.862 -0.23 -0.124 26 16 0
2.875 -0.223 -0.12 27 16 0
2.892 -0.215 -0.116 28 16 0
2.911 -0.208 -0.113 28 16 0
2.931 -0.20100001 -0.109 27 16 0
2.948 -0.19400001 -0.105 26 16 0
2.964 -0.18700001 -0.102 26 16 0
2.983 -0.17900001 -0.097999997 27 16 0
3.0009999 -0.17200001 -0.093999997 25 16 0
3.0150001 -0.164 -0.090000004 25 16 0
3.0420001 -0.156 -0.086000003 26 16 0
3.0650001 -0.149 -0.082000002 26 16 0
3.085 -0.141 -0.078000002 26 16 0
3.1010001 -0.133 -0.072999999 26 16 0
3.1199999 -0.125 -0.068999998 26 16 0
3.141 -0.117 -0.064999998 28 16 0
3.1630001 -0.109 -0.059999999 27 16 0
3.187 -0.1 -0.056000002 27 16 0
3.2060001 -0.092 -0.050999999 27 16 0
3.227 -0.082999997 -0.046 28 16 0
3.2420001 -0.074000001 -0.041999999 37 16 0
3.256 -0.064999998 -0.037 150 16 0
3.2579999 -0.056000002 -0.030999999 150 16 0
3.253 -0.046999998 -0.026000001 143 16 0
3.25 -0.037999999 -0.021 141 16 0
3.2479999 -0.028999999 -0.016000001 150 16 0
3.2449999 -0.018999999 -0.011 50 16 0
3.25 -0.0099999998 -0.0060000001 22 16 0
3.277 -0.001 0 17 16 0
3.299 0.0070000002 0.0040000002 18 16 0
3.3180001 0.016000001 0.0089999996 20 16 0
3.3399999 0.026000001 0.015 38 16 0
3.3399999 0.035 0.02 66 16 0
3.3269999 0.044 0.025 58 16 0
3.3299999 0.054000001 0.030999999 44 16 0
3.3329999 0.063000001 0.035999998 40 16 0
3.3280001 0.071999997 0.041999999 34 16 0
3.3239999 0.082000002 0.046999998 15 16 0
3.325 0.090999998 0.052999999 17 16 0
3.316 0.1 0.057999998 46 16 0
3.3210001 0.109 0.064000003 48 16 0
3.3150001 0.118 0.068999998 51 16 0
3.2920001 0.127 0.074000001 95 16 0
3.26 0.134 0.079000004 115 16 0
3.2590001 0.14300001 0.083999999 114 16 0
3.2709999 0.153 0.090000004 121 16 0
3.2839999 0.163 0.096000001 131 16 0
3.296 0.17200001 0.102 75 16 0
3.296 0.182 0.108 46 16 0
3.283 0.19 0.113 38 16 0
3.2679999 0.198 0.118 35 16 0
3.2460001 0.206 0.123 30 16 0
3.2090001 0.212 0.127 25 16 0
3.1949999 0.22 0.132 25 16 0
3.211 0.23 0.138 31 16 0
3.2079999 0.23899999 0.14300001 34 16 0
3.1670001 0.244 0.147 26 18 0
3.174 0.25299999 0.153 35 16 0
3.1760001 0.26199999 0.15899999 90 16 0
3.171 0.271 0.164 150 16 0
3.1670001 0.27900001 0.169 150 16 0
3.1659999 0.287 0.175 150 16 0
3.1619999 0.296 0.18000001 150 16 0
3.1589999 0.30399999 0.186 150 16 0
3.1600001 0.31299999 0.192 150 16 0
3.158 0.32100001 0.197 150 16 0
3.1559999 0.33000001 0.20299999 150 16 0
3.1559999 0.338 0.208 150 16 0
3.151 0.34599999 0.214 150 16 0
3.152 0.35499999 0.22 150 16 0
3.152 0.36399999 0.22499999 150 16 0
3.1530001 0.37200001 0.23100001 150 16 0
3.1500001 0.38 0.237 150 16 0
3.1470001 0.389 0.242 150 16 0
3.1470001 0.39700001 0.248 150 16 0
3.1440001 0.405 0.25400001 150 16 0
3.135 0.412 0.259 150 16 0
3.1370001 0.421 0.26499999 150 16 0
3.141 0.43000001 0.271 150 16 0
3.1340001 0.43799999 0.27599999 150 16 0
3.1270001 0.44499999 0.28200001 150 16 0
3.1289999 0.454 0.28799999 150 16 0
3.1329999 0.463 0.294 150 16 0
3.122 0.47 0.29899999 150 16 0
3.1259999 0.479 0.30500001 150 16 0
3.1259999 0.48699999 0.31200001 150 16 0
3.1259999 0.495 0.317 150 16 0
3.1240001 0.50300002 0.32300001 150 16 0
3.122 0.51099998 0.329 150 16 0
3.1159999 0.51899999 0.33500001 150 16 0
3.118 0.52700001 0.34099999 150 16 0
3.1170001 0.53500003 0.347 150 16 0
3.115 0.54299998 0.35299999 150 16 0
3.1129999 0.551 0.359 150 16 0
3.112 0.56 0.36500001 150 16 0
3.108 0.56699997 0.37099999 150 16 0
3.1059999 0.57499999 0.377 150 16 0
3.1070001 0.583 0.38299999 150 16 0
3.102 0.59100002 0.38800001 150 16 0
3.102 0.59899998 0.39500001 150 16 0
3.1010001 0.60699999 0.40099999 150 16 0
3.098 0.61400002 0.40700001 150 16 0
3.0999999 0.62300003 0.41299999 150 16 0
3.098 0.63099998 0.41999999 150 16 0
3.0969999 0.639 0.426 150 16 0
3.0969999 0.64700001 0.43200001 150 16 0
3.092 0.65399998 0.43799999 150 16 0
3.092 0.662 0.44400001 150 16 0
3.0899999 0.67000002 0.44999999 150 16 0
3.0899999 0.67799997 0.45699999 150 16 0
3.085 0.685 0.463 150 16 0
3.0739999 0.69099998 0.46799999 72 16 0
3.066 0.69700003 0.47299999 50 16 0
3.049 0.70099998 0.477 43 16 0
3.0380001 0.70599997 0.48199999 43 16 0
3.033 0.713 0.48699999 45 16 0
3.02 0.71700001 0.49200001 43 16 0
3.0090001 0.72299999 0.49599999 41 16 0
2.993 0.727 0.5 42 16 0
2.9849999 0.73299998 0.50599998 42 16 0
2.974 0.73699999 0.50999999 41 16 0
2.9619999 0.74199998 0.514 42 16 0
2.9530001 0.74699998 0.51899999 43 16 0
2.9430001 0.75199997 0.52399999 42 16 0
2.9319999 0.75700003 0.52899998 43 16 0
2.9200001 0.76099998 0.53299999 42 16 0
2.914 0.76700002 0.53799999 44 16 0
2.9030001 0.77200001 0.54299998 43 16 0
2.8889999 0.77499998 0.54699999 45 16 0
2.8800001 0.77999997 0.55199999 44 16 0
2.8710001 0.78500003 0.55599999 44 16 0
2.862 0.79000002 0.56099999 44 16 0
2.8410001 0.79100001 0.56300002 44 16 0
2.832 0.796 0.56800002 46 16 0
2.8210001 0.79900002 0.57200003 45 16 0
2.8150001 0.80500001 0.57800001 44 16 0
2.8050001 0.80900002 0.58200002 55 16 0
2.7909999 0.81199998 0.58600003 50 16 0
2.7869999 0.81800002 0.59100002 44 16 0
2.7750001 0.82099998 0.59500003 45 16 0
2.7609999 0.82300001 0.59899998 51 16 0
2.7539999 0.82800001 0.60399997 50 16 0
2.74 0.83099997 0.60699999 54 16 0
2.7349999 0.83600003 0.61199999 54 16 0
2.7249999 0.83999997 0.61699998 72 16 0
2.7130001 0.84299999 0.62099999 81 16 0
2.707 0.847 0.62599999 79 16 0
2.6919999 0.84899998 0.62900001 82 16 0
2.688 0.85399997 0.634 73 16 0
2.6760001 0.85699999 0.63800001 78 16 0
2.6630001 0.85900003 0.64099997 81 16 0
2.6589999 0.86400002 0.64700001 83 16 0
2.6459999 0.866 0.64999998 76 16 0
2.635 0.86900002 0.65399998 84 16 0
2.6240001 0.87099999 0.65799999 89 16 0
2.6159999 0.875 0.662 83 16 0
2.6059999 0.87800002 0.66600001 82 16 0
2.5999999 0.88200003 0.671 81 16 0
2.5880001 0.884 0.67400002 81 16 0
2.5810001 0.88700002 0.67900002 86 16 0
2.5699999 0.889 0.68300003 84 16 0
2.5639999 0.89300001 0.68699998 81 16 0
2.5510001 0.89399999 0.69 83 16 0
2.543 0.89700001 0.69400001 83 16 0
2.533 0.89999998 0.69800001 96 16 0
2.523 0.90200001 0.70200002 91 16 0
2.5139999 0.90399998 0.70599997 94 16 0
2.5039999 0.90600002 0.70899999 87 16 0
2.5 0.91000003 0.71499997 88 16 0
2.49 0.912 0.71799999 91 16 0
2.484 0.91500002 0.72299999 87 16 0
2.4749999 0.917 0.72600001 89 16 0
2.4660001 0.91900003 0.73000002 103 16 0
2.457 0.921 0.73400003 93 16 0
2.451 0.92400002 0.73799998 92 16 0
2.4449999 0.92699999 0.74299997 94 16 0
2.4300001 0.926 0.745 96 16 0
2.424 0.92900002 0.75 96 16 0
2.4219999 0.93300003 0.755 104 16 0
2.405 0.93199998 0.75599998 89 16 0
2.3929999 0.93199998 0.759 96 16 0
2.3889999 0.935 0.764 98 16 0
2.3770001 0.935 0.76599997 99 16 0
2.3729999 0.93800002 0.77100003 98 16 0
2.3629999 0.93900001 0.77399999 100 16 0
2.358 0.94199997 0.77899998 99 16 0
2.345 0.94099998 0.78100002 92 16 0
2.3380001 0.94300002 0.78399998 97 16 0
2.3299999 0.94400001 0.78799999 99 16 0
2.3210001 0.94400001 0.79100001 114 16 0
2.3150001 0.94599998 0.79500002 114 16 0
2.3050001 0.94700003 0.79799998 110 16 0
2.2980001 0.94800001 0.80199999 118 16 0
2.2909999 0.949 0.80500001 116 16 0
2.286 0.95099998 0.81 114 16 0
2.2780001 0.95200002 0.81300002 117 16 0
2.267 0.95099998 0.815 113 16 0
2.257 0.95099998 0.81699997 107 16 0
2.2509999 0.95200002 0.82099998 112 16 0
2.2460001 0.954 0.82599998 118 16 0
2.2349999 0.95300001 0.82700002 106 16 0
2.23 0.95499998 0.83099997 109 16 0
2.221 0.954 0.83399999 114 16 0
2.217 0.95599997 0.83899999 116 16 0
2.2049999 0.954 0.83999997 118 16 0
2.201 0.95599997 0.84399998 111 16 0
2.1960001 0.95700002 0.84799999 103 16 0
2.1860001 0.95599997 0.85000002 96 16 0
2.178 0.95599997 0.852 108 16 0
2.1719999 0.95599997 0.85600001 93 16 0
2.1689999 0.958 0.86000001 101 16 0
2.165 0.95899999 0.86400002 104 16 0
2.1530001 0.95700002 0.86500001 101 16 0
2.1459999 0.95599997 0.86799997 108 16 0
2.1429999 0.958 0.87300003 101 16 0
2.1400001 0.95899999 0.87699997 102 16 0
2.1289999 0.95700002 0.87800002 102 16 0
2.1240001 0.95700002 0.88099998 98 16 0
2.118 0.95700002 0.884 90 16 0
2.112 0.95700002 0.88700002 101 16 0
2.1040001 0.95599997 0.889 93 16 0
2.095 0.954 0.89099997 103 16 0
2.0910001 0.954 0.89399999 105 16 0
2.0829999 0.95300001 0.89600003 91 16 0
2.0780001 0.95200002 0.89899999 93 16 0
2.0699999 0.95099998 0.90100002 91 16 0
2.0680001 0.95200002 0.90499997 97 16 0
2.063 0.95099998 0.90799999 100 16 0
2.0539999 0.949 0.90899998 90 16 0
2.0510001 0.949 0.91299999 91 16 0
2.039 0.94499999 0.912 91 16 0
2.0380001 0.94700003 0.917 89 16 0
2.0339999 0.94599998 0.92000002 81 16 0
2.027 0.94400001 0.92199999 83 16 0
2.0220001 0.94300002 0.92400002 84 16 0
2.0179999 0.94300002 0.92699999 108 16 0
2.0109999 0.94099998 0.92799997 108 16 0
2.0079999 0.94 0.93199998 106 16 0
2.0039999 0.93900001 0.93400002 113 16 0
1.993 0.935 0.93400002 112 16 0
1.9910001 0.935 0.93699998 108 16 0
1.9859999 0.93400002 0.93900001 118 16 0
1.979 0.93099999 0.94099998 109 16 0
1.977 0.93099999 0.94400001 107 16 0
1.975 0.93099999 0.94700003 105 16 0
1.966 0.92699999 0.94700003 110 16 0
1.965 0.92699999 0.94999999 113 16 0
1.9630001 0.926 0.954 115 16 0
1.954 0.92199999 0.95300001 110 16 0
1.952 0.92199999 0.95599997 116 16 0
1.944 0.91799998 0.95599997 107 16 0
1.9400001 0.91600001 0.958 110 16 0
1.938 0.91500002 0.96100003 115 16 0
1.932 0.912 0.96100003 109 16 0
1.929 0.91000003 0.963 116 16 0
1.925 0.90799999 0.96499997 112 16 0
1.92 0.90600002 0.96600002 111 16 0
1.9170001 0.90399998 0.96799999 117 16 0
1.9119999 0.90100002 0.96899998 121 16 0
1.91 0.89999998 0.97100002 122 16 0
1.909 0.89899999 0.97399998 117 16 0
1.9069999 0.89700001 0.97600001 120 16 0
1.9 0.89200002 0.97500002 115 19 0
1.897 0.88999999 0.977 116 16 0
1.896 0.889 0.97899997 116 16 0
1.896 0.88800001 0.98199999 113 16 0
1.887 0.88300002 0.98000002 103 19 0
1.888 0.88200003 0.98299998 115 16 0
1.886 0.88 0.98500001 110 16 0
1.883 0.87699997 0.986 111 16 0
1.882 0.87599999 0.98799998 115 16 0
1.883 0.87400001 0.991 117 16 0
1.876 0.87 0.98900002 108 19 0
1.876 0.86799997 0.99199998 113 16 0
1.874 0.866 0.99299997 112 16 0
1.873 0.86400002 0.99400002 108 16 0
1.865 0.85799998 0.99199998 126 18 0
1.8660001 0.85699999 0.99400002 119 16 0
1.8660001 0.85500002 0.99599999 107 16 0
1.858 0.84899998 0.99299997 107 18 0
1.862 0.84899998 0.99699998 114 16 0
1.8559999 0.84399998 0.99599999 109 16 0
1.8559999 0.84200001 0.99800003 118 16 0
1.8559999 0.83999997 0.99900001 123 16 0
1.855 0.83700001 1 124 16 0
1.855 0.83499998 1.001 127 16 0
1.855 0.83200002 1.002 124 16 0
1.849 0.82700002 1 120 19 0
1.85 0.82499999 1.001 125 16 0
1.85 0.82300001 1.003 122 16 0
1.849 0.81900001 1.003 120 16 0
1.849 0.81699997 1.0039999 126 16 0
1.847 0.81300002 1.0039999 124 16 0
1.848 0.81099999 1.0039999 126 16 0
1.849 0.80800003 1.005 140 16 0
1.845 0.80400002 1.0039999 140 16 0
1.846 0.801 1.005 130 16 0
1.8430001 0.79699999 1.003 137 16 0
1.842 0.79299998 1.003 131 16 0
1.8430001 0.79000002 1.0039999 135 16 0
1.845 0.78799999 1.005 132 16 0
1.846 0.78500003 1.006 136 16 0
1.845 0.78200001 1.005 141 16 0
1.847 0.77899998 1.005 143 16 0
1.848 0.77600002 1.006 143 16 0
1.845 0.77100003 1.0039999 149 16 0
1.842 0.76700002 1.002 141 16 0
1.85 0.76700002 1.006 140 16 0
1.839 0.759 0.99900001 140 16 0
1.84 0.755 0.99900001 138 16 0
1.842 0.75199997 0.99900001 150 16 0
1.8430001 0.74900001 0.99900001 141 16 0
1.851 0.74900001 1.002 139 16 0
1.846 0.74299997 0.99900001 139 16 0
1.852 0.74199998 1.001 150 16 0
1.854 0.73799998 1.001 147 16 0
1.8559999 0.73500001 1.001 150 16 0
1.858 0.73299998 1.001 150 16 0
1.849 0.72500002 0.99400002 150 19 0
1.853 0.72299999 0.995 150 16 0
1.852 0.71799999 0.99299997 149 16 0
1.859 0.71700001 0.995 150 16 0
1.862 0.71399999 0.995 150 16 0
1.865 0.71100003 0.995 150 16 0
1.864 0.70700002 0.99299997 150 16 0
1.8660001 0.70300001 0.99199998 150 16 0
1.876 0.70300001 0.995 149 16 0
1.876 0.69800001 0.99299997 150 16 0
1.8789999 0.69499999 0.99299997 140 16 0
1.876 0.69 0.98900002 150 16 0
1.877 0.68599999 0.98699999 150 16 0
1.883 0.68400002 0.98799998 150 16 0
1.885 0.68000001 0.98699999 150 16 0
1.888 0.67699999 0.98500001 150 16 0
1.89 0.67299998 0.98400003 150 16 0
1.893 0.67000002 0.98299998 150 16 0
1.896 0.667 0.98199999 150 16 0
1.901 0.66399997 0.98199999 150 16 0
1.901 0.65899998 0.97899997 150 16 0
1.904 0.65600002 0.97799999 150 16 0
1.913 0.65499997 0.97899997 150 16 0
1.915 0.65100002 0.977 150 16 0
1.9170001 0.64700001 0.97500002 150 16 0
1.919 0.64300001 0.97299999 150 16 0
1.923 0.63999999 0.972 150 16 0
1.925 0.63599998 0.97000003 150 16 0
1.9299999 0.63300002 0.96899998 150 16 0
1.932 0.62900001 0.96700001 150 16 0
1.936 0.62599999 0.96499997 150 16 0
1.943 0.62300003 0.96499997 132 16 0
1.944 0.61900002 0.963 135 16 0
1.948 0.616 0.96100003 149 16 0
1.952 0.61199999 0.95899999 140 16 0
1.954 0.60799998 0.95599997 149 16 0
1.96 0.60600001 0.95499998 150 16 0
1.9630001 0.602 0.95300001 144 16 0
1.9680001 0.59899998 0.95099998 150 16 0
1.972 0.59500003 0.94999999 148 16 0
1.976 0.59200001 0.94800001 150 16 0
1.98 0.588 0.94499999 145 16 0
1.984 0.58499998 0.94300002 142 16 0
1.988 0.58099997 0.94099998 147 16 0
1.994 0.57800001 0.93900001 145 16 0
2.0009999 0.57599998 0.93900001 150 16 0
2.0050001 0.57200003 0.93599999 150 16 0
2.007 0.56800002 0.93300003 150 16 0
2.0150001 0.565 0.93199998 150 16 0
2.0190001 0.56199998 0.92900002 150 16 0
2.023 0.55800003 0.92699999 150 16 0
2.027 0.55400002 0.92400002 148 16 0
2.0339999 0.551 0.92199999 150 16 0
2.036 0.54699999 0.91900003 149 16 0
2.046 0.54500002 0.91900003 149 16 0
2.049 0.54100001 0.91500002 150 16 0
2.0550001 0.53799999 0.91299999 148 16 0
2.0599999 0.53500003 0.91000003 133 16 0
2.0710001 0.53299999 0.91000003 150 16 0
2.0710001 0.528 0.90499997 137 16 0
2.0780001 0.52499998 0.903 133 16 0
2.0869999 0.523 0.90200001 144 16 0
2.0880001 0.51800001 0.898 147 16 0
2.095 0.51499999 0.89600003 141 16 0
2.1010001 0.51200002 0.89300001 134 16 0
2.105 0.50800002 0.889 139 16 0
2.112 0.505 0.88700002 127 16 0
2.1210001 0.50199997 0.88499999 146 16 0
2.128 0.49900001 0.88300002 133 16 0
2.132 0.495 0.87900001 146 16 0
2.142 0.493 0.87800002 136 16 0
2.1470001 0.48899999 0.87400001 134 16 0
2.154 0.486 0.87199998 139 16 0
2.1619999 0.48300001 0.87 129 16 0
2.165 0.479 0.86500001 134 16 0
2.177 0.477 0.86400002 136 16 0
2.181 0.47400001 0.86000001 127 16 0
2.1900001 0.47099999 0.85799998 135 16 0
2.1949999 0.46700001 0.85399997 143 16 0
2.204 0.46399999 0.852 149 16 0
2.2130001 0.46200001 0.84899998 134 16 0
2.2219999 0.458 0.847 139 16 0
2.2309999 0.456 0.84399998 146 16 0
2.233 0.45199999 0.83899999 129 16 0
2.24 0.44800001 0.83600003 143 16 0
2.2490001 0.44499999 0.833 129 16 0
2.2539999 0.442 0.829 135 16 0
2.2650001 0.43900001 0.82599998 133 16 0
2.277 0.43700001 0.82499999 129 16 0
2.28 0.433 0.81999999 111 16 0
2.2920001 0.43000001 0.81800002 126 16 0
2.3039999 0.428 0.81599998 128 16 0
2.306 0.42399999 0.81 124 16 0
2.3139999 0.41999999 0.80699998 123 16 0
2.3239999 0.417 0.80400002 131 16 0
2.3299999 0.414 0.79900002 125 16 0
2.3380001 0.41100001 0.79500002 130 16 0
2.3499999 0.40799999 0.79299998 135 16 0
2.352 0.40400001 0.787 130 16 0
2.365 0.40200001 0.78500003 131 16 0
2.3740001 0.398 0.78100002 111 16 0
2.3800001 0.39500001 0.77600002 114 16 0
2.391 0.39199999 0.773 122 16 0
2.3959999 0.38800001 0.76800001 76 16 0
2.408 0.38600001 0.76499999 81 16 0
2.414 0.382 0.75999999 76 16 0
2.425 0.37900001 0.75700003 81 16 0
2.4300001 0.375 0.75199997 76 16 0
2.448 0.37400001 0.75 74 16 0
2.4549999 0.37 0.74599999 68 16 0
2.4619999 0.36700001 0.741 69 16 0
2.4749999 0.36399999 0.73799998 67 16 0
2.4849999 0.361 0.73299998 69 16 0
2.4909999 0.35699999 0.72799999 66 16 0
2.5039999 0.354 0.72500002 66 16 0
2.513 0.35100001 0.72000003 67 16 0
2.5250001 0.34799999 0.71600002 66 16 0
2.5339999 0.345 0.71200001 70 16 0
2.55 0.34299999 0.70899999 69 16 0
2.556 0.33899999 0.70300001 63 16 0
2.5650001 0.336 0.69800001 62 16 0
2.5699999 0.33199999 0.69199997 62 16 0
2.5840001 0.329 0.68800002 65 16 0
2.5999999 0.32600001 0.685 62 16 0
2.6059999 0.32300001 0.67900002 36 16 0
2.6270001 0.32100001 0.67699999 29 16 0
2.632 0.317 0.671 44 16 0
2.6429999 0.31400001 0.66600001 60 16 0
2.652 0.31 0.66000003 51 16 0
2.661 0.30700001 0.65499997 49 16 0
2.6730001 0.30399999 0.64999998 51 16 0
2.6800001 0.30000001 0.64399999 49 16 0
2.694 0.29699999 0.639 47 16 0
2.7030001 0.294 0.634 44 16 0
2.714 0.28999999 0.62900001 45 16 0
2.727 0.287 0.62300003 71 16 0
2.743 0.285 0.61900002 61 16 0
2.75 0.28099999 0.61299998 39 16 0
2.7650001 0.278 0.60799998 39 16 0
2.7780001 0.27500001 0.60299999 38 16 0
2.7909999 0.27200001 0.597 38 16 0
2.8010001 0.26800001 0.59100002 36 16 0
2.8199999 0.26499999 0.58700001 40 16 0
2.8280001 0.26199999 0.57999998 37 16 0
2.8410001 0.25799999 0.57499999 38 16 0
2.855 0.255 0.56900001 37 16 0
2.868 0.252 0.56300002 36 16 0
2.878 0.248 0.55699998 35 16 0
2.8929999 0.245 0.551 34 16 0
2.901 0.241 0.54400003 33 16 0
2.9230001 0.23899999 0.54000002 36 16 0
2.9319999 0.235 0.53299999 36 16 0
2.941 0.23100001 0.52600002 33 16 0
2.9579999 0.228 0.51999998 35 16 0
2.973 0.22499999 0.514 36 16 0
2.9860001 0.222 0.50700003 33 16 0
3.007 0.219 0.50199997 34 16 0
3.0209999 0.215 0.495 33 16 0
3.0309999 0.212 0.48800001 33 16 0
3.0550001 0.20900001 0.48300001 33 16 0
3.069 0.205 0.47600001 34 16 0
3.0840001 0.20200001 0.46900001 32 16 0
3.0999999 0.198 0.463 33 16 0
3.1170001 0.19499999 0.456 34 16 0
3.1329999 0.191 0.449 33 16 0
3.152 0.18799999 0.442 34 16 0
3.1659999 0.185 0.435 35 16 0
3.1830001 0.18099999 0.428 36 16 0
3.201 0.178 0.421 35 16 0
3.2119999 0.17399999 0.41299999 34 16 0
3.2360001 0.171 0.40599999 34 16 0
3.2490001 0.167 0.398 34 16 0
3.2690001 0.163 0.391 34 16 0
3.289 0.16 0.38299999 34 16 0
3.306 0.156 0.375 41 16 0
3.3139999 0.152 0.36700001 125 16 0
3.313 0.148 0.35699999 148 16 0
3.3139999 0.14300001 0.347 114 16 0
3.3080001 0.138 0.33700001 137 16 0
3.309 0.134 0.32699999 133 16 0
3.3039999 0.13 0.317 125 16 0
3.3069999 0.125 0.30700001 143 16 0
3.299 0.121 0.296 134 16 0
3.2939999 0.116 0.28600001 128 16 0
3.296 0.112 0.27599999 127 16 0
3.293 0.108 0.266 130 16 0
3.2909999 0.103 0.25600001 143 16 0
3.2920001 0.098999999 0.24600001 143 16 0
3.2869999 0.094999999 0.236 134 16 0
3.2869999 0.090999998 0.227 133 16 0
3.2839999 0.086000003 0.21600001 132 16 0
3.2820001 0.082000002 0.207 104 16 0
3.28 0.078000002 0.197 110 16 0
3.2750001 0.074000001 0.186 115 16 0
3.2720001 0.07 0.176 127 16 0
3.273 0.066 0.167 120 16 0
3.266 0.061000001 0.15700001 112 16 0
3.266 0.057 0.147 116 16 0
3.263 0.052999999 0.13699999 114 16 0
3.263 0.048999999 0.127 83 16 0
3.2709999 0.046 0.118 33 16 0
3.2969999 0.041999999 0.109 26 16 0
3.3239999 0.037999999 0.098999999 27 16 0
3.3429999 0.035 0.090000004 26 16 0
3.355 0.030999999 0.079999998 50 16 0
3.3629999 0.027000001 0.07 49 16 0
3.355 0.023 0.059999999 31 16 0
3.3410001 0.018999999 0.048999999 21 16 0
3.3299999 0.015 0.039000001 18 16 0
3.3169999 0.011 0.028999999 17 16 0
3.302 0.0070000002 0.018999999 17 16 0
3.2869999 0.003 0.0089999996 17 16 0
3.2750001 0 0 16 16 0
3.2690001 -0.003 -0.0099999998 15 16 0
3.2550001 -0.0070000002 -0.02 16 16 0
3.2360001 -0.011 -0.028999999 17 16 0
3.2249999 -0.014 -0.039000001 21 16 0
3.223 -0.017999999 -0.048999999 32 16 0
3.217 -0.021 -0.059 46 16 0
3.22 -0.025 -0.068000004 66 16 0
3.2149999 -0.028999999 -0.078000002 106 16 0
3.2119999 -0.032000002 -0.088 121 16 0
3.2119999 -0.035999998 -0.097999997 127 16 0
3.201 -0.039000001 -0.107 126 16 0
3.201 -0.041999999 -0.117 107 16 0
3.201 -0.046 -0.127 116 16 0
3.1949999 -0.048999999 -0.13600001 123 16 0
3.1949999 -0.052999999 -0.146 112 16 0
3.1919999 -0.056000002 -0.156 132 16 0
3.191 -0.059 -0.16500001 150 16 0
3.181 -0.063000001 -0.175 150 16 0
3.1819999 -0.066 -0.184 150 16 0
3.1819999 -0.068999998 -0.19400001 150 16 0
3.1719999 -0.071999997 -0.20299999 86 16 0
3.1659999 -0.075000003 -0.213 44 16 0
3.164 -0.079000004 -0.222 32 16 0
3.151 -0.082000002 -0.23100001 26 16 0
3.138 -0.083999999 -0.23999999 26 16 0
3.128 -0.086999997 -0.249 25 16 0
3.115 -0.090000004 -0.257 24 16 0
3.108 -0.093000002 -0.266 24 16 0
3.0969999 -0.096000001 -0.27500001 24 16 0
3.0840001 -0.097999997 -0.28299999 23 16 0
3.0799999 -0.101 -0.29300001 24 16 0
3.0680001 -0.104 -0.301 24 16 0
3.056 -0.107 -0.30899999 23 16 0
3.0539999 -0.109 -0.31900001 26 16 0
3.04 -0.112 -0.32699999 26 16 0
3.03 -0.114 -0.33500001 27 16 0
3.0220001 -0.117 -0.34400001 27 16 0
3.016 -0.12 -0.352 27 16 0
3.0009999 -0.122 -0.36000001 26 16 0
2.9879999 -0.124 -0.368 25 16 0
2.9860001 -0.127 -0.377 27 16 0
2.9719999 -0.12899999 -0.38499999 26 16 0
2.9660001 -0.131 -0.39300001 26 16 0
2.9590001 -0.134 -0.40099999 26 16 0
2.9489999 -0.13600001 -0.40900001 26 16 0
2.9419999 -0.138 -0.417 26 16 0
2.9360001 -0.141 -0.426 26 16 0
2.9260001 -0.14300001 -0.43399999 25 16 0
2.9200001 -0.145 -0.442 25 16 0
2.9130001 -0.147 -0.44999999 26 16 0
2.9000001 -0.149 -0.45699999 26 16 0
2.892 -0.15099999 -0.465 26 16 0
2.882 -0.153 -0.47299999 26 16 0
2.8740001 -0.155 -0.48100001 26 16 0
2.868 -0.15800001 -0.48899999 26 16 0
2.8659999 -0.16 -0.498 26 16 0
2.8540001 -0.162 -0.505 27 16 0
2.846 -0.164 -0.51200002 26 16 0
2.8399999 -0.16599999 -0.51999998 25 16 0
2.8329999 -0.167 -0.528 25 16 0
2.822 -0.169 -0.53500003 25 16 0
2.8210001 -0.171 -0.54400003 26 16 0
2.812 -0.17299999 -0.551 25 16 0
2.8010001 -0.175 -0.55800003 25 16 0
2.7980001 -0.177 -0.56699997 25 16 0
2.789 -0.178 -0.574 25 16 0
2.7850001 -0.18000001 -0.58200002 24 16 0
2.7739999 -0.182 -0.58899999 25 16 0
2.766 -0.183 -0.59600002 24 16 0
2.7620001 -0.185 -0.60399997 24 16 0
2.753 -0.186 -0.611 29 16 0
2.7449999 -0.18799999 -0.61799997 27 16 0
2.743 -0.19 -0.62699997 28 16 0
2.7390001 -0.192 -0.63499999 28 16 0
2.7309999 -0.193 -0.64200002 28 16 0
2.724 -0.19400001 -0.64899999 28 16 0
2.7179999 -0.19599999 -0.65600002 28 16 0
2.707 -0.197 -0.662 27 16 0
2.704 -0.199 -0.671 28 16 0
2.7019999 -0.2 -0.67900002 27 16 0
2.691 -0.20100001 -0.685 26 16 0
2.687 -0.20299999 -0.69300002 28 16 0
2.6830001 -0.204 -0.70099998 28 16 0
2.675 -0.206 -0.708 28 16 0
2.6700001 -0.207 -0.71499997 27 16 0
2.6700001 -0.20900001 -0.72399998 28 16 0
2.6559999 -0.20900001 -0.72899997 28 16 0
2.6470001 -0.20999999 -0.73500001 28 16 0
2.6429999 -0.211 -0.74299997 27 16 0
2.638 -0.213 -0.75 27 16 0
2.635 -0.214 -0.75800002 27 16 0
2.6300001 -0.215 -0.76499999 26 16 0
2.6259999 -0.21600001 -0.773 27 16 0
