# .PCD v0.7 - Point Cloud Data file format
VERSION 0.7
FIELDS x y z intensity tag line
SIZE 4 4 4 4 1 1
TYPE F F F F U U
COUNT 1 1 1 1 1 1
WIDTH 1358
HEIGHT 1
VIEWPOINT 0 0 0 1 0 0 0
POINTS 1358
DATA ascii
1.687 0.50300002 1.074 150 16 0
1.676 0.49700001 1.068 150 18 0
1.675 0.495 1.069 150 16 0
1.675 0.493 1.0700001 150 16 0
1.675 0.491 1.071 150 16 0
1.675 0.48899999 1.072 150 16 0
1.6720001 0.486 1.071 150 16 0
1.674 0.484 1.073 150 16 0
1.6720001 0.48100001 1.073 150 16 0
1.67 0.47799999 1.072 149 16 0
1.6720001 0.477 1.075 150 16 0
1.6720001 0.47400001 1.075 150 16 0
1.671 0.472 1.075 150 16 0
1.669 0.46900001 1.074 150 16 0
1.671 0.46700001 1.076 150 16 0
1.67 0.46399999 1.075 150 16 0
1.67 0.46200001 1.075 150 16 0
1.67 0.45899999 1.076 150 16 0
1.671 0.45699999 1.076 150 16 0
1.671 0.454 1.076 150 16 0
1.674 0.45199999 1.077 150 16 0
1.673 0.449 1.076 150 16 0
1.673 0.447 1.076 150 16 0
1.674 0.44400001 1.076 150 16 0
1.675 0.442 1.076 150 16 0
1.677 0.44 1.077 150 16 0
1.675 0.43599999 1.075 150 16 0
1.677 0.43399999 1.076 150 16 0
1.678 0.43099999 1.075 150 16 0
1.681 0.42899999 1.076 150 16 0
1.6799999 0.426 1.075 150 16 0
1.683 0.42399999 1.076 150 16 0
1.682 0.421 1.074 150 16 0
1.681 0.41800001 1.072 150 16 0
1.686 0.41600001 1.073 150 16 0
1.686 0.41299999 1.072 150 16 0
1.686 0.41 1.071 150 16 0
1.6900001 0.40799999 1.071 150 16 0
1.687 0.40400001 1.068 150 16 0
1.692 0.40200001 1.069 150 16 0
1.694 0.40000001 1.068 150 16 0
1.694 0.39700001 1.067 150 16 0
1.697 0.39399999 1.066 150 16 0
1.698 0.391 1.0650001 150 16 0
1.699 0.389 1.064 150 16 0
1.704 0.38699999 1.0650001 150 16 0
1.704 0.38299999 1.062 150 16 0
1.707 0.38100001 1.062 150 16 0
1.709 0.37799999 1.0599999 150 16 0
1.71 0.375 1.059 150 16 0
1.712 0.373 1.057 150 16 0
1.714 0.37 1.0549999 150 16 0
1.716 0.36700001 1.054 150 16 0
1.7180001 0.36399999 1.052 150 16 0
1.721 0.36199999 1.052 150 16 0
1.721 0.359 1.049 150 16 0
1.726 0.35600001 1.049 150 16 0
1.727 0.35299999 1.046 150 16 0
1.743 0.35299999 1.052 150 18 0
1.734 0.34799999 1.044 150 16 0
1.747 0.34799999 1.048 150 16 0
1.75 0.345 1.0470001 150 16 0
1.755 0.34299999 1.046 150 16 0
1.757 0.34 1.044 150 16 0
1.7589999 0.33700001 1.0420001 150 16 0
1.766 0.33500001 1.0420001 150 16 0
1.7690001 0.333 1.04 150 16 0
1.771 0.33000001 1.038 150 16 0
1.781 0.32800001 1.039 150 16 0
1.78 0.32499999 1.035 150 16 0
1.788 0.32300001 1.035 150 16 0
1.79 0.31999999 1.033 150 16 0
1.795 0.31799999 1.031 150 16 0
1.8 0.315 1.03 150 16 0
1.803 0.31299999 1.027 150 16 0
1.801 0.30899999 1.022 150 16 0
1.811 0.308 1.024 150 16 0
1.8150001 0.30500001 1.021 150 16 0
1.816 0.30199999 1.017 150 16 0
1.825 0.30000001 1.018 150 16 0
1.829 0.29800001 1.016 150 16 0
1.831 0.29499999 1.012 150 16 0
1.8380001 0.29300001 1.011 150 16 0
1.84 0.28999999 1.008 150 16 0
1.846 0.28799999 1.006 150 16 0
1.851 0.285 1.0039999 150 16 0
1.859 0.28299999 1.003 150 16 0
1.863 0.28099999 1.001 150 16 0
1.865 0.278 0.99699998 150 16 0
1.8789999 0.27700001 0.99900001 150 16 0
1.882 0.27399999 0.995 150 16 0
1.886 0.271 0.99199998 150 16 0
1.8890001 0.26899999 0.98900002 150 16 0
1.896 0.26699999 0.98699999 150 16 0
1.9 0.264 0.98400003 150 16 0
1.91 0.26199999 0.98400003 150 16 0
1.9119999 0.259 0.98000002 150 16 0
1.92 0.25799999 0.97799999 150 16 0
1.925 0.255 0.97500002 150 16 0
1.9299999 0.25299999 0.972 150 16 0
1.941 0.25099999 0.972 150 16 0
1.9450001 0.249 0.96899998 150 16 0
1.948 0.24600001 0.96399999 150 16 0
1.957 0.244 0.963 150 16 0
1.964 0.242 0.96100003 150 16 0
1.971 0.23999999 0.958 150 16 0
1.975 0.237 0.95499998 150 16 0
1.979 0.235 0.95099998 150 16 0
1.987 0.233 0.949 150 16 0
1.99 0.23 0.94400001 150 16 0
2.0039999 0.229 0.94499999 150 16 0
2.0109999 0.227 0.94199997 150 16 0
2.0139999 0.22400001 0.93699998 150 16 0
2.029 0.223 0.93800002 150 16 0
2.036 0.221 0.935 150 16 0
2.039 0.21799999 0.93000001 150 16 0
2.05 0.21600001 0.92900002 150 16 0
2.0550001 0.214 0.92500001 150 16 0
2.062 0.212 0.921 150 16 0
2.069 0.20999999 0.91799998 144 16 0
2.0780001 0.208 0.91600001 144 16 0
2.0829999 0.206 0.912 150 16 0
2.0929999 0.204 0.90899998 150 16 0
2.099 0.20100001 0.90499997 150 16 0
2.102 0.199 0.89999998 150 16 0
2.1140001 0.197 0.89899999 150 16 0
2.1159999 0.19499999 0.89300001 144 16 0
2.128 0.193 0.89099997 141 16 0
2.1400001 0.192 0.889 150 16 0
2.145 0.189 0.88499999 136 16 0
2.1530001 0.18700001 0.88099998 138 16 0
2.1619999 0.186 0.87800002 145 16 0
2.165 0.183 0.87199998 146 16 0
2.1730001 0.18099999 0.86900002 118 16 0
2.1900001 0.18000001 0.86799997 118 16 0
2.1949999 0.178 0.86299998 117 16 0
2.2030001 0.176 0.85900003 111 16 0
2.2179999 0.17399999 0.85799998 115 16 0
2.2219999 0.17200001 0.85299999 109 16 0
2.2290001 0.17 0.84799999 105 16 0
2.237 0.168 0.84399998 99 16 0
2.25 0.16599999 0.84200001 113 16 0
2.2579999 0.16500001 0.83700001 111 16 0
2.2650001 0.163 0.833 110 16 0
2.277 0.161 0.82999998 118 16 0
2.2869999 0.15899999 0.82599998 116 16 0
2.2909999 0.15700001 0.81999999 112 16 0
2.303 0.155 0.81699997 103 16 0
2.3139999 0.154 0.81300002 101 16 0
2.3280001 0.152 0.81 107 16 0
2.332 0.15000001 0.80500001 104 16 0
2.3440001 0.148 0.801 116 16 0
2.3570001 0.147 0.79799998 112 16 0
2.3629999 0.145 0.792 92 16 0
2.3710001 0.14300001 0.787 97 16 0
2.3829999 0.141 0.78299999 101 16 0
2.3859999 0.139 0.77700001 97 16 0
2.3989999 0.13699999 0.773 91 16 0
2.411 0.13600001 0.76899999 94 16 0
2.4219999 0.134 0.76499999 88 16 0
2.4300001 0.132 0.759 95 16 0
2.4400001 0.13 0.755 90 16 0
2.451 0.12899999 0.75 92 16 0
2.4619999 0.127 0.745 84 16 0
2.4760001 0.126 0.741 90 16 0
2.487 0.124 0.73699999 85 16 0
2.5 0.122 0.73299998 79 16 0
2.507 0.121 0.72600001 77 16 0
2.5150001 0.119 0.72100002 75 16 0
2.529 0.117 0.71600002 81 16 0
2.54 0.116 0.71100003 76 16 0
2.5539999 0.114 0.70700002 82 16 0
2.566 0.112 0.70099998 77 16 0
2.5780001 0.111 0.69599998 71 16 0
2.589 0.109 0.69099998 73 16 0
2.6029999 0.108 0.68599999 79 16 0
2.619 0.106 0.68199998 78 16 0
2.6259999 0.105 0.67500001 67 16 0
2.6389999 0.103 0.67000002 65 16 0
2.651 0.101 0.66399997 63 16 0
2.661 0.1 0.65799999 72 16 0
2.674 0.097999997 0.653 60 16 0
2.687 0.097000003 0.64700001 71 16 0
2.6960001 0.094999999 0.63999999 61 16 0
2.7119999 0.093999997 0.63599998 59 16 0
2.7249999 0.092 0.63 54 16 0
2.7379999 0.090999998 0.62400001 53 16 0
2.7490001 0.089000002 0.61699998 46 16 0
2.766 0.088 0.61199999 42 16 0
2.776 0.086000003 0.60500002 47 16 0
2.7909999 0.085000001 0.60000002 49 16 0
2.8069999 0.082999997 0.59399998 49 16 0
2.8180001 0.082000002 0.58700001 81 16 0
2.829 0.079999998 0.57999998 50 16 0
2.8440001 0.079000004 0.574 48 16 0
2.8510001 0.077 0.56599998 48 16 0
2.868 0.075999998 0.56 43 16 0
2.8889999 0.074000001 0.55500001 43 16 0
2.8989999 0.072999999 0.54699999 40 16 0
2.924 0.071999997 0.542 33 16 0
2.941 0.07 0.53600001 31 16 0
2.948 0.068999998 0.528 33 16 0
2.971 0.067000002 0.52200001 31 16 0
2.983 0.066 0.51499999 32 16 0
2.9990001 0.064999998 0.50800002 32 16 0
3.02 0.063000001 0.50099999 28 16 0
3.0320001 0.061999999 0.493 30 16 0
3.0450001 0.059999999 0.486 29 16 0
3.0650001 0.059 0.479 29 16 0
3.0829999 0.057999998 0.472 30 16 0
3.096 0.056000002 0.46399999 29 16 0
3.1170001 0.055 0.45699999 29 16 0
3.1370001 0.054000001 0.44999999 31 16 0
3.1489999 0.052000001 0.44100001 31 16 0
3.171 0.050999999 0.43399999 31 16 0
3.1949999 0.050000001 0.42699999 33 16 0
3.211 0.048 0.419 31 16 0
3.2260001 0.046999998 0.41 31 16 0
3.2460001 0.046 0.40200001 30 16 0
3.2579999 0.044 0.39399999 30 16 0
3.2839999 0.043000001 0.38600001 30 16 0
3.306 0.041999999 0.37799999 30 16 0
3.3199999 0.041000001 0.36899999 31 16 0
3.3429999 0.039000001 0.361 32 16 0
3.3610001 0.037999999 0.352 53 16 0
3.358 0.037 0.34 132 16 0
3.3559999 0.035 0.329 92 16 0
3.3570001 0.034000002 0.31900001 95 16 0
3.355 0.032000002 0.308 99 16 0
3.348 0.030999999 0.296 83 16 0
3.3429999 0.028999999 0.285 101 16 0
3.339 0.028000001 0.27399999 109 16 0
3.3299999 0.026000001 0.26199999 108 16 0
3.3310001 0.025 0.252 123 16 0
3.323 0.024 0.23999999 123 16 0
3.3199999 0.022 0.23 123 16 0
3.316 0.021 0.21799999 109 16 0
3.3080001 0.02 0.207 114 16 0
3.3080001 0.018999999 0.19599999 117 16 0
3.302 0.017000001 0.185 119 16 0
3.299 0.016000001 0.175 113 16 0
3.296 0.015 0.164 133 16 0
3.293 0.014 0.153 144 16 0
3.289 0.013 0.142 124 16 0
3.2850001 0.012 0.132 144 16 0
3.279 0.011 0.121 108 16 0
3.2850001 0.0089999996 0.11 34 16 0
3.3139999 0.0089999996 0.101 30 16 0
3.3299999 0.0080000004 0.090000004 26 16 0
3.3280001 0.0070000002 0.079999998 18 16 0
3.3280001 0.0060000001 0.068999998 17 16 0
3.316 0.0049999999 0.057999998 17 16 0
3.3039999 0.0040000002 0.046999998 17 16 0
3.3039999 0.003 0.035999998 17 16 0
3.296 0.0020000001 0.026000001 16 16 0
3.2909999 0.001 0.015 17 16 0
3.2809999 0 0.0040000002 16 16 0
3.277 0 -0.0049999999 16 16 0
3.267 -0.001 -0.016000001 15 16 0
3.2650001 -0.0020000001 -0.026000001 16 16 0
3.26 -0.0020000001 -0.037 16 16 0
3.2539999 -0.003 -0.046999998 16 16 0
3.2479999 -0.0040000002 -0.057999998 16 16 0
3.2420001 -0.0049999999 -0.068000004 16 16 0
3.24 -0.0049999999 -0.078000002 16 16 0
3.234 -0.0060000001 -0.089000002 16 16 0
3.2260001 -0.0070000002 -0.098999999 16 16 0
3.2190001 -0.0070000002 -0.109 15 16 0
3.2119999 -0.0080000004 -0.119 15 16 0
3.2119999 -0.0089999996 -0.12899999 16 16 0
3.2 -0.0089999996 -0.139 16 16 0
3.198 -0.0099999998 -0.15000001 16 16 0
3.1930001 -0.0099999998 -0.16 15 16 0
3.1889999 -0.011 -0.17 16 16 0
3.1760001 -0.011 -0.17900001 15 16 0
3.1760001 -0.012 -0.19 16 16 0
3.1730001 -0.012 -0.2 16 16 0
3.1659999 -0.013 -0.20999999 16 16 0
3.1659999 -0.013 -0.22 16 16 0
3.1559999 -0.014 -0.23 16 16 0
3.154 -0.014 -0.23999999 16 16 0
3.152 -0.014 -0.25 16 16 0
3.141 -0.015 -0.259 16 16 0
3.1400001 -0.015 -0.26899999 17 16 0
3.132 -0.015 -0.27900001 17 16 0
3.131 -0.016000001 -0.289 17 16 0
3.1270001 -0.016000001 -0.29899999 17 16 0
3.115 -0.016000001 -0.308 16 16 0
3.1110001 -0.016000001 -0.31799999 17 16 0
3.108 -0.017000001 -0.32699999 17 16 0
3.1070001 -0.017000001 -0.33700001 18 16 0
3.098 -0.017000001 -0.34599999 18 16 0
3.0969999 -0.017000001 -0.35600001 18 16 0
3.096 -0.017000001 -0.366 18 16 0
3.0899999 -0.017999999 -0.37599999 18 16 0
3.0880001 -0.017999999 -0.38600001 18 16 0
3.0840001 -0.017999999 -0.39500001 18 16 0
3.079 -0.017999999 -0.405 17 16 0
3.076 -0.017999999 -0.414 17 16 0
3.069 -0.017999999 -0.42300001 17 16 0
3.0680001 -0.017999999 -0.433 17 16 0
3.0669999 -0.017999999 -0.44299999 17 16 0
3.0580001 -0.017999999 -0.45199999 16 16 0
3.0539999 -0.017999999 -0.461 16 16 0
3.0539999 -0.017999999 -0.47099999 16 16 0
3.049 -0.017999999 -0.48100001 16 16 0
3.0420001 -0.017999999 -0.49000001 16 16 0
3.0409999 -0.017999999 -0.49900001 16 16 0
3.0439999 -0.017000001 -0.50999999 16 16 0
3.036 -0.017000001 -0.51899999 16 16 0
3.0339999 -0.017000001 -0.528 16 16 0
3.029 -0.017000001 -0.537 16 16 0
3.027 -0.017000001 -0.54699999 16 16 0
3.02 -0.016000001 -0.55599999 16 16 0
3.0179999 -0.016000001 -0.565 16 16 0
3.017 -0.016000001 -0.57499999 16 16 0
3.007 -0.016000001 -0.583 16 16 0
3.0079999 -0.015 -0.59299999 16 16 0
3.0050001 -0.015 -0.602 16 16 0
3.003 -0.015 -0.61199999 16 16 0
3.003 -0.014 -0.62199998 16 16 0
2.984 -0.014 -0.62800002 16 16 0
2.984 -0.013 -0.63800001 16 16 0
2.98 -0.013 -0.64700001 16 16 0
2.9749999 -0.012 -0.65600002 15 16 0
2.9749999 -0.012 -0.66600001 16 16 0
2.973 -0.011 -0.67500001 16 16 0
2.9690001 -0.011 -0.68400002 16 16 0
2.9660001 -0.0099999998 -0.69300002 16 16 0
2.967 -0.0099999998 -0.70300001 16 16 0
2.964 -0.0089999996 -0.71200001 16 16 0
2.9619999 -0.0089999996 -0.722 16 16 0
2.971 -0.0080000004 -0.73400003 16 16 0
2.957 -0.0070000002 -0.74000001 16 16 0
2.9549999 -0.0070000002 -0.75 16 16 0
2.951 -0.0060000001 -0.759 16 16 0
2.947 -0.0049999999 -0.76700002 18 16 0
2.948 -0.0040000002 -0.77700001 18 16 0
2.944 -0.0040000002 -0.78600001 18 16 0
2.9530001 -0.003 -0.79900002 19 16 0
2.9530001 -0.0020000001 -0.80800003 19 16 0
2.9519999 -0.001 -0.81800002 20 16 0
2.95 0 -0.82700002 20 16 0
2.947 0 -0.83600003 20 16 0
2.944 0.001 -0.84500003 19 16 0
2.947 0.0020000001 -0.85600001 20 16 0
2.944 0.0020000001 -0.86500001 21 16 0
2.941 0.003 -0.87400001 23 16 0
2.9389999 0.0040000002 -0.88300002 27 16 0
2.937 0.0060000001 -0.89300001 30 16 0
2.934 0.0070000002 -0.90200001 35 16 0
2.9260001 0.0080000004 -0.90899998 39 16 0
2.9260001 0.0089999996 -0.91900003 47 16 0
2.925 0.0099999998 -0.92799997 67 16 0
2.9200001 0.011 -0.93699998 87 16 0
2.911 0.012 -0.94400001 90 16 0
2.9089999 0.013 -0.95300001 114 16 0
2.8989999 0.015 -0.95899999 102 16 0
2.898 0.016000001 -0.96799999 123 16 0
2.892 0.017000001 -0.97600001 126 16 0
2.8859999 0.018999999 -0.98400003 99 16 0
2.882 0.02 -0.99199998 102 16 0
2.8789999 0.021 -1.001 100 16 0
2.8710001 0.023 -1.008 99 16 0
2.868 0.024 -1.016 110 16 0
2.8670001 0.025 -1.026 115 16 0
2.858 0.027000001 -1.0319999 101 16 0
2.8570001 0.028000001 -1.041 99 16 0
2.8540001 0.029999999 -1.05 78 16 0
2.8469999 0.030999999 -1.057 75 16 0
2.8429999 0.033 -1.0650001 58 16 0
2.8399999 0.035 -1.073 45 16 0
2.8380001 0.035999998 -1.082 43 16 0
2.8340001 0.037999999 -1.09 44 16 0
2.829 0.039999999 -1.098 47 16 0
2.823 0.041000001 -1.105 47 16 0
2.819 0.043000001 -1.113 52 16 0
2.816 0.045000002 -1.1210001 70 16 0
2.8110001 0.046 -1.128 88 16 0
2.8039999 0.048 -1.135 85 16 0
2.8050001 0.050000001 -1.145 92 16 0
2.796 0.052000001 -1.15 80 16 0
2.7939999 0.054000001 -1.159 148 16 0
2.789 0.056000002 -1.166 150 16 0
2.783 0.057 -1.173 139 16 0
2.779 0.059 -1.1799999 141 16 0
2.776 0.061999999 -1.188 147 16 0
2.77 0.063000001 -1.1950001 143 16 0
2.767 0.066 -1.2029999 131 16 0
2.763 0.068000004 -1.21 145 16 0
2.7579999 0.07 -1.217 138 16 0
2.753 0.071999997 -1.224 139 16 0
2.7490001 0.074000001 -1.2309999 148 16 0
2.7460001 0.075999998 -1.239 137 16 0
2.7420001 0.078000002 -1.2460001 139 16 0
2.7379999 0.081 -1.253 141 16 0
2.7349999 0.082999997 -1.261 140 16 0
2.727 0.085000001 -1.266 130 16 0
2.723 0.086999997 -1.273 143 16 0
2.724 0.090000004 -1.283 144 16 0
2.7130001 0.092 -1.286 135 16 0
2.71 0.093999997 -1.293 146 16 0
2.7060001 0.097000003 -1.301 135 16 0
2.7019999 0.098999999 -1.307 133 16 0
2.7 0.102 -1.3150001 138 16 0
2.6949999 0.104 -1.321 135 16 0
2.6819999 0.106 -1.323 111 16 0
2.688 0.109 -1.335 130 16 0
2.684 0.112 -1.341 129 16 0
2.6700001 0.114 -1.342 115 16 0
2.668 0.117 -1.35 133 16 0
2.6600001 0.119 -1.354 121 16 0
2.661 0.122 -1.363 127 16 0
2.6559999 0.125 -1.369 122 16 0
2.6489999 0.127 -1.373 118 16 0
2.648 0.13 -1.381 117 16 0
2.6429999 0.133 -1.386 113 16 0
2.638 0.13500001 -1.392 116 16 0
2.635 0.138 -1.398 117 16 0
2.632 0.141 -1.405 150 16 0
2.628 0.14399999 -1.411 143 16 0
2.625 0.147 -1.4170001 147 16 0
2.6199999 0.15000001 -1.4220001 150 16 0
2.6159999 0.153 -1.428 150 16 0
2.6129999 0.156 -1.434 139 16 0
2.609 0.15899999 -1.439 147 16 0
2.6059999 0.162 -1.4450001 150 16 0
2.6029999 0.16500001 -1.451 140 16 0
2.599 0.168 -1.456 146 16 0
2.589 0.17 -1.4579999 131 16 0
2.5910001 0.17399999 -1.466 134 16 0
2.5880001 0.177 -1.472 126 16 0
2.579 0.18000001 -1.474 126 16 0
2.5810001 0.184 -1.483 128 16 0
2.5710001 0.186 -1.484 127 16 0
2.5699999 0.189 -1.49 124 16 0
2.5650001 0.193 -1.494 119 16 0
2.563 0.19599999 -1.5 126 16 0
2.556 0.199 -1.502 114 16 0
2.5569999 0.20299999 -1.51 120 16 0
2.5539999 0.206 -1.515 119 16 0
2.5450001 0.20900001 -1.516 115 16 0
2.5450001 0.212 -1.523 130 16 0
2.5339999 0.215 -1.523 119 16 0
2.5350001 0.219 -1.529 108 16 0
2.533 0.222 -1.535 113 16 0
2.5339999 0.226 -1.541 110 16 0
2.5280001 0.229 -1.544 110 16 0
2.52 0.23199999 -1.545 108 16 0
2.5220001 0.236 -1.552 110 16 0
2.5150001 0.23899999 -1.553 98 16 0
2.5120001 0.243 -1.557 105 16 0
2.5090001 0.24600001 -1.561 103 16 0
2.5020001 0.25 -1.562 104 16 0
2.4990001 0.25299999 -1.566 104 16 0
2.4979999 0.257 -1.5700001 109 16 0
2.4949999 0.25999999 -1.574 104 16 0
2.4909999 0.264 -1.577 99 16 0
2.4890001 0.26699999 -1.58 106 16 0
2.4820001 0.27000001 -1.581 97 16 0
2.48 0.27399999 -1.584 94 16 0
2.474 0.27700001 -1.585 101 16 0
2.471 0.28099999 -1.5880001 97 16 0
2.4690001 0.28400001 -1.591 96 16 0
2.467 0.28799999 -1.594 97 16 0
2.464 0.292 -1.597 97 16 0
2.461 0.29499999 -1.599 101 16 0
2.4579999 0.29899999 -1.601 94 16 0
2.4549999 0.30199999 -1.604 93 16 0
2.4530001 0.30599999 -1.6059999 95 16 0
2.451 0.31 -1.609 94 16 0
2.4460001 0.31299999 -1.609 100 16 0
2.4449999 0.317 -1.612 95 16 0
2.4449999 0.32100001 -1.6160001 111 16 0
2.4400001 0.324 -1.6160001 102 16 0
2.437 0.32699999 -1.6160001 103 16 0
2.4319999 0.331 -1.617 106 16 0
2.4300001 0.33399999 -1.618 100 16 0
2.4300001 0.338 -1.6210001 103 16 0
2.427 0.34200001 -1.622 106 16 0
2.425 0.345 -1.623 102 16 0
2.424 0.34900001 -1.625 110 16 0
2.4230001 0.35299999 -1.627 113 16 0
2.4189999 0.35600001 -1.626 102 16 0
2.4170001 0.36000001 -1.627 113 16 0
2.4159999 0.36300001 -1.6289999 107 16 0
2.415 0.36700001 -1.63 97 16 0
2.414 0.37 -1.631 102 16 0
2.4089999 0.373 -1.6289999 101 16 0
2.4059999 0.377 -1.628 101 16 0
2.4000001 0.38 -1.626 92 16 0
2.3989999 0.38299999 -1.626 135 16 0
2.398 0.38699999 -1.627 146 16 0
2.3970001 0.38999999 -1.627 133 16 0
2.395 0.39399999 -1.627 135 16 0
2.3940001 0.39700001 -1.627 138 16 0
2.3900001 0.40000001 -1.625 137 16 0
2.391 0.40400001 -1.627 139 16 0
2.385 0.40599999 -1.623 137 16 0
2.392 0.41100001 -1.628 136 16 0
2.3840001 0.41299999 -1.622 137 16 0
2.382 0.41600001 -1.6210001 141 16 0
2.3829999 0.41999999 -1.622 142 16 0
2.3829999 0.42300001 -1.6210001 150 16 0
2.3800001 0.426 -1.619 144 16 0
2.3800001 0.43000001 -1.618 150 16 0
2.3789999 0.433 -1.617 142 16 0
2.378 0.43599999 -1.615 143 16 0
2.378 0.43900001 -1.615 149 16 0
2.3789999 0.442 -1.614 147 16 0
2.3729999 0.44400001 -1.609 132 16 0
2.3759999 0.44800001 -1.61 134 16 0
2.375 0.45100001 -1.608 138 16 0
2.3740001 0.454 -1.605 132 16 0
2.3710001 0.456 -1.602 150 16 0
2.372 0.46000001 -1.601 147 16 0
2.3699999 0.46200001 -1.598 141 16 0
2.372 0.465 -1.597 142 16 0
2.3729999 0.46799999 -1.595 148 16 0
2.3710001 0.47099999 -1.592 134 16 0
2.372 0.47400001 -1.59 130 16 0
2.3729999 0.477 -1.5880001 150 16 0
2.3670001 0.47799999 -1.581 141 16 0
2.3740001 0.48199999 -1.584 150 16 0
2.368 0.484 -1.577 144 16 0
2.369 0.486 -1.575 145 16 0
2.3710001 0.48899999 -1.572 143 16 0
2.372 0.49200001 -1.5700001 150 16 0
2.372 0.49399999 -1.567 148 16 0
2.372 0.49599999 -1.563 141 16 0
2.3670001 0.498 -1.556 143 16 0
2.3670001 0.5 -1.553 149 16 0
2.369 0.50199997 -1.55 148 16 0
2.3699999 0.505 -1.5470001 148 16 0
2.372 0.50700003 -1.544 144 16 0
2.372 0.509 -1.54 150 16 0
2.375 0.51200002 -1.538 148 16 0
2.375 0.514 -1.534 150 16 0
2.3729999 0.51499999 -1.528 150 16 0
2.378 0.51800001 -1.527 150 16 0
2.3770001 0.51899999 -1.521 150 16 0
2.382 0.52200001 -1.52 150 16 0
2.381 0.52399999 -1.515 150 16 0
2.3800001 0.52499998 -1.5089999 150 16 0
2.3800001 0.52700001 -1.5039999 150 16 0
2.3840001 0.52899998 -1.501 150 16 0
2.381 0.52999997 -1.494 150 16 0
2.3829999 0.53100002 -1.49 150 16 0
2.385 0.53299999 -1.4859999 150 16 0
2.3870001 0.53500003 -1.482 150 16 0
2.3889999 0.537 -1.478 150 16 0
2.3900001 0.53799999 -1.473 150 16 0
2.392 0.53899997 -1.469 150 16 0
2.3900001 0.54000002 -1.462 150 16 0
2.392 0.54100001 -1.457 150 16 0
2.391 0.542 -1.451 150 16 0
2.3959999 0.54400003 -1.448 150 16 0
2.3989999 0.546 -1.443 150 16 0
2.401 0.54699999 -1.439 150 16 0
2.4000001 0.54699999 -1.432 150 16 0
2.4059999 0.54900002 -1.429 150 16 0
2.404 0.54900002 -1.421 150 16 0
2.4070001 0.551 -1.4170001 150 16 0
2.4089999 0.551 -1.4119999 150 16 0
2.4089999 0.55199999 -1.405 150 16 0
2.415 0.55299997 -1.402 150 16 0
2.415 0.55400002 -1.395 150 16 0
2.4170001 0.55500001 -1.39 150 16 0
2.4200001 0.55500001 -1.385 150 16 0
2.4230001 0.55599999 -1.38 150 16 0
2.4230001 0.55599999 -1.372 150 16 0
2.4289999 0.55800003 -1.369 150 16 0
2.4300001 0.55800003 -1.363 150 16 0
2.4319999 0.55800003 -1.357 150 16 0
2.438 0.55900002 -1.353 150 16 0
2.4389999 0.55900002 -1.346 150 16 0
2.441 0.55900002 -1.34 150 16 0
2.444 0.56 -1.334 150 16 0
2.448 0.56 -1.329 150 16 0
2.451 0.56099999 -1.324 150 16 0
2.45 0.56 -1.316 150 16 0
2.454 0.56 -1.3099999 150 16 0
2.457 0.56 -1.304 150 16 0
2.4590001 0.56 -1.298 150 16 0
2.4630001 0.56 -1.2920001 150 16 0
2.4649999 0.56 -1.286 150 16 0
2.4679999 0.56 -1.28 150 16 0
2.471 0.56 -1.273 150 16 0
2.474 0.56 -1.267 150 16 0
2.4790001 0.56 -1.262 150 16 0
2.48 0.55900002 -1.255 150 16 0
2.4809999 0.55800003 -1.248 150 16 0
2.4879999 0.55900002 -1.243 150 16 0
2.487 0.55699998 -1.235 150 16 0
2.493 0.55800003 -1.23 150 16 0
2.4979999 0.55699998 -1.224 150 16 0
2.5 0.55599999 -1.217 150 16 0
2.5020001 0.55500001 -1.21 150 16 0
2.5020001 0.55400002 -1.202 150 16 0
2.5090001 0.55400002 -1.198 150 16 0
2.51 0.55299997 -1.1900001 150 16 0
2.5139999 0.55199999 -1.184 150 16 0
2.516 0.551 -1.177 150 16 0
2.52 0.55000001 -1.17 150 16 0
2.523 0.54900002 -1.164 150 16 0
2.5280001 0.54900002 -1.158 150 16 0
2.5339999 0.54799998 -1.152 150 16 0
2.536 0.54699999 -1.145 150 16 0
2.539 0.546 -1.138 150 16 0
2.539 0.54400003 -1.13 150 16 0
2.5450001 0.54299998 -1.124 150 16 0
2.549 0.542 -1.118 150 16 0
2.552 0.54100001 -1.1109999 150 16 0
2.5539999 0.53899997 -1.103 150 16 0
2.5599999 0.53799999 -1.098 150 16 0
2.562 0.537 -1.09 150 16 0
2.5710001 0.53600001 -1.085 150 16 0
2.572 0.53399998 -1.077 150 16 0
2.572 0.53200001 -1.069 150 16 0
2.5810001 0.53200001 -1.064 150 16 0
2.585 0.52999997 -1.058 150 16 0
2.5869999 0.528 -1.05 150 16 0
2.595 0.52700001 -1.044 150 16 0
2.5969999 0.52499998 -1.0369999 150 16 0
2.602 0.52399999 -1.03 150 16 0
2.609 0.523 -1.025 18 16 0
2.707 0.54000002 -1.0549999 0 17 0
2.566 0.509 -0.991 0 18 0
2.5380001 0.50099999 -0.972 0 16 0
2.562 0.50300002 -0.97299999 0 16 0
2.526 0.493 -0.95099998 0 16 0
2.6329999 0.51099998 -0.98299998 0 16 0
2.5569999 0.49399999 -0.94599998 0 16 0
2.5680001 0.493 -0.94199997 0 16 0
2.5409999 0.48500001 -0.92400002 0 18 0
2.641 0.50199997 -0.95099998 0 18 0
2.721 0.514 -0.972 0 19 0
2.664 0.5 -0.94300002 19 16 0
2.6600001 0.49599999 -0.93300003 150 16 0
2.661 0.49399999 -0.92500001 150 16 0
2.668 0.49200001 -0.91900003 150 16 0
2.6670001 0.48899999 -0.91000003 150 16 0
2.674 0.48699999 -0.903 150 16 0
2.6800001 0.48500001 -0.89700001 150 16 0
2.6830001 0.48199999 -0.889 150 16 0
2.6900001 0.47999999 -0.88300002 150 16 0
2.691 0.477 -0.875 150 16 0
2.6960001 0.47400001 -0.86799997 150 16 0
2.6989999 0.472 -0.86000001 150 16 0
2.701 0.46900001 -0.852 150 16 0
2.704 0.46599999 -0.84500003 150 16 0
2.714 0.46399999 -0.83899999 150 16 0
2.721 0.46200001 -0.833 150 16 0
2.724 0.45899999 -0.82499999 150 16 0
2.727 0.456 -0.81699997 150 16 0
2.733 0.45300001 -0.81099999 150 16 0
2.744 0.45199999 -0.80500001 150 16 0
2.747 0.44800001 -0.79699999 150 16 0
2.75 0.44499999 -0.79000002 150 16 0
2.7550001 0.44299999 -0.78299999 150 16 0
2.757 0.43900001 -0.77499998 150 16 0
2.763 0.43599999 -0.76700002 150 16 0
2.766 0.433 -0.75999999 150 16 0
2.7709999 0.43000001 -0.75300002 150 16 0
2.7750001 0.42699999 -0.745 150 16 0
2.7839999 0.42399999 -0.73900002 150 16 0
2.7869999 0.421 -0.73100001 150 16 0
2.7920001 0.41800001 -0.72399998 150 16 0
2.7939999 0.414 -0.71600002 150 16 0
2.8050001 0.412 -0.70999998 150 16 0
2.809 0.40900001 -0.70200002 150 16 0
2.816 0.40599999 -0.69499999 150 16 0
2.8150001 0.40200001 -0.68699998 150 16 0
2.823 0.39899999 -0.68000001 150 16 0
2.829 0.39500001 -0.67299998 150 16 0
2.8329999 0.39199999 -0.66500002 150 16 0
2.8380001 0.389 -0.65799999 150 16 0
2.8440001 0.38499999 -0.64999998 150 16 0
2.846 0.38100001 -0.64200002 150 16 0
2.8540001 0.37799999 -0.63599998 150 16 0
2.8559999 0.37400001 -0.62800002 150 16 0
2.8629999 0.37099999 -0.62099999 150 16 0
2.868 0.36700001 -0.61299998 150 16 0
2.8770001 0.36399999 -0.60600001 150 16 0
2.8789999 0.36000001 -0.59799999 150 16 0
2.882 0.35600001 -0.58999997 150 16 0
2.895 0.35299999 -0.58399999 150 16 0
2.9000001 0.34900001 -0.57700002 150 16 0
2.904 0.34599999 -0.56900001 150 16 0
2.9100001 0.34200001 -0.56099999 150 16 0
2.9130001 0.338 -0.55299997 150 16 0
2.921 0.33399999 -0.546 150 16 0
2.9260001 0.33000001 -0.53799999 150 16 0
2.9349999 0.32699999 -0.53200001 150 16 0
2.9419999 0.32300001 -0.52399999 150 16 0
2.9489999 0.31900001 -0.51700002 150 16 0
2.95 0.31400001 -0.50800002 150 16 0
2.9519999 0.31 -0.5 150 16 0
2.9630001 0.30599999 -0.493 150 16 0
2.961 0.301 -0.484 150 16 0
2.9719999 0.29800001 -0.477 150 16 0
2.9779999 0.294 -0.47 150 16 0
2.9790001 0.289 -0.46200001 150 16 0
2.9879999 0.285 -0.454 150 16 0
2.9909999 0.28099999 -0.44600001 150 16 0
2.997 0.27599999 -0.43799999 150 16 0
3.0020001 0.27200001 -0.43000001 150 16 0
3.0120001 0.26800001 -0.42300001 150 16 0
3.016 0.26300001 -0.41499999 150 16 0
3.017 0.259 -0.40700001 150 16 0
3.026 0.25400001 -0.39899999 150 16 0
3.03 0.25 -0.391 150 16 0
3.0320001 0.245 -0.38299999 150 16 0
3.043 0.241 -0.37599999 150 16 0
3.0480001 0.236 -0.368 150 16 0
3.0569999 0.23199999 -0.36000001 150 16 0
3.059 0.227 -0.352 150 16 0
3.0669999 0.222 -0.34400001 150 16 0
3.0710001 0.21699999 -0.336 150 16 0
3.079 0.213 -0.32800001 150 16 0
3.0829999 0.208 -0.31999999 150 16 0
3.0929999 0.20299999 -0.31200001 150 16 0
3.0999999 0.199 -0.30399999 150 16 0
3.1010001 0.193 -0.296 150 16 0
3.109 0.189 -0.28799999 150 16 0
3.1210001 0.184 -0.28 150 16 0
3.1259999 0.17900001 -0.27200001 147 16 0
3.128 0.17399999 -0.264 150 16 0
3.135 0.169 -0.25600001 150 16 0
3.141 0.164 -0.24699999 150 16 0
3.151 0.15899999 -0.23899999 150 16 0
3.155 0.153 -0.23100001 150 16 0
3.165 0.148 -0.223 150 16 0
3.1689999 0.14300001 -0.215 150 16 0
3.174 0.138 -0.206 150 16 0
3.1819999 0.132 -0.198 150 16 0
3.191 0.127 -0.19 150 16 0
3.201 0.122 -0.182 150 16 0
3.2019999 0.116 -0.17299999 147 16 0
3.2090001 0.111 -0.16500001 150 16 0
3.2219999 0.106 -0.15700001 130 16 0
3.2249999 0.1 -0.148 124 16 0
3.2309999 0.094999999 -0.14 147 16 0
3.2390001 0.089000002 -0.131 147 16 0
3.2449999 0.082999997 -0.123 140 16 0
3.256 0.078000002 -0.114 144 16 0
3.2609999 0.071999997 -0.106 148 16 0
3.2620001 0.066 -0.097000003 73 16 0
3.2739999 0.059999999 -0.088 53 16 0
3.277 0.055 -0.079999998 52 16 0
3.2820001 0.048999999 -0.071000002 114 16 0
3.2920001 0.043000001 -0.061999999 126 16 0
3.2950001 0.037 -0.054000001 106 16 0
3.312 0.030999999 -0.045000002 54 16 0
3.312 0.025 -0.035999998 32 16 0
3.306 0.018999999 -0.027000001 22 16 0
3.293 0.013 -0.017999999 20 16 0
3.279 0.0070000002 -0.0099999998 19 16 0
3.276 0 -0.001 20 16 0
3.2650001 -0.0049999999 0.0070000002 19 16 0
3.2590001 -0.011 0.015 31 16 0
3.257 -0.017000001 0.024 90 16 0
3.2650001 -0.023 0.033 150 16 0
3.27 -0.028999999 0.041000001 150 16 0
3.2750001 -0.035 0.050000001 150 16 0
3.2909999 -0.041999999 0.059 150 16 0
3.2909999 -0.048 0.068000004 150 16 0
3.3 -0.054000001 0.077 150 16 0
3.303 -0.061000001 0.085000001 150 16 0
3.3080001 -0.067000002 0.093999997 75 16 0
3.3039999 -0.072999999 0.103 33 16 0
3.289 -0.079000004 0.111 30 16 0
3.2809999 -0.085000001 0.119 31 16 0
3.266 -0.090999998 0.127 31 16 0
3.2609999 -0.097000003 0.13500001 30 16 0
3.2550001 -0.103 0.14399999 32 16 0
3.2390001 -0.109 0.15099999 30 16 0
3.23 -0.115 0.15899999 30 16 0
3.22 -0.121 0.167 31 16 0
3.214 -0.127 0.175 30 16 0
3.2030001 -0.133 0.183 30 16 0
3.191 -0.139 0.19 28 16 0
3.181 -0.145 0.198 30 16 0
3.1700001 -0.15000001 0.206 29 16 0
3.1589999 -0.156 0.213 28 16 0
3.1500001 -0.162 0.221 29 16 0
3.1359999 -0.167 0.228 29 16 0
3.132 -0.17299999 0.235 29 16 0
3.119 -0.17900001 0.242 29 16 0
3.108 -0.184 0.25 29 16 0
3.0999999 -0.19 0.257 28 16 0
3.092 -0.19599999 0.264 28 16 0
3.0829999 -0.20200001 0.271 30 16 0
3.069 -0.207 0.278 30 16 0
3.0610001 -0.213 0.285 31 16 0
3.0510001 -0.21799999 0.292 29 16 0
3.036 -0.223 0.29800001 30 16 0
3.0309999 -0.229 0.30500001 30 16 0
3.0220001 -0.235 0.31200001 31 16 0
3.0109999 -0.23999999 0.31900001 30 16 0
2.9979999 -0.245 0.32499999 30 16 0
2.9809999 -0.25 0.331 31 16 0
2.9749999 -0.25600001 0.338 30 16 0
2.9690001 -0.26100001 0.34400001 30 16 0
2.961 -0.26699999 0.35100001 30 16 0
2.95 -0.27200001 0.35699999 30 16 0
2.9419999 -0.27700001 0.36300001 30 16 0
2.9289999 -0.28200001 0.36899999 30 16 0
2.921 -0.28799999 0.37599999 30 16 0
2.9119999 -0.29300001 0.382 30 16 0
2.902 -0.29800001 0.38800001 30 16 0
2.891 -0.303 0.39300001 31 16 0
2.885 -0.30899999 0.40000001 32 16 0
2.872 -0.31400001 0.405 31 16 0
2.8640001 -0.31900001 0.41100001 31 16 0
2.8559999 -0.324 0.417 33 16 0
2.848 -0.33000001 0.42300001 32 16 0
2.8369999 -0.33399999 0.42899999 31 16 0
2.8310001 -0.34 0.435 32 16 0
2.8210001 -0.345 0.44 31 16 0
2.8099999 -0.34999999 0.44499999 32 16 0
2.7980001 -0.354 0.44999999 31 16 0
2.789 -0.359 0.456 32 16 0
2.783 -0.36500001 0.46200001 32 16 0
2.777 -0.37 0.46799999 33 16 0
2.766 -0.375 0.47299999 33 16 0
2.7579999 -0.38 0.47799999 32 16 0
2.7479999 -0.38499999 0.48300001 33 16 0
2.7420001 -0.38999999 0.48899999 33 16 0
2.7309999 -0.39500001 0.49399999 33 16 0
2.723 -0.39899999 0.49900001 34 16 0
2.7130001 -0.40400001 0.50300002 33 16 0
2.704 -0.40900001 0.50800002 36 16 0
2.6960001 -0.414 0.51300001 35 16 0
2.684 -0.41800001 0.51800001 33 16 0
2.677 -0.42300001 0.523 34 16 0
2.6700001 -0.428 0.528 33 16 0
2.665 -0.43399999 0.53299999 36 16 0
2.655 -0.43799999 0.53799999 36 16 0
2.6489999 -0.44299999 0.54299998 41 16 0
2.6429999 -0.449 0.54799998 38 16 0
2.6289999 -0.45199999 0.55199999 40 16 0
2.622 -0.45699999 0.55599999 43 16 0
2.6159999 -0.463 0.56099999 43 16 0
2.6040001 -0.46599999 0.565 50 16 0
2.5999999 -0.472 0.56999999 56 16 0
2.582 -0.47499999 0.57300001 52 16 0
2.576 -0.47999999 0.57700002 37 16 0
2.569 -0.48500001 0.58200002 52 16 0
2.5599999 -0.48899999 0.58600003 48 16 0
2.5539999 -0.49399999 0.59100002 58 16 0
2.546 -0.49900001 0.59500003 57 16 0
2.5380001 -0.50400001 0.59899998 57 16 0
2.5309999 -0.50800002 0.60299999 61 16 0
2.5179999 -0.51200002 0.60600001 60 16 0
2.5120001 -0.51700002 0.61000001 58 16 0
2.4979999 -0.51999998 0.61299998 55 16 0
2.4960001 -0.52600002 0.61799997 59 16 0
2.4849999 -0.52899998 0.62099999 59 16 0
2.4760001 -0.53399998 0.625 55 16 0
2.4719999 -0.53899997 0.62900001 71 16 0
2.4579999 -0.542 0.63200003 65 16 0
2.454 -0.54699999 0.63599998 59 16 0
2.4419999 -0.551 0.639 70 16 0
2.4330001 -0.55500001 0.64200002 65 16 0
2.425 -0.55900002 0.64499998 68 16 0
2.4189999 -0.56400001 0.64899999 77 16 0
2.411 -0.56800002 0.65200001 69 16 0
2.3989999 -0.57099998 0.65499997 67 16 0
2.3959999 -0.57700002 0.65899998 70 16 0
2.3870001 -0.58099997 0.662 83 16 0
2.3800001 -0.58499998 0.66500002 81 16 0
2.3710001 -0.58899999 0.66799998 78 16 0
2.365 -0.59399998 0.67199999 73 16 0
2.3540001 -0.597 0.67400002 73 16 0
2.3440001 -0.60100001 0.676 75 16 0
2.3399999 -0.60600001 0.68000001 82 16 0
2.332 -0.61000001 0.68300003 73 16 0
2.3239999 -0.61400002 0.68599999 78 16 0
2.316 -0.61799997 0.68800002 75 16 0
2.3110001 -0.62300003 0.69199997 83 16 0
2.3039999 -0.62699997 0.69499999 81 16 0
2.293 -0.63 0.69599998 78 16 0
2.289 -0.63499999 0.69999999 77 16 0
2.28 -0.63800001 0.70200002 116 16 0
2.266 -0.64099997 0.70200002 109 16 0
2.26 -0.64499998 0.70599997 116 16 0
2.2520001 -0.64899999 0.708 120 16 0
2.244 -0.65200001 0.70999998 110 16 0
2.2349999 -0.65600002 0.71100003 120 16 0
2.2279999 -0.66000003 0.71399999 126 16 0
2.2219999 -0.66399997 0.71700001 119 16 0
2.2119999 -0.667 0.71799999 118 16 0
2.2060001 -0.671 0.72000003 137 16 0
2.1949999 -0.67400002 0.72100002 129 16 0
2.188 -0.67799997 0.72299999 103 16 0
2.1800001 -0.68099999 0.72500002 105 16 0
2.1719999 -0.685 0.727 110 16 0
2.1659999 -0.68900001 0.72899997 123 16 0
2.1589999 -0.69300002 0.73100001 119 16 0
2.154 -0.69700003 0.73299998 134 16 0
2.145 -0.69999999 0.73400003 126 16 0
2.135 -0.70300001 0.73500001 128 16 0
2.128 -0.70599997 0.73699999 121 16 0
2.1159999 -0.708 0.736 128 16 0
2.108 -0.71100003 0.73799998 130 16 0
2.1029999 -0.71499997 0.74000001 126 16 0
2.098 -0.72000003 0.74199998 127 16 0
2.0899999 -0.72299999 0.74299997 127 16 0
2.0840001 -0.72600001 0.74400002 114 16 0
2.075 -0.72899997 0.745 127 16 0
2.0699999 -0.73299998 0.74699998 131 16 0
2.0599999 -0.73500001 0.74699998 126 16 0
2.0550001 -0.74000001 0.74900001 134 16 0
2.0469999 -0.74199998 0.74900001 144 16 0
2.0409999 -0.74599999 0.75099999 133 16 0
2.0339999 -0.74900001 0.75099999 136 16 0
2.027 -0.75199997 0.75199997 122 16 0
2.0179999 -0.755 0.75199997 135 16 0
2.0120001 -0.75800002 0.75300002 147 16 0
2.0090001 -0.76300001 0.755 150 16 0
1.995 -0.76300001 0.75300002 150 16 0
1.995 -0.76899999 0.75599998 150 16 0
1.985 -0.76999998 0.755 150 16 0
1.979 -0.773 0.75599998 150 16 0
1.975 -0.77700001 0.75800002 150 16 0
1.967 -0.77999997 0.75700003 150 16 0
1.96 -0.78299999 0.75800002 150 16 0
1.947 -0.78299999 0.755 150 16 0
1.937 -0.78399998 0.75400001 150 16 0
1.931 -0.787 0.755 150 16 0
1.925 -0.79000002 0.755 150 16 0
1.9220001 -0.79400003 0.75700003 150 16 0
1.918 -0.79799998 0.75800002 150 16 0
1.914 -0.80199999 0.75800002 150 16 0
1.905 -0.80299997 0.75700003 150 16 0
1.9 -0.80699998 0.75800002 150 16 0
1.8890001 -0.80699998 0.755 150 16 0
1.8839999 -0.81 0.75599998 150 16 0
1.881 -0.81400001 0.75700003 150 16 0
1.8710001 -0.815 0.755 150 16 0
1.873 -0.82099998 0.75800002 150 16 0
1.862 -0.82099998 0.75599998 150 16 0
1.857 -0.824 0.75599998 150 16 0
1.848 -0.82499999 0.75400001 150 16 0
1.846 -0.829 0.755 150 16 0
1.836 -0.82999998 0.75300002 150 16 0
1.836 -0.83399999 0.755 150 16 0
1.831 -0.83700001 0.75400001 150 16 0
1.822 -0.838 0.75199997 150 16 0
1.818 -0.84100002 0.75199997 150 16 0
1.812 -0.84299999 0.75099999 150 16 0
1.803 -0.84299999 0.74900001 150 16 0
1.801 -0.847 0.75 150 16 0
1.7920001 -0.847 0.74699998 150 16 0
1.79 -0.85100001 0.74800003 150 16 0
1.784 -0.85299999 0.74599999 150 16 0
1.776 -0.85299999 0.74400002 150 16 0
1.774 -0.85699999 0.745 150 16 0
1.771 -0.86000001 0.74400002 150 16 0
1.7640001 -0.861 0.74199998 150 16 0
1.758 -0.86299998 0.741 150 16 0
1.752 -0.86400002 0.73900002 150 16 0
1.748 -0.866 0.73799998 150 16 0
1.747 -0.87 0.73900002 150 16 0
1.7410001 -0.87099999 0.73699999 150 16 0
1.734 -0.87199998 0.73500001 150 16 0
1.732 -0.87400001 0.73400003 150 16 0
1.726 -0.87599999 0.73199999 150 16 0
1.72 -0.87699997 0.73000002 150 16 0
1.719 -0.88 0.73000002 150 16 0
1.704 -0.87599999 0.72399998 150 18 0
1.699 -0.87699997 0.722 150 16 0
1.699 -0.88099998 0.72299999 150 16 0
1.696 -0.88300002 0.722 150 16 0
1.691 -0.884 0.71899998 150 16 0
1.6900001 -0.88700002 0.71899998 150 16 0
1.688 -0.889 0.71799999 150 16 0
1.6849999 -0.89099997 0.71700001 150 16 0
1.681 -0.89300001 0.71499997 150 16 0
1.677 -0.89399999 0.713 150 16 0
1.6720001 -0.89399999 0.71100003 150 16 0
1.67 -0.89700001 0.70999998 150 16 0
1.666 -0.898 0.70700002 150 16 0
1.664 -0.89999998 0.70599997 150 16 0
1.658 -0.89899999 0.70300001 150 16 0
1.654 -0.89999998 0.70099998 150 16 0
1.653 -0.903 0.69999999 150 16 0
1.648 -0.903 0.69700003 150 16 0
1.642 -0.90200001 0.69400001 150 16 0
1.641 -0.90399998 0.69199997 150 16 0
1.64 -0.90600002 0.69099998 150 16 0
1.638 -0.90799999 0.68900001 150 16 0
1.631 -0.90600002 0.68599999 150 16 0
1.6289999 -0.90799999 0.68400002 150 16 0
1.628 -0.90899998 0.68199998 150 16 0
1.627 -0.91100001 0.68099999 150 16 0
1.626 -0.91299999 0.67900002 150 16 0
1.624 -0.91399997 0.67699999 150 16 0
1.622 -0.91500002 0.67500001 150 16 0
1.618 -0.91399997 0.67199999 150 16 0
1.6109999 -0.91299999 0.66799998 150 16 0
1.609 -0.91299999 0.66500002 150 16 0
1.607 -0.91399997 0.66299999 150 16 0
1.605 -0.91399997 0.66000003 150 16 0
1.604 -0.91600001 0.65899998 150 16 0
1.6 -0.91500002 0.65499997 150 16 0
1.599 -0.91600001 0.653 150 16 0
1.597 -0.91600001 0.65100002 150 16 0
1.597 -0.91799998 0.64899999 150 16 0
1.597 -0.91799998 0.64700001 150 16 0
1.589 -0.91500002 0.64200002 150 18 0
1.589 -0.917 0.63999999 150 16 0
1.59 -0.91799998 0.63800001 150 16 0
1.592 -0.92000002 0.63700002 150 16 0
1.59 -0.92000002 0.634 150 16 0
1.589 -0.92000002 0.63200003 150 16 0
1.589 -0.921 0.62900001 150 16 0
1.589 -0.92199999 0.62699997 150 16 0
1.585 -0.92000002 0.62300003 150 16 0
1.586 -0.921 0.62099999 150 16 0
1.585 -0.921 0.61799997 150 16 0
1.579 -0.91799998 0.61400002 150 19 0
1.58 -0.91799998 0.61199999 150 16 0
1.585 -0.92199999 0.611 150 16 0
1.581 -0.92000002 0.60699999 150 16 0
1.582 -0.92000002 0.60500002 150 16 0
1.577 -0.91799998 0.60100001 150 16 0
1.5779999 -0.91799998 0.59799999 150 16 0
1.5779999 -0.91799998 0.59500003 65 0 0
1.577 -0.917 0.59200001 62 0 0
1.576 -0.91600001 0.58899999 150 16 0
1.576 -0.91500002 0.58600003 65 0 0
1.579 -0.917 0.58499998 65 0 0
1.577 -0.91600001 0.58099997 72 0 0
1.581 -0.917 0.579 62 0 0
1.579 -0.91500002 0.57599998 64 0 0
1.58 -0.91500002 0.57300001 72 0 0
1.581 -0.91500002 0.57099998 60 0 0
1.582 -0.91399997 0.56800002 64 0 0
1.5829999 -0.91399997 0.565 69 0 0
1.581 -0.912 0.56099999 63 0 0
1.585 -0.91299999 0.56 74 0 0
1.586 -0.91299999 0.55699998 66 0 0
1.586 -0.91100001 0.55400002 64 0 0
1.585 -0.90899998 0.55000001 71 0 0
1.585 -0.90799999 0.54699999 73 0 0
1.591 -0.91100001 0.546 58 0 0
1.591 -0.90899998 0.54299998 66 0 0
1.5930001 -0.90799999 0.54000002 3 0 0
1.591 -0.90499997 0.53600001 83 0 0
1.595 -0.90600002 0.53399998 67 0 0
1.594 -0.90399998 0.52999997 6 0 0
1.596 -0.903 0.528 3 0 0
1.597 -0.90200001 0.52499998 2 0 0
1.596 -0.89899999 0.52100003 66 0 0
1.6 -0.89999998 0.51899999 75 0 0
1.599 -0.89700001 0.51499999 70 0 0
1.6 -0.89600003 0.51200002 77 0 0
1.602 -0.89399999 0.509 65 0 0
1.607 -0.89499998 0.50700003 65 0 0
1.605 -0.89200002 0.50300002 71 0 0
1.607 -0.88999999 0.50099999 67 0 0
1.609 -0.889 0.498 72 0 0
1.613 -0.889 0.495 68 0 0
1.612 -0.88599998 0.49200001 60 0 0
1.617 -0.88599998 0.48899999 69 0 0
1.619 -0.884 0.48699999 48 0 0
1.624 -0.884 0.484 2 0 0
1.623 -0.88099998 0.48100001 50 0 0
1.622 -0.87699997 0.477 41 0 0
1.631 -0.88 0.47600001 50 0 0
1.633 -0.87800002 0.47299999 41 0 0
1.633 -0.875 0.46900001 41 0 0
1.637 -0.87400001 0.46700001 47 0 0
1.637 -0.87099999 0.463 49 0 0
1.641 -0.86900002 0.46000001 3 0 0
1.643 -0.86699998 0.45699999 43 0 0
1.645 -0.86500001 0.454 41 0 0
1.647 -0.86299998 0.45100001 2 0 0
1.649 -0.861 0.44800001 48 0 0
1.655 -0.86000001 0.44600001 2 0 0
1.6569999 -0.85799998 0.44299999 2 0 0
1.661 -0.85699999 0.44 2 0 0
1.663 -0.85399997 0.43700001 2 0 0
1.665 -0.852 0.43399999 1 0 0
1.669 -0.85000002 0.43200001 2 0 0
1.673 -0.84799999 0.42899999 2 0 0
1.675 -0.84500003 0.426 1 0 0
1.677 -0.84299999 0.42300001 1 0 0
1.6799999 -0.83999997 0.41999999 1 0 0
1.687 -0.83999997 0.41800001 150 16 0
1.6900001 -0.83700001 0.41499999 1 0 0
1.696 -0.83600003 0.41299999 150 16 0
1.698 -0.833 0.40900001 150 16 0
1.704 -0.83200002 0.40700001 150 16 0
1.7079999 -0.82999998 0.405 150 16 0
1.714 -0.829 0.40200001 146 16 0
1.712 -0.824 0.398 142 16 0
1.719 -0.82300001 0.396 1 0 0
1.717 -0.81800002 0.39199999 145 16 0
1.725 -0.81699997 0.38999999 132 16 0
1.726 -0.81300002 0.38699999 146 16 0
1.734 -0.81300002 0.38499999 150 16 0
1.7359999 -0.80900002 0.382 148 16 0
1.744 -0.80800003 0.38 144 16 0
1.748 -0.80599999 0.377 142 16 0
1.751 -0.80299997 0.37400001 150 16 0
1.762 -0.80299997 0.373 149 16 0
1.766 -0.80000001 0.37 136 16 0
1.7690001 -0.79699999 0.36700001 146 16 0
1.772 -0.79400003 0.36399999 138 16 0
1.777 -0.79100001 0.36199999 149 16 0
1.779 -0.787 0.359 113 16 0
1.786 -0.78600001 0.35600001 126 16 0
1.793 -0.78399998 0.354 125 16 0
1.7970001 -0.78100002 0.35100001 120 16 0
1.801 -0.77700001 0.34900001 112 16 0
1.807 -0.77499998 0.34599999 111 16 0
1.8150001 -0.77399999 0.34400001 103 16 0
1.818 -0.76999998 0.34099999 111 16 0
1.821 -0.76599997 0.338 108 16 0
1.83 -0.76499999 0.336 109 16 0
1.832 -0.75999999 0.333 108 16 0
1.841 -0.759 0.331 113 16 0
1.846 -0.75599998 0.329 111 16 0
1.85 -0.75199997 0.32600001 119 16 0
1.8559999 -0.74900001 0.32300001 105 16 0
1.8609999 -0.74599999 0.32100001 112 16 0
1.863 -0.74199998 0.31799999 105 16 0
1.867 -0.73799998 0.315 106 16 0
1.8710001 -0.73500001 0.31200001 108 16 0
1.877 -0.73100001 0.31 106 16 0
1.895 -0.73299998 0.30899999 112 19 0
1.9 -0.72899997 0.30700001 89 16 0
1.909 -0.727 0.30500001 88 16 0
1.911 -0.72299999 0.301 91 16 0
1.9170001 -0.71899998 0.29899999 85 16 0
1.929 -0.71799999 0.29699999 87 16 0
1.932 -0.71399999 0.294 91 16 0
1.9400001 -0.71100003 0.292 90 16 0
1.9450001 -0.70700002 0.28999999 89 16 0
1.952 -0.704 0.287 88 16 0
1.957 -0.69999999 0.285 84 16 0
1.962 -0.69599998 0.28200001 80 16 0
1.972 -0.69400001 0.28 97 16 0
1.979 -0.69 0.278 86 16 0
1.987 -0.68699998 0.27500001 82 16 0
1.989 -0.68199998 0.27200001 84 16 0
1.997 -0.67900002 0.27000001 73 16 0
2.007 -0.676 0.26800001 85 16 0
2.01 -0.671 0.26499999 80 16 0
2.0209999 -0.66900003 0.26300001 83 16 0
2.0250001 -0.66399997 0.26100001 74 16 0
2.036 -0.662 0.259 76 16 0
2.04 -0.65700001 0.25600001 71 16 0
2.0539999 -0.65499997 0.25400001 74 16 0
2.0569999 -0.64999998 0.25099999 73 16 0
2.0650001 -0.64600003 0.249 71 16 0
2.075 -0.64300001 0.24699999 62 16 0
2.079 -0.63800001 0.244 64 16 0
2.0899999 -0.63499999 0.242 65 16 0
2.095 -0.63099998 0.23999999 57 16 0
2.1059999 -0.62699997 0.23800001 63 16 0
2.1129999 -0.62300003 0.235 61 16 0
2.1210001 -0.61900002 0.233 64 16 0
2.131 -0.616 0.23100001 65 16 0
2.1370001 -0.611 0.228 59 16 0
2.1429999 -0.60600001 0.226 58 16 0
2.161 -0.60500002 0.22400001 60 16 0
2.1659999 -0.59899998 0.222 52 16 0
2.178 -0.59600002 0.22 53 16 0
2.187 -0.59200001 0.21699999 51 16 0
2.1900001 -0.58600003 0.215 50 16 0
2.2019999 -0.58200002 0.212 50 16 0
2.2149999 -0.579 0.211 47 16 0
2.221 -0.574 0.208 46 16 0
2.2279999 -0.56900001 0.205 42 16 0
2.2390001 -0.565 0.20299999 47 16 0
2.247 -0.56 0.20100001 43 16 0
2.257 -0.55599999 0.199 46 16 0
2.2709999 -0.55199999 0.197 42 16 0
2.277 -0.54699999 0.19400001 47 16 0
2.2880001 -0.542 0.192 46 16 0
2.299 -0.53799999 0.19 41 16 0
2.306 -0.53299999 0.18700001 37 16 0
2.3210001 -0.52899998 0.185 36 16 0
2.3269999 -0.523 0.183 39 16 0
2.336 -0.51800001 0.18000001 41 16 0
2.3499999 -0.514 0.178 38 16 0
2.3599999 -0.509 0.176 32 16 0
2.369 -0.50400001 0.17399999 31 16 0
2.3829999 -0.49900001 0.171 42 16 0
2.3959999 -0.495 0.169 45 16 0
2.4059999 -0.48899999 0.167 46 16 0
2.418 -0.484 0.16500001 36 16 0
2.425 -0.47799999 0.162 36 16 0
2.4400001 -0.47400001 0.16 35 16 0
2.447 -0.46799999 0.15800001 36 16 0
2.4560001 -0.46200001 0.155 36 16 0
2.47 -0.45699999 0.153 34 16 0
2.4809999 -0.45100001 0.15099999 33 16 0
2.4909999 -0.44499999 0.148 32 16 0
2.5050001 -0.44 0.146 32 16 0
2.5150001 -0.43399999 0.14300001 31 16 0
2.5239999 -0.428 0.141 29 16 0
2.5339999 -0.42199999 0.139 27 16 0
2.549 -0.417 0.13600001 26 16 0
2.562 -0.41100001 0.134 27 16 0
2.575 -0.405 0.132 28 16 0
2.586 -0.39899999 0.12899999 26 16 0
2.5999999 -0.39300001 0.127 27 16 0
2.6110001 -0.38699999 0.124 26 16 0
2.622 -0.38 0.122 27 16 0
2.638 -0.37400001 0.12 27 16 0
2.655 -0.36899999 0.118 26 16 0
2.668 -0.36199999 0.115 27 16 0
2.6800001 -0.35499999 0.113 26 16 0
2.6930001 -0.34900001 0.11 27 16 0
2.707 -0.34200001 0.108 27 16 0
2.721 -0.336 0.105 26 16 0
2.7290001 -0.32800001 0.103 26 16 0
2.7420001 -0.322 0.1 26 16 0
2.7609999 -0.315 0.097999997 27 16 0
2.7690001 -0.308 0.094999999 26 16 0
2.7869999 -0.301 0.093000002 26 16 0
2.7969999 -0.29300001 0.090000004 26 16 0
2.8099999 -0.28600001 0.088 25 16 0
2.832 -0.28 0.085000001 25 16 0
2.849 -0.273 0.082999997 26 16 0
2.8599999 -0.26499999 0.079999998 25 16 0
2.8710001 -0.257 0.078000002 25 16 0
2.8970001 -0.25 0.075000003 25 16 0
2.905 -0.242 0.072999999 26 16 0
2.924 -0.235 0.07 25 16 0
2.9349999 -0.226 0.068000004 26 16 0
2.9549999 -0.219 0.064999998 24 16 0
2.973 -0.211 0.063000001 25 16 0
2.994 -0.20299999 0.059999999 25 16 0
3.0050001 -0.19499999 0.057 25 16 0
3.03 -0.18700001 0.055 25 16 0
3.05 -0.17900001 0.052000001 25 16 0
3.059 -0.17 0.048999999 25 16 0
3.085 -0.162 0.046999998 25 16 0
3.1070001 -0.153 0.044 25 16 0
3.122 -0.14399999 0.041999999 25 16 0
3.1400001 -0.13500001 0.039000001 26 16 0
3.165 -0.126 0.035999998 26 16 0
3.1789999 -0.117 0.033 25 16 0
3.198 -0.108 0.030999999 26 16 0
3.22 -0.098999999 0.028000001 25 16 0
3.2349999 -0.089000002 0.025 24 16 0
3.257 -0.079999998 0.022 28 16 0
3.2780001 -0.07 0.018999999 54 16 0
3.277 -0.059999999 0.016000001 139 16 0
3.2690001 -0.048999999 0.014 100 16 0
3.263 -0.039000001 0.011 110 16 0
3.2539999 -0.028999999 0.0080000004 110 16 0
3.2490001 -0.018999999 0.0049999999 38 16 0
3.26 -0.0080000004 0.0020000001 17 16 0
3.2820001 0.001 0 16 16 0
3.302 0.011 -0.003 18 16 0
3.3310001 0.022 -0.0060000001 28 16 0
3.323 0.032000002 -0.0080000004 50 16 0
3.316 0.041999999 -0.011 54 16 0
3.312 0.052000001 -0.014 41 16 0
3.3039999 0.063000001 -0.017000001 47 16 0
3.2939999 0.072999999 -0.018999999 47 16 0
3.2880001 0.082999997 -0.022 53 16 0
3.283 0.093000002 -0.025 54 16 0
3.279 0.103 -0.027000001 52 16 0
3.2720001 0.113 -0.029999999 54 16 0
3.263 0.123 -0.032000002 54 16 0
3.2590001 0.134 -0.035 60 16 0
3.256 0.14399999 -0.037 63 16 0
3.2490001 0.153 -0.039999999 62 16 0
3.244 0.164 -0.041999999 68 16 0
3.2379999 0.17299999 -0.045000002 58 16 0
3.2309999 0.183 -0.046999998 58 16 0
3.224 0.193 -0.050000001 60 16 0
3.2179999 0.20299999 -0.052000001 69 16 0
3.2090001 0.212 -0.054000001 67 16 0
3.2049999 0.222 -0.057 66 16 0
3.2 0.23199999 -0.059 70 16 0
3.1900001 0.241 -0.061000001 67 16 0
3.1849999 0.25099999 -0.063000001 62 16 0
3.1789999 0.26100001 -0.064999998 73 16 0
3.171 0.27000001 -0.068000004 64 16 0
3.164 0.28 -0.07 59 16 0
3.1570001 0.289 -0.071999997 75 16 0
3.155 0.29899999 -0.074000001 60 16 0
3.1470001 0.308 -0.075999998 60 16 0
3.1440001 0.31799999 -0.078000002 53 16 0
3.1359999 0.32699999 -0.079999998 64 16 0
3.1329999 0.33700001 -0.082000002 71 16 0
3.1259999 0.34599999 -0.083999999 67 16 0
3.1140001 0.354 -0.086000003 81 16 0
3.1129999 0.36399999 -0.088 78 16 0
3.1070001 0.373 -0.090000004 71 16 0
3.1029999 0.38299999 -0.092 76 16 0
3.0999999 0.39300001 -0.093999997 80 16 0
3.0929999 0.40200001 -0.094999999 83 16 0
3.086 0.41 -0.097000003 88 16 0
3.0810001 0.41999999 -0.098999999 97 16 0
3.0780001 0.42899999 -0.101 90 16 0
3.0669999 0.43799999 -0.102 82 16 0
3.059 0.44600001 -0.104 82 16 0
3.0539999 0.45500001 -0.106 91 16 0
3.0480001 0.46399999 -0.107 89 16 0
3.0450001 0.47400001 -0.109 83 16 0
3.0409999 0.48300001 -0.111 86 16 0
3.0320001 0.491 -0.112 73 16 0
3.03 0.50099999 -0.114 94 16 0
3.0239999 0.50999999 -0.115 90 16 0
3.017 0.51800001 -0.117 80 16 0
3.0120001 0.52700001 -0.118 79 16 0
3.006 0.53600001 -0.119 87 16 0
3.0020001 0.54500002 -0.121 81 16 0
2.9990001 0.55400002 -0.122 102 16 0
2.99 0.56199998 -0.124 93 16 0
2.9890001 0.57200003 -0.125 80 16 0
2.98 0.57999998 -0.126 85 16 0
2.9779999 0.58899999 -0.12800001 106 16 0
2.967 0.597 -0.12899999 87 16 0
2.9649999 0.60600001 -0.13 89 16 0
2.96 0.61500001 -0.132 95 16 0
2.9560001 0.62400001 -0.133 85 16 0
2.948 0.63200003 -0.134 90 16 0
2.9449999 0.64099997 -0.13500001 94 16 0
2.937 0.64899999 -0.13600001 89 16 0
2.9349999 0.65799999 -0.13699999 95 16 0
2.9330001 0.667 -0.139 104 16 0
2.9230001 0.67500001 -0.139 104 16 0
2.921 0.68400002 -0.14 92 16 0
2.9189999 0.69300002 -0.142 100 16 0
2.914 0.70099998 -0.14300001 114 16 0
2.905 0.70899999 -0.14300001 117 16 0
2.905 0.71899998 -0.145 103 16 0
2.888 0.72399998 -0.145 106 16 0
2.885 0.73299998 -0.146 102 16 0
2.878 0.74000001 -0.147 105 16 0
2.8699999 0.74800003 -0.147 124 16 0
2.8729999 0.75800002 -0.148 129 16 0
2.869 0.76700002 -0.149 134 16 0
2.8629999 0.77499998 -0.15000001 136 16 0
2.8599999 0.78399998 -0.15099999 134 16 0
2.8559999 0.792 -0.152 133 16 0
2.8499999 0.80000001 -0.152 122 16 0
2.8469999 0.80900002 -0.153 145 16 0
2.8429999 0.81699997 -0.154 144 16 0
2.8369999 0.82499999 -0.154 150 16 0
2.8329999 0.833 -0.155 146 16 0
2.8329999 0.84299999 -0.156 150 16 0
2.819 0.84799999 -0.156 144 16 0
2.8169999 0.85699999 -0.156 150 16 0
2.816 0.866 -0.15700001 150 16 0
2.8110001 0.87400001 -0.15700001 150 16 0
2.803 0.88099998 -0.15800001 146 16 0
