# .PCD v0.7 - Point Cloud Data file format
VERSION 0.7
FIELDS x y z intensity tag line
SIZE 4 4 4 4 1 1
TYPE F F F F U U
COUNT 1 1 1 1 1 1
WIDTH 1355
HEIGHT 1
VIEWPOINT 0 0 0 1 0 0 0
POINTS 1355
DATA ascii
1.796 -0.49900001 1.045 150 16 0
1.788 -0.50099999 1.0420001 150 16 0
1.78 -0.50199997 1.04 150 16 0
1.786 -0.50700003 1.046 150 16 0
1.784 -0.50999999 1.048 150 16 0
1.781 -0.51300001 1.048 150 16 0
1.778 -0.51599997 1.048 150 16 0
1.776 -0.51899999 1.05 150 16 0
1.774 -0.52200001 1.051 150 16 0
1.776 -0.52600002 1.054 150 16 0
1.773 -0.52899998 1.054 150 16 0
1.766 -0.52999997 1.052 150 16 0
1.7640001 -0.53299999 1.053 150 16 0
1.763 -0.53600001 1.054 150 16 0
1.761 -0.53899997 1.054 150 16 0
1.76 -0.542 1.0549999 150 16 0
1.758 -0.54500002 1.056 150 16 0
1.756 -0.54699999 1.056 150 16 0
1.756 -0.551 1.057 150 16 0
1.755 -0.55400002 1.058 150 16 0
1.753 -0.55599999 1.058 150 16 0
1.7539999 -0.56 1.0599999 150 16 0
1.751 -0.56199998 1.059 150 16 0
1.7539999 -0.56599998 1.062 150 16 0
1.753 -0.56900001 1.062 150 16 0
1.758 -0.574 1.066 150 16 0
1.761 -0.57800001 1.068 150 16 0
1.762 -0.58099997 1.069 113 16 0
1.765 -0.58499998 1.072 94 16 0
1.766 -0.58899999 1.073 80 16 0
1.773 -0.59399998 1.0779999 66 19 0
1.775 -0.59799999 1.08 64 16 0
1.778 -0.602 1.081 63 16 0
1.781 -0.60500002 1.0829999 60 16 0
1.786 -0.61000001 1.087 55 16 0
1.7869999 -0.61299998 1.087 52 16 0
1.786 -0.616 1.086 51 16 0
1.7920001 -0.62099999 1.09 54 19 0
1.795 -0.62400001 1.091 50 16 0
1.802 -0.62900001 1.095 48 16 0
1.8049999 -0.63300002 1.096 50 16 0
1.804 -0.63599998 1.095 48 16 0
1.807 -0.639 1.096 45 16 0
1.808 -0.64200002 1.096 43 16 0
1.809 -0.64499998 1.096 45 16 0
1.8099999 -0.648 1.096 43 16 0
1.816 -0.65200001 1.098 44 19 0
1.816 -0.65399998 1.097 43 16 0
1.816 -0.65700001 1.096 42 16 0
1.816 -0.65899998 1.094 43 16 0
1.817 -0.66100001 1.094 44 16 0
1.819 -0.66399997 1.094 43 16 0
1.817 -0.66600001 1.091 38 16 0
1.819 -0.66900003 1.091 42 16 0
1.821 -0.671 1.09 43 16 0
1.822 -0.67400002 1.089 42 16 0
1.8200001 -0.67500001 1.086 42 16 0
1.821 -0.67699999 1.084 37 16 0
1.823 -0.67900002 1.084 40 16 0
1.821 -0.68000001 1.08 39 16 0
1.819 -0.68099999 1.077 40 16 0
1.819 -0.68300003 1.074 36 16 0
1.8200001 -0.685 1.073 41 16 0
1.8200001 -0.68599999 1.0700001 42 16 0
1.821 -0.68800002 1.068 41 16 0
1.821 -0.68900001 1.066 42 16 0
1.821 -0.69 1.063 46 16 0
1.818 -0.69 1.059 58 16 0
1.8150001 -0.69 1.054 71 16 0
1.811 -0.69 1.049 94 16 0
1.812 -0.69099998 1.046 95 16 0
1.814 -0.69300002 1.045 127 16 0
1.813 -0.69400001 1.041 150 16 0
1.814 -0.69499999 1.039 150 16 0
1.818 -0.69700003 1.0369999 150 16 0
1.821 -0.699 1.036 150 16 0
1.822 -0.69999999 1.033 150 16 0
1.8279999 -0.70300001 1.033 150 16 0
1.829 -0.704 1.03 150 16 0
1.835 -0.70700002 1.03 150 16 0
1.8380001 -0.70899999 1.028 150 16 0
1.8430001 -0.71100003 1.027 150 16 0
1.852 -0.71499997 1.028 150 16 0
1.853 -0.71499997 1.025 150 16 0
1.8559999 -0.71700001 1.022 150 16 0
1.865 -0.72000003 1.023 150 16 0
1.868 -0.722 1.021 150 16 0
1.872 -0.72299999 1.0190001 150 16 0
1.877 -0.72500002 1.017 150 16 0
1.881 -0.72600001 1.015 150 16 0
1.887 -0.72899997 1.0140001 150 16 0
1.892 -0.73000002 1.012 150 16 0
1.891 -0.72899997 1.007 150 16 0
1.897 -0.73100001 1.006 150 16 0
1.905 -0.73400003 1.005 150 16 0
1.911 -0.736 1.0039999 150 16 0
1.915 -0.73699999 1.002 150 16 0
1.919 -0.73799998 0.99900001 150 16 0
1.925 -0.73900002 0.99699998 150 16 0
1.934 -0.74199998 0.99699998 109 16 0
1.943 -0.745 0.99699998 83 16 0
1.9450001 -0.745 0.99299997 93 16 0
1.95 -0.74599999 0.991 117 16 0
1.949 -0.74400002 0.98500001 150 16 0
1.951 -0.74400002 0.98100001 150 16 0
1.962 -0.74699998 0.98100001 150 16 0
1.969 -0.74900001 0.97899997 150 16 0
1.978 -0.75099999 0.97799999 150 16 0
1.979 -0.75 0.97399998 150 16 0
1.987 -0.75099999 0.972 150 16 0
1.989 -0.75099999 0.96799999 150 16 0
1.997 -0.75199997 0.96600002 150 16 0
2.0039999 -0.75300002 0.96399999 150 16 0
2.0120001 -0.755 0.96200001 150 16 0
2.0179999 -0.75599998 0.95999998 150 16 0
2.0220001 -0.755 0.95599997 150 16 0
2.0320001 -0.75700003 0.95499998 134 16 0
2.0369999 -0.75700003 0.95099998 130 16 0
2.043 -0.75700003 0.94800001 143 16 0
2.049 -0.75800002 0.94499999 144 16 0
2.056 -0.759 0.94300002 144 16 0
2.063 -0.759 0.94 150 16 0
2.0680001 -0.759 0.93699998 150 16 0
2.073 -0.75800002 0.93300003 150 16 0
2.079 -0.75800002 0.93000001 150 16 0
2.075 -0.755 0.92199999 130 16 0
2.082 -0.755 0.91900003 107 16 0
2.089 -0.755 0.91600001 98 16 0
2.0910001 -0.75300002 0.91100001 95 16 0
2.0899999 -0.75099999 0.90499997 88 16 0
2.089 -0.74699998 0.898 101 16 0
2.098 -0.74800003 0.89600003 98 16 0
2.0940001 -0.74400002 0.88800001 92 16 0
2.096 -0.74199998 0.88300002 94 16 0
2.102 -0.74199998 0.87900001 86 16 0
2.0999999 -0.73799998 0.87199998 86 16 0
2.1040001 -0.73699999 0.86799997 81 16 0
2.1070001 -0.73500001 0.86299998 91 16 0
2.1099999 -0.73299998 0.85799998 81 16 0
2.112 -0.73100001 0.852 88 16 0
2.115 -0.72899997 0.847 86 16 0
2.118 -0.727 0.84200001 89 16 0
2.122 -0.72500002 0.83700001 101 16 0
2.1229999 -0.722 0.83200002 86 16 0
2.1259999 -0.72000003 0.82700002 89 16 0
2.1329999 -0.71899998 0.82300001 86 16 0
2.1329999 -0.71600002 0.81699997 83 16 0
2.1370001 -0.71399999 0.81199998 90 16 0
2.138 -0.71100003 0.80599999 89 16 0
2.141 -0.70899999 0.801 99 16 0
2.148 -0.708 0.79799998 95 16 0
2.151 -0.70499998 0.792 85 16 0
2.158 -0.704 0.78899997 92 16 0
2.161 -0.70099998 0.78299999 90 16 0
2.1630001 -0.69800001 0.778 92 16 0
2.168 -0.69599998 0.773 90 16 0
2.1719999 -0.69400001 0.76800001 87 16 0
2.178 -0.69199997 0.764 90 16 0
2.178 -0.68800002 0.75800002 91 16 0
2.1830001 -0.68599999 0.75300002 85 16 0
2.1889999 -0.68400002 0.74900001 88 16 0
2.1889999 -0.68000001 0.74299997 41 16 0
2.194 -0.67799997 0.73799998 37 16 0
2.2 -0.676 0.73400003 35 16 0
2.201 -0.67299998 0.72799999 39 16 0
2.2090001 -0.671 0.72399998 37 16 0
2.2079999 -0.667 0.71700001 35 16 0
2.2119999 -0.66399997 0.71200001 34 16 0
2.2179999 -0.66100001 0.708 37 16 0
2.2249999 -0.65899998 0.704 35 16 0
2.2279999 -0.65600002 0.69800001 33 16 0
2.2309999 -0.653 0.69300002 34 16 0
2.2379999 -0.65100002 0.68900001 43 16 0
2.2420001 -0.64700001 0.68400002 30 16 0
2.244 -0.64399999 0.67799997 41 16 0
2.2539999 -0.64200002 0.67500001 40 16 0
2.2579999 -0.639 0.67000002 44 16 0
2.2609999 -0.63599998 0.66399997 39 16 0
2.2690001 -0.63300002 0.66000003 38 16 0
2.27 -0.62900001 0.65399998 37 16 0
2.28 -0.62699997 0.64999998 47 16 0
2.2820001 -0.62400001 0.64499998 44 16 0
2.289 -0.62099999 0.63999999 42 16 0
2.293 -0.61699998 0.63499999 45 16 0
2.299 -0.61500001 0.63099998 47 16 0
2.302 -0.611 0.625 45 16 0
2.3080001 -0.60799998 0.62 39 16 0
2.3180001 -0.60600001 0.61699998 44 16 0
2.3210001 -0.60100001 0.611 43 16 0
2.326 -0.59799999 0.60600001 39 16 0
2.335 -0.59500003 0.602 39 16 0
2.3380001 -0.59100002 0.59600002 36 16 0
2.3410001 -0.58700001 0.59100002 34 16 0
2.3510001 -0.58499998 0.58700001 33 16 0
2.3570001 -0.58099997 0.58200002 36 16 0
2.3570001 -0.57700002 0.57599998 31 16 0
2.3670001 -0.574 0.57200003 33 16 0
2.3710001 -0.56999999 0.56699997 37 16 0
2.3740001 -0.56599998 0.56099999 37 16 0
2.3870001 -0.56400001 0.55800003 32 16 0
2.3870001 -0.55900002 0.55199999 36 16 0
2.3959999 -0.55599999 0.54699999 32 16 0
2.405 -0.55299997 0.54299998 32 16 0
2.4059999 -0.54799998 0.537 36 16 0
2.415 -0.54500002 0.53299999 32 16 0
2.4200001 -0.54100001 0.528 30 16 0
2.425 -0.537 0.52200001 32 16 0
2.4360001 -0.53399998 0.51800001 28 16 0
2.444 -0.52999997 0.514 27 16 0
2.444 -0.52499998 0.50700003 28 16 0
2.4530001 -0.52100003 0.50300002 28 16 0
2.4630001 -0.51800001 0.49900001 29 16 0
2.4719999 -0.51499999 0.49399999 29 16 0
2.4779999 -0.50999999 0.48899999 29 16 0
2.4849999 -0.50599998 0.484 29 16 0
2.4909999 -0.50199997 0.479 27 16 0
2.4979999 -0.498 0.47400001 26 16 0
2.503 -0.493 0.46900001 27 16 0
2.5109999 -0.48899999 0.46399999 27 16 0
2.523 -0.486 0.46000001 28 16 0
2.526 -0.48100001 0.454 28 16 0
2.536 -0.477 0.449 28 16 0
2.539 -0.472 0.44400001 27 16 0
2.553 -0.46900001 0.44 28 16 0
2.562 -0.46399999 0.435 27 16 0
2.5650001 -0.45899999 0.42899999 27 16 0
2.5710001 -0.45500001 0.42399999 27 16 0
2.5799999 -0.44999999 0.419 28 16 0
2.5899999 -0.44600001 0.414 28 16 0
2.598 -0.442 0.40900001 28 16 0
2.6099999 -0.43799999 0.405 29 16 0
2.618 -0.433 0.40000001 27 16 0
2.6240001 -0.428 0.39399999 24 16 0
2.6329999 -0.42300001 0.389 24 16 0
2.642 -0.419 0.384 25 16 0
2.652 -0.414 0.37900001 25 16 0
2.6600001 -0.40900001 0.37400001 24 16 0
2.6659999 -0.40400001 0.36899999 25 16 0
2.6800001 -0.40000001 0.36399999 25 16 0
2.6849999 -0.39500001 0.359 25 16 0
2.6949999 -0.38999999 0.354 23 16 0
2.697 -0.384 0.34799999 23 16 0
2.7060001 -0.37900001 0.34200001 24 16 0
2.7160001 -0.37400001 0.33700001 23 16 0
2.727 -0.36899999 0.33199999 23 16 0
2.7390001 -0.36500001 0.32699999 23 16 0
2.7449999 -0.359 0.322 23 16 0
2.757 -0.354 0.317 23 16 0
2.7650001 -0.34900001 0.31099999 24 16 0
2.7750001 -0.34299999 0.30599999 24 16 0
2.7839999 -0.338 0.30000001 24 16 0
2.79 -0.33199999 0.29499999 24 16 0
2.802 -0.32699999 0.289 24 16 0
2.8150001 -0.322 0.285 23 16 0
2.826 -0.31600001 0.27900001 22 16 0
2.8299999 -0.31 0.273 24 16 0
2.8410001 -0.30399999 0.26800001 23 16 0
2.8529999 -0.29899999 0.26199999 24 16 0
2.8610001 -0.29300001 0.257 23 16 0
2.8729999 -0.287 0.25099999 23 16 0
2.8859999 -0.28200001 0.24600001 24 16 0
2.8940001 -0.27599999 0.23999999 23 16 0
2.9059999 -0.27000001 0.235 23 16 0
2.9100001 -0.26300001 0.229 23 16 0
2.925 -0.25799999 0.223 23 16 0
2.944 -0.252 0.21799999 23 16 0
2.954 -0.24600001 0.212 23 16 0
2.9649999 -0.23999999 0.207 23 16 0
2.9779999 -0.234 0.20100001 23 16 0
2.9920001 -0.228 0.19499999 23 16 0
2.997 -0.221 0.189 23 16 0
3.013 -0.215 0.184 23 16 0
3.033 -0.20900001 0.178 24 16 0
3.0369999 -0.20200001 0.17200001 23 16 0
3.0539999 -0.19499999 0.16599999 23 16 0
3.0639999 -0.189 0.16 23 16 0
3.0799999 -0.182 0.154 22 16 0
3.0899999 -0.175 0.148 22 16 0
3.1040001 -0.168 0.142 23 16 0
3.118 -0.162 0.13600001 23 16 0
3.1340001 -0.155 0.13 24 16 0
3.148 -0.148 0.124 24 16 0
3.1619999 -0.141 0.118 24 16 0
3.175 -0.133 0.112 24 16 0
3.1930001 -0.126 0.106 24 16 0
3.2079999 -0.119 0.098999999 24 16 0
3.2179999 -0.112 0.093000002 23 16 0
3.234 -0.104 0.086999997 24 16 0
3.2409999 -0.096000001 0.079999998 25 16 0
3.2579999 -0.089000002 0.072999999 24 16 0
3.276 -0.081 0.067000002 24 16 0
3.2909999 -0.072999999 0.061000001 33 16 0
3.2920001 -0.064999998 0.054000001 100 16 0
3.2920001 -0.057 0.046999998 85 16 0
3.2780001 -0.048999999 0.039999999 76 16 0
3.2720001 -0.039999999 0.033 79 16 0
3.263 -0.032000002 0.026000001 98 16 0
3.2550001 -0.024 0.018999999 55 16 0
3.2520001 -0.016000001 0.013 26 16 0
3.267 -0.0080000004 0.0060000001 16 16 0
3.283 0 0 16 16 0
3.2939999 0.0080000004 -0.0060000001 17 16 0
3.313 0.016000001 -0.013 19 16 0
3.316 0.025 -0.02 34 16 0
3.316 0.033 -0.027000001 49 16 0
3.3010001 0.041000001 -0.033 46 16 0
3.299 0.050000001 -0.039999999 40 16 0
3.2980001 0.057999998 -0.046 38 16 0
3.283 0.066 -0.052999999 50 16 0
3.276 0.074000001 -0.059 47 16 0
3.2720001 0.082999997 -0.066 50 16 0
3.26 0.090999998 -0.071999997 51 16 0
3.256 0.098999999 -0.078000002 51 16 0
3.2509999 0.107 -0.085000001 51 16 0
3.2490001 0.115 -0.090999998 53 16 0
3.2390001 0.123 -0.097000003 53 16 0
3.2309999 0.131 -0.103 50 16 0
3.2290001 0.139 -0.11 53 16 0
3.221 0.147 -0.116 62 16 0
3.211 0.155 -0.122 51 16 0
3.2019999 0.163 -0.12800001 57 16 0
3.198 0.171 -0.134 58 16 0
3.187 0.17900001 -0.14 50 16 0
3.1819999 0.18700001 -0.146 53 16 0
3.1789999 0.19499999 -0.152 51 16 0
3.1659999 0.20200001 -0.15700001 51 16 0
3.1630001 0.20999999 -0.163 60 16 0
3.155 0.21799999 -0.169 49 16 0
3.1489999 0.226 -0.175 50 16 0
3.1440001 0.234 -0.18000001 58 16 0
3.1340001 0.241 -0.186 63 16 0
3.1210001 0.248 -0.191 56 16 0
3.1159999 0.25600001 -0.197 60 16 0
3.1129999 0.264 -0.20200001 62 16 0
3.1040001 0.27200001 -0.208 58 16 0
3.105 0.28 -0.214 65 16 0
3.095 0.287 -0.219 71 16 0
3.085 0.29499999 -0.22400001 69 16 0
3.0810001 0.30199999 -0.23 73 16 0
3.072 0.31 -0.235 75 16 0
3.062 0.317 -0.23999999 75 16 0
3.0599999 0.32499999 -0.245 74 16 0
3.052 0.33199999 -0.25 55 16 0
3.0480001 0.34 -0.25600001 62 16 0
3.0409999 0.347 -0.26100001 86 16 0
3.0320001 0.35499999 -0.266 82 16 0
3.0280001 0.36199999 -0.271 77 16 0
3.026 0.37 -0.27599999 91 16 0
3.017 0.377 -0.28099999 74 16 0
3.0109999 0.38499999 -0.28600001 87 16 0
3.006 0.39199999 -0.29100001 83 16 0
2.9990001 0.40000001 -0.296 82 16 0
2.9909999 0.40700001 -0.301 76 16 0
2.9890001 0.41499999 -0.30599999 95 16 0
2.9790001 0.421 -0.31 81 16 0
2.971 0.42899999 -0.315 88 16 0
2.9679999 0.43599999 -0.31999999 97 16 0
2.961 0.44299999 -0.324 86 16 0
2.9590001 0.45100001 -0.33000001 95 16 0
2.9489999 0.458 -0.33399999 100 16 0
2.9430001 0.465 -0.338 97 16 0
2.931 0.47099999 -0.34200001 93 16 0
2.9330001 0.47999999 -0.34799999 105 16 0
2.9200001 0.486 -0.35100001 107 16 0
2.918 0.49399999 -0.35600001 113 16 0
2.908 0.5 -0.36000001 104 16 0
2.9030001 0.50800002 -0.36500001 100 16 0
2.8989999 0.51499999 -0.36899999 121 16 0
2.895 0.523 -0.37400001 107 16 0
2.891 0.52999997 -0.37799999 107 16 0
2.8829999 0.537 -0.382 113 16 0
2.8770001 0.54400003 -0.38699999 111 16 0
2.8710001 0.551 -0.391 112 16 0
2.868 0.55800003 -0.39500001 118 16 0
2.8599999 0.565 -0.39899999 117 16 0
2.8529999 0.57200003 -0.403 130 16 0
2.845 0.57800001 -0.40700001 126 16 0
2.8429999 0.58600003 -0.41100001 129 16 0
2.836 0.59299999 -0.41499999 133 16 0
2.8310001 0.60000002 -0.419 135 16 0
2.8310001 0.60799998 -0.42399999 150 16 0
2.819 0.61400002 -0.42699999 132 16 0
2.8169999 0.62199998 -0.43099999 141 16 0
2.812 0.62900001 -0.435 140 16 0
2.8039999 0.63499999 -0.43900001 134 16 0
2.802 0.64300001 -0.44299999 142 16 0
2.799 0.64999998 -0.447 144 16 0
2.7839999 0.65499997 -0.449 150 16 0
2.7820001 0.66299999 -0.45300001 145 16 0
2.777 0.67000002 -0.45699999 150 16 0
2.7679999 0.676 -0.46000001 150 16 0
2.7650001 0.68300003 -0.46399999 150 16 0
2.7620001 0.69099998 -0.46799999 150 16 0
2.7590001 0.69800001 -0.472 150 16 0
2.75 0.704 -0.47499999 150 16 0
2.7479999 0.71200001 -0.479 150 16 0
2.7390001 0.71799999 -0.48199999 150 16 0
2.737 0.72500002 -0.486 150 16 0
2.7279999 0.73100001 -0.48800001 150 16 0
2.7190001 0.73699999 -0.491 150 16 0
2.7160001 0.74400002 -0.495 150 16 0
2.7130001 0.75199997 -0.498 150 16 0
2.7019999 0.75700003 -0.5 150 16 0
2.7079999 0.76700002 -0.50599998 150 16 0
2.7019999 0.773 -0.509 150 16 0
2.694 0.77899998 -0.51099998 150 16 0
2.6930001 0.787 -0.51499999 150 16 0
2.684 0.79299998 -0.51700002 150 16 0
2.6800001 0.79900002 -0.51999998 150 16 0
2.677 0.80699998 -0.52399999 150 16 0
2.665 0.81199998 -0.52600002 150 16 0
2.6600001 0.81800002 -0.528 150 16 0
2.6600001 0.82599998 -0.53200001 150 16 0
2.6570001 0.833 -0.53500003 150 16 0
2.645 0.838 -0.537 150 16 0
2.648 0.847 -0.54100001 150 16 0
2.6389999 0.85299999 -0.54299998 150 16 0
2.6340001 0.85900003 -0.546 150 16 0
2.6289999 0.866 -0.54799998 150 16 0
2.6270001 0.87300003 -0.55199999 150 16 0
2.618 0.87800002 -0.55299997 150 16 0
2.615 0.88599998 -0.55599999 150 16 0
2.612 0.89300001 -0.55900002 150 16 0
2.609 0.89999998 -0.56199998 150 16 0
2.605 0.90700001 -0.565 150 16 0
2.6029999 0.91399997 -0.56800002 150 16 0
2.596 0.92000002 -0.56900001 150 16 0
2.5929999 0.92699999 -0.57200003 150 16 0
2.5899999 0.93400002 -0.57499999 150 16 0
2.5840001 0.94 -0.57700002 150 16 0
2.5780001 0.94599998 -0.579 150 16 0
2.5769999 0.954 -0.58200002 117 16 0
2.586 0.96499997 -0.58700001 150 16 0
2.576 0.97000003 -0.588 150 16 0
2.5550001 0.97000003 -0.58600003 150 16 0
2.5510001 0.977 -0.588 150 16 0
2.549 0.98400003 -0.59100002 150 16 0
2.543 0.99000001 -0.59200001 150 16 0
2.5380001 0.99599999 -0.59399998 150 16 0
2.5350001 1.003 -0.59600002 150 16 0
2.5320001 1.0089999 -0.59799999 150 16 0
2.526 1.015 -0.60000002 150 16 0
2.523 1.022 -0.602 150 16 0
2.52 1.029 -0.60399997 150 16 0
2.513 1.034 -0.60500002 150 16 0
2.51 1.041 -0.60699999 150 16 0
2.51 1.049 -0.60900003 150 16 0
2.5039999 1.054 -0.611 150 16 0
2.5 1.061 -0.61199999 150 16 0
2.5 1.069 -0.61500001 150 16 0
2.494 1.074 -0.616 150 16 0
2.4890001 1.08 -0.61699998 150 16 0
2.4860001 1.086 -0.61799997 150 16 0
2.4820001 1.0930001 -0.62 150 16 0
2.4790001 1.099 -0.62099999 150 16 0
2.4760001 1.1059999 -0.62300003 150 16 0
2.473 1.112 -0.62400001 150 16 0
2.4660001 1.117 -0.625 150 16 0
2.4630001 1.123 -0.62599999 150 16 0
2.457 1.128 -0.62599999 150 16 0
2.4560001 1.136 -0.62800002 150 16 0
2.4519999 1.142 -0.62900001 150 16 0
2.45 1.148 -0.63 150 16 0
2.444 1.153 -0.63099998 150 16 0
2.441 1.159 -0.63200003 150 16 0
2.4389999 1.166 -0.63300002 150 16 0
2.4300001 1.17 -0.63200003 132 16 0
2.431 1.178 -0.634 131 16 0
2.424 1.182 -0.634 137 16 0
2.421 1.188 -0.63499999 92 16 0
2.4170001 1.193 -0.63499999 82 16 0
2.414 1.199 -0.63599998 88 16 0
2.418 1.209 -0.63800001 76 16 0
2.415 1.214 -0.639 41 16 0
2.4089999 1.219 -0.639 34 16 0
2.408 1.226 -0.63999999 36 16 0
2.408 1.233 -0.64099997 35 16 0
2.398 1.235 -0.639 57 16 0
2.3940001 1.2410001 -0.639 150 16 0
2.3940001 1.247 -0.63999999 150 16 0
2.388 1.252 -0.63999999 150 16 0
2.3840001 1.257 -0.639 150 16 0
2.3840001 1.2640001 -0.63999999 150 16 0
2.3789999 1.268 -0.63999999 150 16 0
2.375 1.273 -0.639 141 16 0
2.3740001 1.279 -0.63999999 150 16 0
2.372 1.285 -0.63999999 137 16 0
2.3729999 1.293 -0.64099997 85 16 0
2.3659999 1.296 -0.639 69 16 0
2.3640001 1.301 -0.639 36 16 0
2.3670001 1.309 -0.63999999 23 16 0
2.3659999 1.316 -0.63999999 20 16 0
2.3570001 1.317 -0.63800001 25 16 0
2.3570001 1.323 -0.63800001 27 16 0
2.3540001 1.3279999 -0.63800001 24 16 0
2.352 1.334 -0.63700002 21 16 0
2.3510001 1.34 -0.63700002 45 16 0
2.342 1.34 -0.63499999 141 16 0
2.339 1.345 -0.634 150 16 0
2.3369999 1.35 -0.63300002 143 16 0
2.3340001 1.354 -0.63200003 150 16 0
2.336 1.362 -0.63300002 150 16 0
2.3310001 1.365 -0.63099998 150 16 0
2.332 1.3710001 -0.63099998 150 16 0
2.3299999 1.376 -0.63 150 16 0
2.326 1.3789999 -0.62800002 150 16 0
2.326 1.3839999 -0.62800002 150 16 0
2.323 1.3890001 -0.62599999 150 16 0
2.322 1.393 -0.625 150 16 0
2.3199999 1.398 -0.62400001 150 16 0
2.3169999 1.401 -0.62199998 150 16 0
2.316 1.406 -0.62099999 150 16 0
2.3150001 1.411 -0.62 150 16 0
2.3099999 1.4119999 -0.61799997 150 16 0
2.3099999 1.4170001 -0.61699998 150 16 0
2.3080001 1.421 -0.61500001 150 16 0
2.306 1.425 -0.61299998 150 16 0
2.3039999 1.428 -0.61199999 150 16 0
2.3039999 1.433 -0.61000001 150 16 0
2.302 1.437 -0.60900003 150 16 0
2.2980001 1.438 -0.60600001 150 16 0
2.2980001 1.442 -0.60399997 150 16 0
2.2950001 1.4450001 -0.602 150 16 0
2.296 1.45 -0.60100001 150 16 0
2.2950001 1.4529999 -0.59899998 150 16 0
2.293 1.456 -0.597 143 16 0
2.296 1.462 -0.59600002 135 16 0
2.299 1.467 -0.59500003 122 16 0
2.2950001 1.469 -0.59200001 86 16 0
2.2939999 1.472 -0.58999997 61 16 0
2.2939999 1.475 -0.588 72 16 0
2.2909999 1.476 -0.58499998 74 16 0
2.2920001 1.4809999 -0.583 80 16 0
2.293 1.485 -0.58099997 88 16 0
2.29 1.4859999 -0.57800001 86 16 0
2.289 1.488 -0.57599998 83 16 0
2.293 1.493 -0.574 68 16 0
2.29 1.494 -0.57099998 71 16 0
2.29 1.497 -0.56900001 63 16 0
2.2880001 1.498 -0.56599998 61 16 0
2.286 1.499 -0.56300002 56 16 0
2.29 1.5039999 -0.56099999 61 16 0
2.29 1.506 -0.55900002 76 16 0
2.289 1.508 -0.55599999 94 16 0
2.2909999 1.511 -0.55400002 112 16 0
2.289 1.512 -0.55000001 115 16 0
2.286 1.511 -0.54699999 132 16 0
2.289 1.515 -0.54500002 118 16 0
2.2939999 1.5190001 -0.54299998 133 16 0
2.29 1.518 -0.53899997 131 16 0
2.29 1.52 -0.53600001 134 16 0
2.2920001 1.522 -0.53299999 140 16 0
2.2909999 1.522 -0.52999997 135 16 0
2.2939999 1.525 -0.52700001 140 16 0
2.2909999 1.524 -0.52399999 137 16 0
2.2939999 1.526 -0.52100003 136 16 0
2.2950001 1.528 -0.51800001 143 16 0
2.299 1.531 -0.51599997 143 16 0
2.296 1.529 -0.51200002 142 16 0
2.296 1.529 -0.509 140 16 0
2.3010001 1.533 -0.50599998 140 16 0
2.299 1.531 -0.50199997 142 16 0
2.299 1.531 -0.49900001 134 16 0
2.3050001 1.535 -0.49700001 122 16 0
2.303 1.533 -0.493 107 16 0
2.306 1.534 -0.49000001 77 16 0
2.309 1.536 -0.48699999 66 16 0
2.3099999 1.535 -0.48300001 68 16 0
2.3110001 1.535 -0.47999999 64 16 0
2.312 1.535 -0.47600001 66 16 0
2.3110001 1.533 -0.47299999 56 16 0
2.316 1.535 -0.47 58 16 0
2.3180001 1.535 -0.46599999 77 16 0
2.316 1.5319999 -0.46200001 117 16 0
2.319 1.5319999 -0.45899999 150 16 0
2.3210001 1.5319999 -0.456 150 16 0
2.325 1.533 -0.45199999 150 16 0
2.329 1.533 -0.449 150 16 0
2.3299999 1.5319999 -0.44600001 150 16 0
2.3269999 1.528 -0.44100001 150 16 0
2.335 1.531 -0.43900001 150 16 0
2.335 1.528 -0.435 150 16 0
2.3369999 1.527 -0.43099999 150 16 0
2.3399999 1.526 -0.428 150 16 0
2.342 1.525 -0.42399999 150 16 0
2.3429999 1.523 -0.421 150 16 0
2.345 1.521 -0.417 150 16 0
2.3469999 1.5190001 -0.41299999 150 16 0
2.349 1.517 -0.41 150 16 0
2.3510001 1.515 -0.40599999 150 16 0
2.358 1.516 -0.403 150 16 0
2.355 1.511 -0.39899999 150 16 0
2.362 1.511 -0.396 150 16 0
2.359 1.506 -0.391 150 16 0
2.365 1.506 -0.38800001 150 16 0
2.3729999 1.507 -0.38499999 150 16 0
2.3710001 1.501 -0.38100001 150 16 0
2.372 1.498 -0.377 150 16 0
2.378 1.498 -0.37400001 150 16 0
2.381 1.495 -0.37 150 16 0
2.381 1.49 -0.366 150 16 0
2.3870001 1.49 -0.36300001 150 16 0
2.391 1.488 -0.36000001 150 16 0
2.392 1.483 -0.35600001 150 16 0
2.395 1.48 -0.352 150 16 0
2.3970001 1.477 -0.34900001 150 16 0
2.4000001 1.473 -0.345 150 16 0
2.4070001 1.473 -0.34200001 150 16 0
2.4119999 1.471 -0.33899999 150 16 0
2.408 1.4630001 -0.33399999 150 16 0
2.418 1.4630001 -0.331 150 16 0
2.418 1.4579999 -0.32699999 150 16 0
2.421 1.454 -0.324 150 16 0
2.4260001 1.452 -0.32100001 150 16 0
2.428 1.447 -0.317 150 16 0
2.428 1.442 -0.31299999 150 16 0
2.4360001 1.4400001 -0.31 150 16 0
2.4400001 1.437 -0.30700001 150 16 0
2.4430001 1.432 -0.303 150 16 0
2.4489999 1.4299999 -0.30000001 150 16 0
2.451 1.425 -0.296 150 16 0
2.4549999 1.421 -0.29300001 150 16 0
2.4590001 1.4170001 -0.289 150 16 0
2.4619999 1.4119999 -0.28600001 150 16 0
2.4649999 1.4069999 -0.28299999 150 16 0
2.4679999 1.403 -0.27900001 150 16 0
2.473 1.399 -0.27599999 150 16 0
2.474 1.393 -0.27200001 150 16 0
2.483 1.392 -0.27000001 150 16 0
2.4860001 1.386 -0.266 150 16 0
2.4860001 1.3789999 -0.26199999 150 16 0
2.487 1.373 -0.259 150 16 0
2.4960001 1.3710001 -0.25600001 150 16 0
2.4990001 1.3660001 -0.25299999 150 16 0
2.5050001 1.362 -0.25 150 16 0
2.507 1.3559999 -0.24699999 150 16 0
2.5090001 1.35 -0.243 150 16 0
2.5139999 1.345 -0.23999999 150 16 0
2.5179999 1.34 -0.237 150 16 0
2.526 1.337 -0.234 150 16 0
2.526 1.329 -0.23100001 150 16 0
2.53 1.324 -0.228 150 16 0
2.5350001 1.319 -0.22499999 150 16 0
2.539 1.314 -0.222 150 16 0
2.546 1.3099999 -0.219 150 16 0
2.55 1.304 -0.21600001 150 16 0
2.5550001 1.299 -0.213 150 16 0
2.5610001 1.294 -0.20999999 150 16 0
2.5599999 1.286 -0.207 150 16 0
2.569 1.2819999 -0.204 150 16 0
2.572 1.276 -0.20100001 150 16 0
2.575 1.27 -0.198 150 16 0
2.5829999 1.266 -0.19599999 150 16 0
2.5869999 1.2589999 -0.193 150 16 0
2.5899999 1.253 -0.19 150 16 0
2.5929999 1.2460001 -0.18700001 150 16 0
2.598 1.2410001 -0.184 150 16 0
2.602 1.234 -0.18099999 150 16 0
2.608 1.229 -0.17900001 150 16 0
2.6110001 1.222 -0.176 150 16 0
2.6140001 1.215 -0.17299999 150 16 0
2.6199999 1.209 -0.171 150 16 0
2.6229999 1.202 -0.168 150 16 0
2.6270001 1.196 -0.16500001 150 16 0
2.632 1.1900001 -0.163 150 16 0
2.6389999 1.1849999 -0.16 150 16 0
2.642 1.178 -0.15800001 150 16 0
2.6489999 1.1720001 -0.155 150 16 0
2.6530001 1.165 -0.153 150 16 0
2.6559999 1.158 -0.15000001 150 16 0
2.6589999 1.151 -0.148 150 16 0
2.668 1.146 -0.145 150 16 0
2.671 1.138 -0.14300001 150 16 0
2.6760001 1.132 -0.14 150 16 0
2.681 1.125 -0.138 150 16 0
2.684 1.118 -0.13600001 150 16 0
2.6860001 1.11 -0.133 150 16 0
2.698 1.1059999 -0.131 150 16 0
2.6930001 1.095 -0.12800001 150 16 0
2.704 1.091 -0.126 150 16 0
2.7079999 1.0829999 -0.124 150 16 0
2.7079999 1.075 -0.122 150 16 0
2.714 1.068 -0.12 150 16 0
2.7190001 1.061 -0.117 150 16 0
2.7219999 1.053 -0.115 150 16 0
2.7290001 1.0470001 -0.113 150 16 0
2.7360001 1.04 -0.111 150 16 0
2.7390001 1.0319999 -0.109 150 16 0
2.7449999 1.026 -0.107 150 16 0
2.747 1.017 -0.105 150 16 0
2.7509999 1.01 -0.103 150 16 0
2.76 1.0039999 -0.101 150 16 0
2.763 0.99599999 -0.098999999 150 16 0
2.7620001 0.986 -0.097000003 150 16 0
2.7720001 0.98000002 -0.094999999 150 16 0
2.7880001 0.977 -0.093000002 43 16 0
2.7869999 0.96700001 -0.090999998 43 16 0
2.7920001 0.95999998 -0.089000002 150 16 0
2.793 0.95099998 -0.086999997 150 16 0
2.7969999 0.94300002 -0.086000003 150 16 0
2.806 0.93699998 -0.083999999 150 16 0
2.8050001 0.92699999 -0.082000002 150 16 0
2.806 0.91799998 -0.079999998 150 16 0
2.8150001 0.912 -0.078000002 150 16 0
2.8210001 0.90399998 -0.077 150 16 0
2.8210001 0.89499998 -0.075000003 150 16 0
2.8299999 0.88800001 -0.072999999 150 16 0
2.8329999 0.88 -0.071999997 150 16 0
2.8369999 0.87099999 -0.07 150 16 0
2.845 0.86400002 -0.068000004 150 16 0
2.8510001 0.85699999 -0.067000002 150 16 0
2.8559999 0.84899998 -0.064999998 150 16 0
2.862 0.84100002 -0.064000003 150 16 0
2.8699999 0.83399999 -0.061999999 150 16 0
2.8699999 0.824 -0.061000001 150 16 0
2.8770001 0.81699997 -0.059 150 16 0
2.8829999 0.80900002 -0.057999998 150 16 0
2.888 0.801 -0.056000002 150 16 0
2.892 0.792 -0.055 150 16 0
2.8959999 0.78399998 -0.052999999 150 16 0
2.902 0.77600002 -0.052000001 150 16 0
2.9070001 0.76700002 -0.050999999 150 16 0
2.911 0.759 -0.048999999 150 16 0
2.9200001 0.75099999 -0.048 150 16 0
2.9200001 0.74199998 -0.046999998 150 16 0
2.927 0.73400003 -0.045000002 150 16 0
2.9289999 0.72399998 -0.044 150 16 0
2.9389999 0.71700001 -0.043000001 150 16 0
2.941 0.708 -0.041000001 150 16 0
2.947 0.69999999 -0.039999999 150 16 0
2.951 0.69099998 -0.039000001 150 16 0
2.954 0.68199998 -0.037999999 150 16 0
2.961 0.67400002 -0.037 150 16 0
2.9690001 0.66500002 -0.035999998 133 16 0
2.971 0.65600002 -0.034000002 140 16 0
2.9779999 0.648 -0.033 122 16 0
2.983 0.639 -0.032000002 138 16 0
2.9860001 0.63 -0.030999999 142 16 0
2.99 0.62099999 -0.029999999 127 16 0
2.9960001 0.61199999 -0.028999999 126 16 0
3 0.60299999 -0.028000001 129 16 0
3.0090001 0.59500003 -0.027000001 125 16 0
3.016 0.58700001 -0.026000001 128 16 0
3.016 0.57700002 -0.025 122 16 0
3.02 0.56800002 -0.024 119 16 0
3.03 0.55900002 -0.023 135 16 0
3.0350001 0.55000001 -0.022 133 16 0
3.0369999 0.54100001 -0.021 118 16 0
3.0450001 0.53200001 -0.021 117 16 0
3.0469999 0.523 -0.02 117 16 0
3.053 0.514 -0.018999999 129 16 0
3.0580001 0.50400001 -0.017999999 117 16 0
3.0680001 0.49599999 -0.017000001 123 16 0
3.0699999 0.486 -0.016000001 113 16 0
3.079 0.47799999 -0.016000001 119 16 0
3.085 0.46900001 -0.015 115 16 0
3.0869999 0.45899999 -0.014 89 16 0
3.098 0.44999999 -0.013 118 16 0
3.099 0.44 -0.013 97 16 0
3.1040001 0.43099999 -0.012 105 16 0
3.1099999 0.421 -0.011 107 16 0
3.1170001 0.412 -0.011 97 16 0
3.1159999 0.40200001 -0.0099999998 88 16 0
3.1259999 0.39300001 -0.0099999998 92 16 0
3.131 0.38299999 -0.0089999996 100 16 0
3.1429999 0.375 -0.0080000004 105 16 0
3.1440001 0.36500001 -0.0080000004 100 16 0
3.152 0.35499999 -0.0070000002 99 16 0
3.154 0.345 -0.0070000002 93 16 0
3.158 0.33500001 -0.0060000001 98 16 0
3.165 0.32600001 -0.0060000001 93 16 0
3.174 0.31600001 -0.0049999999 86 16 0
3.178 0.30599999 -0.0049999999 90 16 0
3.181 0.296 -0.0040000002 84 16 0
3.191 0.287 -0.0040000002 87 16 0
3.1919999 0.27599999 -0.0040000002 76 16 0
3.2019999 0.26699999 -0.003 82 16 0
3.2079999 0.257 -0.003 84 16 0
3.217 0.24699999 -0.003 85 16 0
3.2249999 0.237 -0.0020000001 110 16 0
3.2249999 0.227 -0.0020000001 92 16 0
3.2320001 0.21699999 -0.0020000001 91 16 0
3.234 0.207 -0.001 85 16 0
3.2379999 0.19599999 -0.001 83 16 0
3.247 0.186 -0.001 75 16 0
3.2490001 0.176 -0.001 78 16 0
3.2509999 0.16599999 0 75 16 0
3.2590001 0.155 0 79 16 0
3.266 0.145 0 87 16 0
3.2690001 0.13500001 0 74 16 0
3.277 0.124 0 74 16 0
3.2820001 0.114 0 77 16 0
3.289 0.103 0 61 16 0
3.289 0.093000002 0 70 16 0
3.2980001 0.082000002 0 66 16 0
3.299 0.071999997 0 65 16 0
3.3110001 0.061000001 0 45 16 0
3.3150001 0.050999999 0 50 16 0
3.313 0.039999999 0 60 16 0
3.325 0.028999999 0 48 16 0
3.3139999 0.017999999 0 21 16 0
3.286 0.0070000002 0 19 16 0
3.2709999 -0.0020000001 0 18 16 0
3.2449999 -0.013 0 28 16 0
3.2420001 -0.023 0 131 16 0
3.2479999 -0.034000002 0 150 16 0
3.2609999 -0.044 0 130 16 0
3.263 -0.055 0 150 16 0
3.266 -0.066 0 150 16 0
3.253 -0.075999998 -0.001 32 16 0
3.227 -0.086000003 -0.001 28 16 0
3.211 -0.096000001 -0.001 29 16 0
3.1900001 -0.105 -0.001 29 16 0
3.1630001 -0.115 -0.0020000001 29 16 0
3.1459999 -0.124 -0.0020000001 29 16 0
3.1240001 -0.133 -0.0020000001 27 16 0
3.1010001 -0.142 -0.0020000001 28 16 0
3.0799999 -0.152 -0.003 27 16 0
3.059 -0.16 -0.003 28 16 0
3.0409999 -0.169 -0.003 28 16 0
3.0079999 -0.177 -0.0040000002 28 16 0
3.0020001 -0.18700001 -0.0040000002 27 16 0
2.9749999 -0.19499999 -0.0049999999 28 16 0
2.96 -0.20299999 -0.0049999999 28 16 0
2.941 -0.211 -0.0049999999 28 16 0
2.9189999 -0.219 -0.0060000001 29 16 0
2.9059999 -0.228 -0.0060000001 29 16 0
2.8829999 -0.235 -0.0070000002 27 16 0
2.8640001 -0.243 -0.0070000002 28 16 0
2.848 -0.25099999 -0.0080000004 29 16 0
2.8329999 -0.259 -0.0080000004 29 16 0
2.8110001 -0.266 -0.0089999996 29 16 0
2.799 -0.27399999 -0.0089999996 29 16 0
2.779 -0.28099999 -0.0099999998 29 16 0
2.763 -0.28799999 -0.0099999998 29 16 0
2.744 -0.29499999 -0.011 30 16 0
2.733 -0.303 -0.011 32 16 0
2.7219999 -0.31099999 -0.012 31 16 0
2.7090001 -0.31799999 -0.012 32 16 0
2.6900001 -0.32499999 -0.013 33 16 0
2.675 -0.331 -0.013 32 16 0
2.655 -0.338 -0.014 31 16 0
2.6400001 -0.34400001 -0.015 33 16 0
2.6259999 -0.35100001 -0.015 34 16 0
2.6110001 -0.35800001 -0.016000001 31 16 0
2.596 -0.36399999 -0.016000001 33 16 0
2.5840001 -0.37099999 -0.017000001 33 16 0
2.5669999 -0.377 -0.017999999 42 16 0
2.55 -0.38299999 -0.017999999 41 16 0
2.5339999 -0.38800001 -0.018999999 39 16 0
2.527 -0.396 -0.02 48 16 0
2.5120001 -0.40200001 -0.02 51 16 0
2.493 -0.40700001 -0.021 53 16 0
2.48 -0.41299999 -0.022 52 16 0
2.4690001 -0.419 -0.022 52 16 0
2.4590001 -0.42500001 -0.023 56 16 0
2.448 -0.43099999 -0.024 67 16 0
2.4330001 -0.43700001 -0.025 60 16 0
2.4159999 -0.442 -0.025 45 16 0
2.4070001 -0.44800001 -0.026000001 57 16 0
2.3959999 -0.454 -0.027000001 58 16 0
2.378 -0.458 -0.028000001 61 16 0
2.3640001 -0.463 -0.028000001 55 16 0
2.3540001 -0.46900001 -0.028999999 56 16 0
2.3440001 -0.47400001 -0.029999999 61 16 0
2.3299999 -0.479 -0.030999999 57 16 0
2.3199999 -0.48500001 -0.032000002 60 16 0
2.3050001 -0.48899999 -0.032000002 66 16 0
2.2869999 -0.493 -0.033 66 16 0
2.2809999 -0.49900001 -0.034000002 68 16 0
2.273 -0.505 -0.035 68 16 0
2.26 -0.50999999 -0.035999998 69 16 0
2.2490001 -0.51499999 -0.037 70 16 0
2.2379999 -0.51899999 -0.037999999 66 16 0
2.2249999 -0.52399999 -0.039000001 75 16 0
2.2130001 -0.528 -0.039000001 81 16 0
2.2030001 -0.53299999 -0.039999999 82 16 0
2.1919999 -0.53799999 -0.041000001 91 16 0
2.1849999 -0.54299998 -0.041999999 90 16 0
2.1689999 -0.546 -0.043000001 100 16 0
2.1500001 -0.54900002 -0.044 97 16 0
2.1470001 -0.55500001 -0.045000002 100 16 0
2.1359999 -0.55900002 -0.046 88 16 0
2.125 -0.56300002 -0.046999998 109 16 0
2.1129999 -0.56699997 -0.048 98 16 0
2.1040001 -0.57200003 -0.048999999 101 16 0
2.0999999 -0.57700002 -0.050000001 101 16 0
2.0880001 -0.58099997 -0.050999999 105 16 0
2.0769999 -0.58499998 -0.052000001 100 16 0
2.0669999 -0.58899999 -0.052999999 101 16 0
2.053 -0.59200001 -0.054000001 114 16 0
2.0480001 -0.597 -0.055 100 16 0
2.0380001 -0.60100001 -0.056000002 118 16 0
2.027 -0.60500002 -0.057 131 16 0
2.02 -0.60900003 -0.057999998 132 16 0
2.0090001 -0.61199999 -0.059 128 16 0
2 -0.616 -0.059999999 127 16 0
1.9910001 -0.62 -0.061000001 130 16 0
1.985 -0.625 -0.061999999 139 16 0
1.973 -0.62800002 -0.063000001 128 16 0
1.962 -0.63099998 -0.064000003 120 16 0
1.947 -0.63200003 -0.064999998 129 16 0
1.941 -0.63700002 -0.066 120 16 0
1.937 -0.64200002 -0.068000004 132 16 0
1.927 -0.64499998 -0.068999998 142 16 0
1.921 -0.64899999 -0.07 145 16 0
1.9170001 -0.65399998 -0.071000002 134 16 0
1.905 -0.65600002 -0.071999997 130 16 0
1.895 -0.65899998 -0.072999999 145 16 0
1.888 -0.66299999 -0.075000003 150 16 0
1.88 -0.667 -0.075999998 142 16 0
1.869 -0.66900003 -0.077 150 16 0
1.865 -0.67299998 -0.078000002 145 16 0
1.86 -0.67799997 -0.079999998 2 0 0
1.85 -0.68000001 -0.081 2 0 0
1.8430001 -0.68400002 -0.082000002 2 0 0
1.831 -0.685 -0.082999997 2 0 0
1.8279999 -0.69 -0.085000001 1 0 0
1.817 -0.69199997 -0.086000003 2 0 0
1.812 -0.69599998 -0.086999997 2 0 0
1.804 -0.699 -0.088 1 0 0
1.796 -0.70200002 -0.090000004 3 0 0
1.79 -0.70499998 -0.090999998 5 0 0
1.783 -0.70899999 -0.092 144 16 0
1.774 -0.71100003 -0.093999997 1 0 0
1.767 -0.71399999 -0.094999999 2 0 0
1.7640001 -0.71799999 -0.097000003 1 0 0
1.757 -0.72100002 -0.097999997 1 0 0
1.751 -0.72399998 -0.098999999 1 0 0
1.7410001 -0.72600001 -0.101 2 0 0
1.733 -0.72799999 -0.102 3 0 0
1.725 -0.73000002 -0.103 1 0 0
1.714 -0.73100001 -0.104 1 0 0
1.71 -0.73500001 -0.106 150 16 0
1.709 -0.74000001 -0.108 2 0 0
1.696 -0.74000001 -0.109 2 0 0
1.6950001 -0.745 -0.11 1 0 0
1.686 -0.74599999 -0.112 2 0 0
1.681 -0.75 -0.113 1 0 0
1.673 -0.75099999 -0.115 53 0 0
1.669 -0.755 -0.116 4 0 0
1.661 -0.75700003 -0.118 66 0 0
1.656 -0.759 -0.119 53 0 0
1.648 -0.76099998 -0.121 46 0 0
1.645 -0.76499999 -0.122 45 0 0
1.635 -0.76499999 -0.123 48 0 0
1.631 -0.76899999 -0.125 61 0 0
1.624 -0.77100003 -0.127 100 0 0
1.62 -0.773 -0.12800001 75 0 0
1.608 -0.773 -0.12899999 69 0 0
1.602 -0.77499998 -0.131 83 0 0
1.597 -0.778 -0.133 81 0 0
1.594 -0.78100002 -0.134 66 0 0
1.5880001 -0.78299999 -0.13600001 66 0 0
1.585 -0.78600001 -0.138 70 0 0
1.581 -0.78899997 -0.139 81 0 0
1.573 -0.79000002 -0.141 56 0 0
1.571 -0.79299998 -0.14300001 56 0 0
1.5599999 -0.79299998 -0.14399999 71 0 0
1.558 -0.796 -0.146 57 0 0
1.551 -0.79699999 -0.147 68 0 0
1.552 -0.80199999 -0.149 67 0 0
1.543 -0.80199999 -0.15099999 93 0 0
1.5420001 -0.80599999 -0.153 84 0 0
1.529 -0.80400002 -0.154 96 0 0
1.527 -0.80699998 -0.156 69 0 0
1.524 -0.81 -0.15700001 85 0 0
1.518 -0.81099999 -0.15899999 78 0 0
1.512 -0.81300002 -0.161 61 0 0
1.51 -0.81599998 -0.163 109 0 0
1.503 -0.81599998 -0.164 90 0 0
1.498 -0.81699997 -0.16599999 70 0 0
1.494 -0.81999999 -0.168 80 0 0
1.488 -0.81999999 -0.169 91 0 0
1.4859999 -0.82300001 -0.171 94 0 0
1.4809999 -0.82499999 -0.17299999 66 0 0
1.475 -0.82499999 -0.17399999 71 0 0
1.472 -0.82800001 -0.176 72 0 0
1.4680001 -0.829 -0.178 75 0 0
1.4630001 -0.82999998 -0.18000001 87 0 0
1.459 -0.83200002 -0.182 78 0 0
1.457 -0.83399999 -0.184 81 0 0
1.456 -0.838 -0.186 74 0 0
1.45 -0.838 -0.18799999 97 0 0
1.448 -0.83999997 -0.19 96 0 0
1.439 -0.838 -0.191 141 0 0
1.4349999 -0.83999997 -0.193 93 0 0
1.4299999 -0.83999997 -0.19400001 118 0 0
1.429 -0.84299999 -0.19599999 135 0 0
1.428 -0.84600002 -0.199 118 0 0
1.4220001 -0.84500003 -0.2 101 0 0
1.418 -0.84600002 -0.20200001 126 0 0
1.413 -0.847 -0.204 103 0 0
1.4119999 -0.84899998 -0.206 87 0 0
1.408 -0.85000002 -0.208 122 0 0
1.404 -0.85100001 -0.20999999 125 0 0
1.402 -0.852 -0.212 99 0 0
1.399 -0.85299999 -0.213 122 0 0
1.397 -0.85500002 -0.21600001 122 0 0
1.391 -0.85500002 -0.21699999 122 0 0
1.392 -0.85799998 -0.219 135 0 0
1.388 -0.85799998 -0.221 150 0 0
1.383 -0.85799998 -0.223 147 0 0
1.385 -0.86199999 -0.226 135 0 0
1.3839999 -0.86400002 -0.228 137 0 0
1.378 -0.86299998 -0.229 112 0 0
1.377 -0.86400002 -0.23100001 121 0 0
1.375 -0.86500001 -0.233 123 0 0
1.374 -0.86699998 -0.236 150 0 0
1.372 -0.86799997 -0.23800001 123 0 0
1.3710001 -0.87 -0.23999999 132 0 0
1.365 -0.86799997 -0.241 103 0 0
1.3660001 -0.87099999 -0.244 141 0 0
1.36 -0.86900002 -0.245 131 0 0
1.359 -0.87099999 -0.24699999 131 0 0
1.357 -0.87099999 -0.249 150 0 0
1.351 -0.86900002 -0.25099999 119 0 0
1.353 -0.87199998 -0.25299999 141 0 0
1.352 -0.87400001 -0.255 143 0 0
1.346 -0.87099999 -0.25600001 150 3 0
1.348 -0.87400001 -0.259 150 0 0
1.344 -0.87300003 -0.26100001 138 0 0
1.345 -0.875 -0.26300001 150 0 0
1.341 -0.87400001 -0.26499999 150 0 0
1.336 -0.87199998 -0.266 150 0 0
1.337 -0.87400001 -0.26899999 150 0 0
1.3380001 -0.87599999 -0.271 150 0 0
1.336 -0.87599999 -0.273 150 0 0
1.332 -0.87400001 -0.27399999 150 0 0
1.332 -0.875 -0.27599999 150 0 0
1.331 -0.875 -0.278 150 0 0
1.329 -0.875 -0.28 150 0 0
1.334 -0.87900001 -0.28299999 150 3 0
1.326 -0.875 -0.28400001 150 0 0
1.3279999 -0.87699997 -0.287 150 0 0
1.327 -0.87699997 -0.28799999 149 0 0
1.326 -0.87699997 -0.28999999 150 0 0
1.326 -0.87699997 -0.292 150 0 0
1.324 -0.87599999 -0.294 150 0 0
1.325 -0.87699997 -0.296 150 0 0
1.323 -0.87599999 -0.29800001 150 0 0
1.322 -0.875 -0.30000001 150 0 0
1.322 -0.87599999 -0.30199999 150 0 0
1.323 -0.87699997 -0.30399999 150 0 0
1.321 -0.875 -0.30599999 150 0 0
1.3200001 -0.87400001 -0.30700001 150 0 0
1.323 -0.87599999 -0.31 150 0 0
1.3200001 -0.87400001 -0.31099999 150 0 0
1.321 -0.87400001 -0.31299999 150 0 0
1.3200001 -0.87400001 -0.315 150 0 0
1.3200001 -0.87300003 -0.317 150 0 0
1.319 -0.87199998 -0.31799999 150 0 0
1.3200001 -0.87199998 -0.31999999 150 0 0
1.3200001 -0.87099999 -0.322 150 0 0
1.3200001 -0.87099999 -0.324 150 0 0
1.323 -0.87099999 -0.32600001 150 0 0
1.322 -0.87 -0.32699999 150 0 0
1.322 -0.86900002 -0.329 150 0 0
1.321 -0.86699998 -0.33000001 150 0 0
1.326 -0.87 -0.333 150 3 0
1.323 -0.86699998 -0.33399999 150 0 0
1.327 -0.86799997 -0.33700001 5 0 0
1.329 -0.86799997 -0.33899999 150 0 0
1.3279999 -0.866 -0.34 150 0 0
1.3279999 -0.86500001 -0.34200001 150 0 0
1.33 -0.86500001 -0.34400001 150 0 0
1.329 -0.86199999 -0.345 150 0 0
1.331 -0.86199999 -0.34599999 150 0 0
1.331 -0.861 -0.34799999 150 0 0
1.332 -0.85900003 -0.34900001 150 0 0
1.3329999 -0.85900003 -0.35100001 150 0 0
1.336 -0.85900003 -0.35299999 150 0 0
1.339 -0.85900003 -0.35499999 150 0 0
1.3380001 -0.85600001 -0.35600001 150 0 0
1.3380001 -0.85399997 -0.35699999 150 0 0
1.3430001 -0.85500002 -0.359 150 0 0
1.344 -0.85299999 -0.361 150 0 0
1.345 -0.852 -0.36199999 150 0 0
1.346 -0.85000002 -0.36300001 150 0 0
1.349 -0.85000002 -0.36500001 150 0 0
1.348 -0.847 -0.366 150 0 0
1.354 -0.84799999 -0.368 150 0 0
1.352 -0.84399998 -0.36899999 150 0 0
1.355 -0.84299999 -0.37 150 0 0
1.359 -0.84299999 -0.37200001 150 0 0
1.36 -0.84100002 -0.373 150 0 0
1.362 -0.83999997 -0.375 150 0 0
1.367 -0.83999997 -0.377 150 0 0
1.369 -0.83899999 -0.37799999 150 0 0
1.37 -0.83600003 -0.37900001 150 0 0
1.3710001 -0.83399999 -0.38 150 0 0
1.37 -0.82999998 -0.38 150 0 0
1.374 -0.829 -0.38100001 150 0 0
1.376 -0.82800001 -0.38299999 150 0 0
1.38 -0.82700002 -0.384 150 0 0
1.381 -0.82499999 -0.38499999 150 0 0
1.386 -0.824 -0.38699999 150 0 0
1.391 -0.824 -0.38800001 150 0 0
1.3940001 -0.82200003 -0.389 150 0 0
1.396 -0.81999999 -0.38999999 150 0 0
1.4 -0.81900001 -0.39199999 150 0 0
1.401 -0.81599998 -0.39199999 150 0 0
1.408 -0.81599998 -0.39399999 150 0 0
1.409 -0.81300002 -0.39500001 150 0 0
1.4119999 -0.81199998 -0.396 150 0 0
1.42 -0.81199998 -0.398 150 0 0
1.421 -0.80900002 -0.398 150 0 0
1.425 -0.80800003 -0.39899999 150 0 0
1.427 -0.80500001 -0.40000001 150 0 0
1.433 -0.80500001 -0.40200001 150 0 0
1.433 -0.80000001 -0.40099999 150 0 0
1.443 -0.80199999 -0.40400001 150 3 0
1.442 -0.79699999 -0.403 150 0 0
1.446 -0.796 -0.40400001 150 0 0
1.4529999 -0.79500002 -0.40599999 150 0 0
1.455 -0.79299998 -0.40599999 150 0 0
1.459 -0.79000002 -0.40700001 150 0 0
1.466 -0.79000002 -0.40900001 150 0 0
1.47 -0.78799999 -0.40900001 150 0 0
1.472 -0.78500003 -0.40900001 150 0 0
1.474 -0.78200001 -0.40900001 150 0 0
1.4809999 -0.78100002 -0.41100001 150 0 0
1.489 -0.78100002 -0.412 150 0 0
1.4910001 -0.77700001 -0.412 150 0 0
1.498 -0.77700001 -0.414 150 0 0
1.5 -0.773 -0.41299999 150 0 0
1.503 -0.76999998 -0.414 150 0 0
1.511 -0.76899999 -0.41499999 6 0 0
1.517 -0.76800001 -0.41600001 150 0 0
1.521 -0.76599997 -0.41600001 5 0 0
1.528 -0.76499999 -0.417 150 0 0
1.53 -0.76099998 -0.417 150 0 0
1.536 -0.759 -0.417 150 0 0
1.543 -0.75800002 -0.41800001 150 0 0
1.5470001 -0.755 -0.41800001 150 0 0
1.552 -0.75300002 -0.419 150 0 0
1.557 -0.75 -0.419 150 0 0
1.564 -0.74900001 -0.41999999 150 0 0
1.566 -0.745 -0.419 150 0 0
1.572 -0.74299997 -0.419 150 0 0
1.5779999 -0.741 -0.41999999 150 16 0
1.58 -0.73699999 -0.419 150 16 0
1.586 -0.73400003 -0.419 150 0 0
1.585 -0.72899997 -0.41800001 150 0 0
1.598 -0.73000002 -0.41999999 144 0 0
1.6059999 -0.72899997 -0.421 150 0 0
1.608 -0.72399998 -0.41999999 150 0 0
1.615 -0.722 -0.41999999 150 0 0
1.6210001 -0.72000003 -0.41999999 150 0 0
1.628 -0.71799999 -0.421 148 0 0
1.636 -0.71600002 -0.421 139 0 0
1.638 -0.71200001 -0.41999999 150 0 0
1.645 -0.70999998 -0.41999999 134 0 0
1.653 -0.708 -0.41999999 150 0 0
1.658 -0.70499998 -0.41999999 119 0 0
1.664 -0.70200002 -0.41999999 139 0 0
1.6720001 -0.69999999 -0.41999999 150 0 0
1.676 -0.69599998 -0.419 132 0 0
1.683 -0.69400001 -0.419 131 0 0
1.689 -0.69099998 -0.419 127 0 0
1.691 -0.68699998 -0.417 147 0 0
1.71 -0.68900001 -0.41999999 75 3 0
1.715 -0.68599999 -0.41999999 1 0 0
1.72 -0.68199998 -0.419 1 0 0
1.722 -0.67699999 -0.417 1 0 0
1.73 -0.67500001 -0.417 2 0 0
1.7359999 -0.67199999 -0.41600001 82 0 0
1.739 -0.667 -0.41499999 1 0 0
1.751 -0.667 -0.41600001 1 0 0
1.7589999 -0.66399997 -0.41499999 1 0 0
1.765 -0.66100001 -0.41499999 2 0 0
1.773 -0.65799999 -0.414 2 0 0
1.777 -0.65399998 -0.41299999 150 16 0
1.785 -0.65100002 -0.412 150 16 0
1.7920001 -0.648 -0.412 2 0 0
1.796 -0.64399999 -0.41 1 0 0
1.804 -0.64099997 -0.41 150 16 0
1.816 -0.63999999 -0.41 150 16 0
1.8200001 -0.63499999 -0.40799999 150 16 0
1.834 -0.63499999 -0.40900001 150 16 0
1.837 -0.63 -0.40700001 150 16 0
1.845 -0.62699997 -0.40599999 150 16 0
1.853 -0.62400001 -0.40599999 150 16 0
1.86 -0.62099999 -0.405 150 16 0
1.869 -0.61799997 -0.40400001 150 16 0
1.877 -0.61500001 -0.403 139 16 0
1.886 -0.61199999 -0.40200001 144 16 0
1.893 -0.60799998 -0.40099999 146 16 0
1.9 -0.60399997 -0.40000001 142 16 0
1.9069999 -0.60100001 -0.398 150 16 0
1.91 -0.59600002 -0.396 150 16 0
1.918 -0.59299999 -0.39500001 143 16 0
1.937 -0.59299999 -0.396 146 19 0
1.938 -0.58700001 -0.39300001 130 16 0
1.946 -0.583 -0.39199999 125 16 0
1.961 -0.58200002 -0.39199999 123 16 0
1.966 -0.57800001 -0.38999999 128 16 0
1.975 -0.574 -0.389 135 16 0
1.982 -0.56999999 -0.38699999 122 16 0
1.992 -0.56699997 -0.38600001 123 16 0
1.997 -0.56199998 -0.384 131 16 0
2.0020001 -0.55800003 -0.382 112 16 0
2.0179999 -0.55599999 -0.38100001 114 16 0
2.023 -0.551 -0.37900001 114 16 0
2.0339999 -0.54799998 -0.37799999 112 16 0
2.0480001 -0.546 -0.377 114 16 0
2.053 -0.54100001 -0.375 106 16 0
2.0610001 -0.537 -0.373 116 16 0
2.075 -0.53500003 -0.37200001 116 16 0
2.0799999 -0.52999997 -0.37 105 16 0
2.0840001 -0.52499998 -0.36700001 108 16 0
2.1029999 -0.523 -0.36700001 105 19 0
2.1070001 -0.51800001 -0.36399999 75 16 0
2.119 -0.51499999 -0.36300001 83 16 0
2.128 -0.51099998 -0.361 94 16 0
2.138 -0.50700003 -0.359 86 16 0
2.154 -0.50400001 -0.35800001 91 16 0
2.1670001 -0.50099999 -0.35600001 86 16 0
2.171 -0.49599999 -0.35299999 79 16 0
2.1819999 -0.49200001 -0.35100001 84 16 0
2.197 -0.48899999 -0.34999999 82 16 0
2.204 -0.484 -0.347 79 16 0
2.2179999 -0.48100001 -0.34599999 69 16 0
2.223 -0.47499999 -0.34299999 69 16 0
2.2320001 -0.47099999 -0.34 71 16 0
2.244 -0.46700001 -0.338 67 16 0
2.257 -0.463 -0.336 68 16 0
2.263 -0.458 -0.333 64 16 0
2.276 -0.454 -0.331 65 16 0
2.2869999 -0.44999999 -0.329 71 16 0
2.3 -0.44600001 -0.32600001 67 16 0
2.3080001 -0.44100001 -0.32300001 70 16 0
2.319 -0.43599999 -0.32100001 59 16 0
2.3299999 -0.43200001 -0.31799999 61 16 0
2.3469999 -0.428 -0.31600001 52 16 0
2.3540001 -0.42300001 -0.31299999 51 16 0
2.365 -0.41800001 -0.31 65 16 0
2.3740001 -0.414 -0.30700001 54 16 0
2.3859999 -0.40900001 -0.30399999 58 16 0
2.4070001 -0.40599999 -0.303 59 16 0
2.415 -0.40000001 -0.29899999 59 16 0
2.427 -0.396 -0.296 58 16 0
2.4400001 -0.391 -0.294 50 16 0
2.45 -0.38600001 -0.28999999 51 16 0
2.464 -0.38100001 -0.287 51 16 0
2.4749999 -0.37599999 -0.28400001 50 16 0
2.4879999 -0.37200001 -0.28099999 46 16 0
2.497 -0.366 -0.27700001 44 16 0
2.507 -0.361 -0.27399999 53 16 0
2.5220001 -0.35600001 -0.271 45 16 0
2.5339999 -0.35100001 -0.26699999 36 16 0
2.546 -0.345 -0.264 40 16 0
2.562 -0.34099999 -0.26100001 33 16 0
2.576 -0.336 -0.257 45 16 0
2.5869999 -0.33000001 -0.25400001 41 16 0
2.6010001 -0.32499999 -0.25 34 16 0
2.6170001 -0.31999999 -0.24699999 34 16 0
2.628 -0.31400001 -0.243 34 16 0
2.6400001 -0.308 -0.23899999 31 16 0
2.6559999 -0.303 -0.235 31 16 0
2.6719999 -0.29800001 -0.23199999 29 16 0
2.684 -0.292 -0.228 29 16 0
2.701 -0.287 -0.22400001 31 16 0
2.714 -0.28099999 -0.22 29 16 0
2.724 -0.27500001 -0.215 27 16 0
2.7349999 -0.26899999 -0.211 29 16 0
2.7550001 -0.26300001 -0.207 29 16 0
2.7650001 -0.257 -0.20299999 29 16 0
2.779 -0.25099999 -0.198 28 16 0
2.7950001 -0.245 -0.19400001 28 16 0
2.809 -0.23899999 -0.189 29 16 0
2.826 -0.233 -0.185 28 16 0
2.8429999 -0.227 -0.18099999 28 16 0
2.859 -0.221 -0.176 28 16 0
2.8729999 -0.215 -0.171 27 16 0
2.8900001 -0.208 -0.167 28 16 0
2.9059999 -0.20200001 -0.162 28 16 0
2.9200001 -0.19499999 -0.15700001 28 16 0
2.9419999 -0.189 -0.152 28 16 0
2.95 -0.182 -0.147 26 16 0
2.9719999 -0.176 -0.142 27 16 0
2.987 -0.169 -0.13699999 27 16 0
3.003 -0.162 -0.131 27 16 0
3.0309999 -0.156 -0.127 28 16 0
3.043 -0.149 -0.121 28 16 0
3.062 -0.142 -0.116 28 16 0
3.0880001 -0.13500001 -0.11 28 16 0
3.0969999 -0.12800001 -0.104 27 16 0
3.118 -0.121 -0.098999999 27 16 0
3.1359999 -0.114 -0.093000002 28 16 0
3.155 -0.106 -0.086999997 29 16 0
3.1719999 -0.098999999 -0.081 29 16 0
3.194 -0.092 -0.075000003 29 16 0
3.2130001 -0.083999999 -0.068999998 28 16 0
3.2260001 -0.075999998 -0.063000001 33 16 0
3.2520001 -0.068999998 -0.057 129 16 0
3.2539999 -0.059999999 -0.050000001 150 16 0
3.2550001 -0.052000001 -0.043000001 150 16 0
3.2460001 -0.044 -0.037 150 16 0
3.2479999 -0.035999998 -0.029999999 150 16 0
3.243 -0.028000001 -0.023 150 16 0
3.247 -0.02 -0.016000001 74 16 0
3.2409999 -0.012 -0.0099999998 25 16 0
3.27 -0.0040000002 -0.003 18 16 0
3.2920001 0.003 0.003 20 16 0
3.3050001 0.012 0.0099999998 20 16 0
3.326 0.02 0.017000001 23 16 0
3.346 0.028000001 0.024 49 16 0
3.3399999 0.035999998 0.030999999 101 16 0
3.3399999 0.045000002 0.037999999 64 16 0
3.3399999 0.052999999 0.045000002 20 16 0
3.3010001 0.059999999 0.050999999 5 19 0
3.2720001 0.068000004 0.057999998 1 16 0
3.3199999 0.077 0.066 1 16 0
3.3410001 0.086000003 0.072999999 10 16 0
3.335 0.093999997 0.079999998 71 16 0
3.3310001 0.102 0.086999997 134 16 0
3.322 0.109 0.093999997 56 16 0
3.312 0.117 0.101 38 16 0
3.2980001 0.125 0.108 33 16 0
3.279 0.132 0.114 34 16 0
3.2620001 0.139 0.121 33 16 0
3.25 0.146 0.127 35 16 0
3.2260001 0.153 0.133 44 16 0
3.224 0.161 0.14 109 16 0
3.217 0.168 0.147 150 16 0
3.2179999 0.176 0.154 150 16 0
3.211 0.183 0.161 150 16 0
3.164 0.18799999 0.16500001 33 18 0
3.1170001 0.193 0.17 24 16 0
3.1630001 0.20299999 0.17900001 44 16 0
3.138 0.20900001 0.185 42 16 0
3.1570001 0.21799999 0.193 48 16 0
3.21 0.229 0.20299999 150 16 0
3.2090001 0.237 0.20999999 150 16 0
3.2079999 0.244 0.21699999 150 16 0
3.207 0.252 0.22400001 150 16 0
3.2060001 0.259 0.23100001 150 16 0
3.207 0.26699999 0.23899999 150 16 0
3.201 0.27399999 0.245 150 16 0
3.207 0.28200001 0.25299999 150 16 0
3.204 0.28999999 0.25999999 150 16 0
3.2049999 0.29699999 0.26800001 150 16 0
3.2030001 0.30500001 0.27500001 150 16 0
3.2019999 0.31200001 0.28200001 150 16 0
3.207 0.31999999 0.28999999 150 16 0
3.2049999 0.32699999 0.29699999 150 16 0
3.204 0.33500001 0.30399999 150 16 0
3.2019999 0.34200001 0.31099999 150 16 0
3.2090001 0.34999999 0.31900001 150 16 0
3.1989999 0.35600001 0.32600001 150 16 0
3.2 0.36399999 0.333 150 16 0
3.1960001 0.37099999 0.34 150 16 0
3.201 0.37900001 0.34799999 150 16 0
3.198 0.38600001 0.35499999 150 16 0
