# .PCD v0.7 - Point Cloud Data file format
VERSION 0.7
FIELDS x y z intensity tag line
SIZE 4 4 4 4 1 1
TYPE F F F F U U
COUNT 1 1 1 1 1 1
WIDTH 1372
HEIGHT 1
VIEWPOINT 0 0 0 1 0 0 0
POINTS 1372
DATA ascii
2.536 1.183 -0.38699999 150 16 0
2.533 1.1900001 -0.38800001 150 16 0
2.53 1.197 -0.38800001 150 16 0
2.5239999 1.202 -0.38800001 150 16 0
2.523 1.21 -0.38800001 150 16 0
2.517 1.216 -0.38800001 150 16 0
2.517 1.224 -0.38800001 150 16 0
2.513 1.2309999 -0.38800001 150 16 0
2.5050001 1.235 -0.38800001 150 16 0
2.5039999 1.243 -0.38800001 150 16 0
2.5009999 1.249 -0.38800001 150 16 0
2.4979999 1.256 -0.38800001 150 16 0
2.494 1.262 -0.38800001 150 16 0
2.4890001 1.268 -0.38699999 150 16 0
2.487 1.275 -0.38699999 150 16 0
2.484 1.281 -0.38699999 150 16 0
2.484 1.289 -0.38699999 150 16 0
2.4779999 1.294 -0.38600001 150 16 0
2.4760001 1.301 -0.38600001 150 16 0
2.473 1.307 -0.38499999 150 16 0
2.4690001 1.313 -0.38499999 150 16 0
2.4649999 1.319 -0.384 150 16 0
2.4630001 1.325 -0.384 150 16 0
2.46 1.331 -0.38299999 150 16 0
2.4560001 1.337 -0.382 150 16 0
2.454 1.3430001 -0.382 150 16 0
2.45 1.349 -0.38100001 150 16 0
2.4449999 1.354 -0.38 150 16 0
2.4449999 1.3609999 -0.38 150 16 0
2.4449999 1.369 -0.37900001 150 16 0
2.4400001 1.373 -0.37799999 150 16 0
2.438 1.3789999 -0.377 150 16 0
2.4319999 1.3839999 -0.37599999 150 16 0
2.431 1.39 -0.375 150 16 0
2.4289999 1.396 -0.37400001 150 16 0
2.4289999 1.404 -0.373 150 16 0
2.4219999 1.406 -0.37099999 150 16 0
2.4230001 1.414 -0.37099999 150 16 0
2.4219999 1.421 -0.37 150 16 0
2.4189999 1.426 -0.36899999 150 16 0
2.415 1.4299999 -0.36700001 150 16 0
2.414 1.436 -0.366 150 16 0
2.4089999 1.4400001 -0.36399999 150 16 0
2.408 1.446 -0.36300001 150 16 0
2.405 1.451 -0.361 150 16 0
2.401 1.455 -0.359 150 16 0
2.402 1.462 -0.35800001 150 16 0
2.401 1.4680001 -0.35699999 150 16 0
2.4000001 1.474 -0.35600001 150 16 0
2.398 1.479 -0.354 150 16 0
2.3940001 1.482 -0.352 150 16 0
2.392 1.487 -0.34999999 150 16 0
2.3900001 1.492 -0.34900001 150 16 0
2.3900001 1.498 -0.347 150 16 0
2.388 1.503 -0.345 150 16 0
2.385 1.507 -0.34299999 150 16 0
2.3829999 1.511 -0.34099999 150 16 0
2.381 1.515 -0.33899999 150 16 0
2.381 1.521 -0.33700001 150 16 0
2.381 1.526 -0.336 150 16 0
2.3759999 1.529 -0.333 150 16 0
2.3740001 1.533 -0.331 150 16 0
2.375 1.538 -0.329 150 16 0
2.3740001 1.543 -0.32699999 150 16 0
2.3699999 1.545 -0.324 150 16 0
2.372 1.551 -0.32300001 150 16 0
2.3710001 1.556 -0.31999999 150 16 0
2.3699999 1.559 -0.31799999 150 16 0
2.369 1.563 -0.31600001 150 16 0
2.368 1.567 -0.31299999 150 16 0
2.369 1.572 -0.31099999 150 16 0
2.3629999 1.573 -0.308 150 16 0
2.3629999 1.577 -0.30599999 150 16 0
2.3629999 1.581 -0.303 150 16 0
2.3640001 1.585 -0.301 150 16 0
2.3599999 1.587 -0.29800001 150 16 0
2.365 1.594 -0.296 150 16 0
2.3640001 1.596 -0.29300001 150 16 0
2.362 1.599 -0.28999999 150 16 0
2.3629999 1.603 -0.28799999 150 16 0
2.3599999 1.604 -0.285 150 16 0
2.3599999 1.607 -0.28200001 150 16 0
2.359 1.61 -0.27900001 150 16 0
2.358 1.612 -0.27599999 150 16 0
2.3629999 1.618 -0.27399999 150 16 0
2.355 1.6160001 -0.27000001 150 16 0
2.3640001 1.624 -0.26800001 150 16 0
2.3610001 1.625 -0.26499999 150 16 0
2.359 1.626 -0.26199999 150 16 0
2.362 1.63 -0.259 150 16 0
2.3599999 1.631 -0.25600001 150 16 0
2.3599999 1.633 -0.25299999 150 16 0
2.3559999 1.632 -0.25 150 16 0
2.3599999 1.636 -0.24699999 150 16 0
2.3629999 1.64 -0.244 150 16 0
2.3640001 1.642 -0.241 150 16 0
2.3599999 1.641 -0.23800001 150 16 0
2.3629999 1.6440001 -0.235 150 16 0
2.3640001 1.646 -0.23199999 150 16 0
2.3640001 1.647 -0.228 150 16 0
2.3610001 1.645 -0.22499999 150 16 0
2.3670001 1.651 -0.222 150 16 0
2.3670001 1.651 -0.219 150 16 0
2.3670001 1.652 -0.215 150 16 0
2.369 1.653 -0.212 150 16 0
2.369 1.653 -0.20900001 150 16 0
2.369 1.654 -0.206 150 16 0
2.372 1.656 -0.20299999 150 16 0
2.375 1.658 -0.199 150 16 0
2.3759999 1.658 -0.19599999 150 16 0
2.378 1.658 -0.193 150 16 0
2.378 1.658 -0.189 150 16 0
2.3789999 1.658 -0.186 150 16 0
2.3829999 1.66 -0.183 150 16 0
2.3800001 1.6569999 -0.17900001 150 16 0
2.3800001 1.656 -0.176 150 16 0
2.382 1.656 -0.17200001 150 16 0
2.385 1.656 -0.169 150 16 0
2.3889999 1.658 -0.16599999 150 16 0
2.391 1.658 -0.162 150 16 0
2.391 1.656 -0.15899999 150 16 0
2.3970001 1.658 -0.156 150 16 0
2.398 1.6569999 -0.152 150 16 0
2.4000001 1.656 -0.149 150 16 0
2.402 1.656 -0.145 150 16 0
2.404 1.654 -0.142 150 16 0
2.4030001 1.651 -0.139 150 16 0
2.4059999 1.651 -0.13500001 150 16 0
2.408 1.649 -0.132 150 16 0
2.4089999 1.647 -0.12800001 150 16 0
2.4119999 1.646 -0.125 150 16 0
2.4130001 1.6440001 -0.122 150 16 0
2.415 1.641 -0.118 150 16 0
2.4170001 1.64 -0.115 150 16 0
2.4189999 1.637 -0.112 150 16 0
2.4260001 1.638 -0.108 150 16 0
2.427 1.635 -0.105 150 16 0
2.431 1.6339999 -0.102 150 16 0
2.4300001 1.63 -0.097999997 150 16 0
2.4330001 1.628 -0.094999999 150 16 0
2.4349999 1.625 -0.092 150 16 0
2.4360001 1.6210001 -0.089000002 150 16 0
2.441 1.62 -0.085000001 150 16 0
2.4430001 1.617 -0.082000002 150 16 0
2.4460001 1.615 -0.079000004 150 16 0
2.4489999 1.6109999 -0.075999998 150 16 0
2.4549999 1.6109999 -0.072999999 150 16 0
2.457 1.607 -0.068999998 150 16 0
2.46 1.604 -0.066 150 16 0
2.4649999 1.602 -0.063000001 150 16 0
2.4630001 1.596 -0.059999999 150 16 0
2.47 1.595 -0.057 150 16 0
2.471 1.59 -0.054000001 150 16 0
2.4719999 1.585 -0.050999999 150 16 0
2.4790001 1.584 -0.048 150 16 0
2.4820001 1.58 -0.045000002 150 16 0
2.484 1.576 -0.041999999 150 16 0
2.4879999 1.572 -0.039000001 150 16 0
2.4909999 1.569 -0.035999998 150 16 0
2.4960001 1.5650001 -0.033 150 16 0
2.5009999 1.563 -0.029999999 150 16 0
2.5009999 1.556 -0.027000001 150 16 0
2.5039999 1.552 -0.024 150 16 0
2.513 1.551 -0.021 150 16 0
2.513 1.544 -0.017999999 150 16 0
2.513 1.538 -0.015 150 16 0
2.5220001 1.5369999 -0.013 150 16 0
2.5250001 1.5319999 -0.0099999998 150 16 0
2.5309999 1.529 -0.0070000002 150 16 0
2.5320001 1.522 -0.0049999999 150 16 0
2.536 1.518 -0.0020000001 150 16 0
2.5409999 1.5140001 0 150 16 0
2.5450001 1.5089999 0.0020000001 150 16 0
2.5469999 1.503 0.0049999999 150 16 0
2.5510001 1.498 0.0070000002 150 16 0
2.5539999 1.493 0.0099999998 150 16 0
2.5580001 1.488 0.012 150 16 0
2.5610001 1.482 0.015 150 16 0
2.5639999 1.476 0.017000001 150 16 0
2.5680001 1.471 0.02 150 16 0
2.5710001 1.465 0.022 150 16 0
2.5739999 1.459 0.024 150 16 0
2.5829999 1.456 0.027000001 150 16 0
2.5810001 1.447 0.028999999 150 16 0
2.5869999 1.443 0.030999999 150 16 0
2.5929999 1.438 0.034000002 150 16 0
2.596 1.432 0.035999998 150 16 0
2.6010001 1.427 0.037999999 150 16 0
2.605 1.421 0.039999999 150 16 0
2.6059999 1.413 0.041999999 137 16 0
2.612 1.408 0.044 146 16 0
2.6129999 1.401 0.046 150 16 0
2.6199999 1.396 0.048 150 16 0
2.6199999 1.388 0.050000001 150 16 0
2.625 1.382 0.052000001 143 16 0
2.6289999 1.376 0.054000001 150 16 0
2.635 1.37 0.056000002 145 16 0
2.6370001 1.363 0.057999998 147 16 0
2.641 1.3559999 0.059999999 149 16 0
2.6440001 1.35 0.061000001 133 16 0
2.6489999 1.3430001 0.063000001 150 16 0
2.652 1.336 0.064999998 150 16 0
2.655 1.329 0.067000002 150 16 0
2.6619999 1.324 0.068000004 150 16 0
2.6719999 1.3200001 0.07 150 16 0
2.6760001 1.313 0.071999997 150 16 0
2.6789999 1.306 0.072999999 150 16 0
2.6830001 1.299 0.075000003 150 16 0
2.6860001 1.291 0.075999998 150 16 0
2.6919999 1.286 0.078000002 142 16 0
2.697 1.279 0.079000004 150 16 0
2.7019999 1.272 0.081 150 16 0
2.7090001 1.266 0.082000002 150 16 0
2.7119999 1.2589999 0.082999997 150 16 0
2.7179999 1.252 0.085000001 150 16 0
2.7249999 1.2460001 0.086000003 150 16 0
2.7219999 1.2359999 0.086999997 150 16 0
2.7260001 1.229 0.088 150 16 0
2.7309999 1.222 0.090000004 150 16 0
2.7349999 1.214 0.090999998 150 16 0
2.7409999 1.2079999 0.092 150 16 0
2.7479999 1.201 0.093000002 150 16 0
2.7509999 1.193 0.093999997 150 16 0
2.756 1.186 0.094999999 150 16 0
2.7579999 1.178 0.096000001 150 16 0
2.763 1.171 0.097000003 150 16 0
2.766 1.163 0.097999997 150 16 0
2.773 1.156 0.098999999 150 16 0
2.7739999 1.147 0.1 150 16 0
2.777 1.1390001 0.1 132 16 0
2.7839999 1.132 0.101 150 16 0
2.7869999 1.124 0.102 150 16 0
2.796 1.118 0.103 150 16 0
2.7950001 1.108 0.104 150 16 0
2.803 1.102 0.104 150 16 0
2.806 1.0930001 0.105 150 16 0
2.813 1.086 0.106 150 16 0
2.812 1.077 0.106 149 16 0
2.816 1.068 0.107 133 16 0
2.823 1.061 0.107 139 16 0
2.826 1.053 0.108 143 16 0
2.829 1.044 0.108 150 16 0
2.8410001 1.039 0.109 150 16 0
2.839 1.029 0.109 150 16 0
2.8469999 1.022 0.11 150 16 0
2.848 1.012 0.11 150 16 0
2.8529999 1.0039999 0.11 150 16 0
2.858 0.99599999 0.111 150 16 0
2.8670001 0.99000001 0.111 140 16 0
2.8699999 0.98100001 0.111 69 16 0
2.881 0.97500002 0.112 30 16 0
2.8770001 0.96399999 0.112 110 16 0
2.8789999 0.95499998 0.112 148 16 0
2.885 0.94700003 0.112 150 16 0
2.891 0.94 0.112 146 16 0
2.8940001 0.93099999 0.112 150 16 0
2.8989999 0.92199999 0.112 149 16 0
2.905 0.91399997 0.112 150 16 0
2.908 0.90499997 0.112 138 16 0
2.9119999 0.89700001 0.112 146 16 0
2.9159999 0.88800001 0.112 148 16 0
2.918 0.87900001 0.112 133 16 0
2.924 0.87099999 0.112 132 16 0
2.928 0.86199999 0.112 150 16 0
2.931 0.85299999 0.112 150 16 0
2.9389999 0.84600002 0.112 133 16 0
2.9419999 0.83700001 0.111 150 16 0
2.944 0.82700002 0.111 150 16 0
2.954 0.81999999 0.111 150 16 0
2.961 0.81199998 0.111 149 16 0
2.9619999 0.80199999 0.11 150 16 0
2.964 0.79299998 0.11 150 16 0
2.97 0.78500003 0.11 150 16 0
2.974 0.77600002 0.109 150 16 0
2.9809999 0.76700002 0.109 150 16 0
2.9849999 0.75800002 0.108 150 16 0
2.9879999 0.74900001 0.108 150 16 0
2.993 0.741 0.107 150 16 0
2.9960001 0.73100001 0.107 150 16 0
2.9979999 0.722 0.106 150 16 0
3.0039999 0.713 0.106 116 16 0
3.007 0.704 0.105 123 16 0
3.01 0.69499999 0.104 123 16 0
3.016 0.68599999 0.104 124 16 0
3.0250001 0.67799997 0.103 135 16 0
3.0250001 0.66799998 0.102 134 16 0
3.033 0.66000003 0.102 125 16 0
3.039 0.65100002 0.101 124 16 0
3.0409999 0.64099997 0.1 123 16 0
3.043 0.63200003 0.098999999 125 16 0
3.056 0.62400001 0.098999999 139 16 0
3.056 0.61400002 0.097999997 111 16 0
3.062 0.60500002 0.097000003 124 16 0
3.0650001 0.59600002 0.096000001 131 16 0
3.0699999 0.58700001 0.094999999 125 16 0
3.076 0.57800001 0.093999997 112 16 0
3.0780001 0.56800002 0.093000002 107 16 0
3.082 0.55900002 0.092 107 16 0
3.0910001 0.55000001 0.090999998 107 16 0
3.0929999 0.54000002 0.090000004 95 16 0
3.0969999 0.53100002 0.089000002 92 16 0
3.105 0.52200001 0.088 104 16 0
3.109 0.51300001 0.086999997 97 16 0
3.1110001 0.50300002 0.086000003 92 16 0
3.1170001 0.49399999 0.085000001 99 16 0
3.125 0.48500001 0.083999999 121 16 0
3.1259999 0.47499999 0.082000002 103 16 0
3.128 0.465 0.081 113 16 0
3.138 0.456 0.079999998 115 16 0
3.1400001 0.44600001 0.079000004 99 16 0
3.1429999 0.43599999 0.077 107 16 0
3.1500001 0.42699999 0.075999998 113 16 0
3.152 0.417 0.075000003 88 16 0
3.1570001 0.40799999 0.072999999 111 16 0
3.161 0.398 0.071999997 108 16 0
3.1700001 0.389 0.071000002 108 16 0
3.171 0.37900001 0.068999998 93 16 0
3.1700001 0.368 0.068000004 26 16 0
3.1589999 0.35699999 0.066 26 16 0
3.1659999 0.347 0.064000003 28 16 0
3.175 0.338 0.063000001 29 16 0
3.174 0.32800001 0.061000001 27 16 0
3.1789999 0.31799999 0.059999999 26 16 0
3.1830001 0.308 0.057999998 26 16 0
3.1860001 0.29800001 0.057 26 16 0
3.1919999 0.289 0.055 27 16 0
3.1960001 0.27900001 0.052999999 27 16 0
3.1989999 0.26899999 0.052000001 27 16 0
3.201 0.259 0.050000001 27 16 0
3.2030001 0.249 0.048 27 16 0
3.1989999 0.23800001 0.046 32 16 0
3.1849999 0.227 0.044 107 16 0
3.1860001 0.21600001 0.043000001 92 16 0
3.2019999 0.207 0.041000001 29 16 0
3.2249999 0.199 0.039000001 25 16 0
3.2309999 0.189 0.037999999 26 16 0
3.2309999 0.178 0.035999998 25 16 0
3.237 0.168 0.034000002 26 16 0
3.2420001 0.15800001 0.032000002 26 16 0
3.2520001 0.148 0.029999999 29 16 0
3.2739999 0.139 0.028000001 51 16 0
3.286 0.12899999 0.026000001 81 16 0
3.2880001 0.119 0.024 79 16 0
3.2920001 0.108 0.022 86 16 0
3.2969999 0.097999997 0.02 90 16 0
3.303 0.088 0.017999999 83 16 0
3.306 0.077 0.016000001 68 16 0
3.3150001 0.067000002 0.014 71 16 0
3.3210001 0.057 0.012 44 16 0
3.3180001 0.046 0.0089999996 75 16 0
3.322 0.035999998 0.0070000002 80 16 0
3.329 0.025 0.0049999999 36 16 0
3.313 0.014 0.003 20 16 0
3.2869999 0.0040000002 0 19 16 0
3.2650001 -0.0049999999 -0.001 18 16 0
3.2390001 -0.016000001 -0.003 37 16 0
3.247 -0.026000001 -0.0049999999 150 16 0
3.253 -0.035999998 -0.0080000004 144 16 0
3.253 -0.046999998 -0.0099999998 150 16 0
3.2650001 -0.057 -0.012 150 16 0
3.263 -0.067000002 -0.015 126 16 0
3.243 -0.077 -0.017000001 31 16 0
3.2179999 -0.086999997 -0.018999999 28 16 0
3.197 -0.096000001 -0.021 29 16 0
3.1830001 -0.106 -0.024 29 16 0
3.1619999 -0.115 -0.026000001 29 16 0
3.135 -0.124 -0.028000001 28 16 0
3.115 -0.133 -0.029999999 27 16 0
3.0940001 -0.142 -0.032000002 27 16 0
3.072 -0.15000001 -0.035 28 16 0
3.046 -0.15899999 -0.037 28 16 0
3.0339999 -0.168 -0.039000001 27 16 0
3.0050001 -0.176 -0.041000001 26 19 0
2.9860001 -0.184 -0.043000001 26 16 0
2.9690001 -0.192 -0.045000002 26 16 0
2.948 -0.2 -0.046999998 27 16 0
2.9289999 -0.208 -0.048999999 27 16 0
2.9130001 -0.21600001 -0.050999999 27 16 0
2.891 -0.223 -0.052999999 27 16 0
2.8729999 -0.23100001 -0.055 27 16 0
2.8570001 -0.23899999 -0.057 26 16 0
2.8429999 -0.24699999 -0.059999999 27 16 0
2.823 -0.25400001 -0.061999999 28 16 0
2.803 -0.26100001 -0.064000003 29 16 0
2.7880001 -0.26800001 -0.066 27 16 0
2.77 -0.27500001 -0.068000004 28 16 0
2.753 -0.28200001 -0.07 28 16 0
2.7360001 -0.289 -0.071999997 27 16 0
2.7249999 -0.296 -0.074000001 29 16 0
2.71 -0.303 -0.075999998 29 16 0
2.6930001 -0.31 -0.078000002 30 16 0
2.6800001 -0.31600001 -0.079999998 28 16 0
2.661 -0.32300001 -0.081 30 16 0
2.6459999 -0.329 -0.082999997 29 16 0
2.6289999 -0.33500001 -0.085000001 30 16 0
2.6229999 -0.34299999 -0.088 31 16 0
2.605 -0.34799999 -0.089000002 30 16 0
2.585 -0.354 -0.090999998 29 16 0
2.579 -0.361 -0.093000002 39 16 0
2.556 -0.366 -0.094999999 39 16 0
2.546 -0.373 -0.097000003 40 16 0
2.53 -0.37799999 -0.098999999 44 16 0
2.5139999 -0.384 -0.101 43 16 0
2.503 -0.38999999 -0.103 46 16 0
2.4920001 -0.396 -0.105 51 16 0
2.47 -0.40000001 -0.106 47 16 0
2.4679999 -0.40799999 -0.109 51 16 0
2.451 -0.412 -0.11 56 16 0
2.4400001 -0.41800001 -0.112 51 16 0
2.424 -0.42300001 -0.114 49 16 0
2.4100001 -0.428 -0.116 51 16 0
2.3970001 -0.433 -0.118 50 16 0
2.3859999 -0.43900001 -0.12 57 16 0
2.378 -0.44499999 -0.122 61 16 0
2.3610001 -0.449 -0.123 50 16 0
2.352 -0.45500001 -0.125 55 16 0
2.3340001 -0.45899999 -0.127 50 16 0
2.3280001 -0.465 -0.12899999 62 16 0
2.3150001 -0.46900001 -0.131 65 16 0
2.3010001 -0.47400001 -0.133 64 16 0
2.2850001 -0.47799999 -0.134 61 16 0
2.2780001 -0.48300001 -0.13600001 72 16 0
2.2720001 -0.48899999 -0.139 72 16 0
2.253 -0.49200001 -0.14 69 16 0
2.2460001 -0.498 -0.142 71 16 0
2.2349999 -0.50199997 -0.14399999 66 16 0
2.224 -0.50700003 -0.146 70 16 0
2.2119999 -0.51099998 -0.148 67 16 0
2.2030001 -0.51599997 -0.15000001 81 16 0
2.1930001 -0.51999998 -0.152 77 16 0
2.1800001 -0.52399999 -0.153 81 16 0
2.164 -0.52700001 -0.155 82 16 0
2.154 -0.53100002 -0.15700001 68 16 0
2.148 -0.53600001 -0.15899999 76 16 0
2.135 -0.54000002 -0.16 75 16 0
2.1210001 -0.54299998 -0.162 76 16 0
2.1159999 -0.54799998 -0.164 80 16 0
2.105 -0.55199999 -0.16599999 75 16 0
2.095 -0.55599999 -0.168 85 16 0
2.086 -0.56 -0.17 87 16 0
2.0810001 -0.565 -0.17200001 86 16 0
2.0680001 -0.56800002 -0.17299999 90 16 0
2.059 -0.57200003 -0.175 91 16 0
2.05 -0.57599998 -0.177 81 16 0
2.0369999 -0.579 -0.17900001 97 16 0
2.0309999 -0.583 -0.18099999 86 16 0
2.0220001 -0.58700001 -0.183 96 16 0
2.013 -0.59100002 -0.185 96 16 0
2.0050001 -0.59399998 -0.186 92 16 0
1.9910001 -0.59600002 -0.18799999 90 16 0
1.985 -0.60100001 -0.19 96 16 0
1.972 -0.60299999 -0.191 101 16 0
1.9680001 -0.60799998 -0.19400001 91 16 0
1.964 -0.61199999 -0.19599999 91 16 0
1.955 -0.616 -0.198 102 16 0
1.9349999 -0.616 -0.199 99 19 0
1.928 -0.61900002 -0.20100001 99 16 0
1.924 -0.62400001 -0.20299999 101 16 0
1.914 -0.62699997 -0.205 105 16 0
1.911 -0.63099998 -0.207 100 16 0
1.905 -0.63499999 -0.20900001 96 16 0
1.896 -0.63800001 -0.211 94 16 0
1.885 -0.63999999 -0.212 107 16 0
1.878 -0.64399999 -0.214 115 16 0
1.872 -0.64700001 -0.21600001 130 16 0
1.8609999 -0.64899999 -0.21799999 105 16 0
1.859 -0.65399998 -0.221 121 16 0
1.853 -0.65799999 -0.223 115 16 0
1.835 -0.65700001 -0.223 119 19 0
1.831 -0.66100001 -0.226 139 16 0
1.824 -0.66399997 -0.228 131 16 0
1.8150001 -0.66600001 -0.229 145 16 0
1.8099999 -0.67000002 -0.23100001 150 16 0
1.804 -0.67299998 -0.234 148 16 0
1.802 -0.67799997 -0.236 145 16 0
1.795 -0.68099999 -0.23800001 139 16 0
1.784 -0.68199998 -0.23999999 1 0 0
1.776 -0.68400002 -0.241 148 16 0
1.767 -0.68599999 -0.243 150 16 0
1.763 -0.69 -0.245 150 16 0
1.7589999 -0.69300002 -0.248 1 0 0
1.752 -0.69599998 -0.25 150 16 0
1.7410001 -0.69700003 -0.25099999 150 16 0
1.742 -0.70200002 -0.25400001 1 0 0
1.733 -0.70300001 -0.25600001 150 16 0
1.728 -0.70700002 -0.25799999 150 16 0
1.721 -0.70899999 -0.25999999 149 16 0
1.711 -0.70999998 -0.26100001 150 16 0
1.699 -0.70999998 -0.26199999 150 16 0
1.704 -0.71700001 -0.266 150 16 0
1.692 -0.71700001 -0.26699999 150 16 0
1.6849999 -0.71799999 -0.26899999 150 16 0
1.674 -0.71899998 -0.27000001 1 0 0
1.675 -0.72399998 -0.273 150 16 0
1.669 -0.72600001 -0.27599999 1 0 0
1.663 -0.72799999 -0.27700001 150 16 0
1.654 -0.72899997 -0.27900001 150 16 0
1.65 -0.73199999 -0.28099999 65 0 0
1.648 -0.736 -0.28400001 150 16 0
1.6390001 -0.736 -0.285 1 0 0
1.633 -0.73799998 -0.287 1 0 0
1.626 -0.73900002 -0.289 2 0 0
1.6210001 -0.74199998 -0.29100001 150 16 0
1.6160001 -0.74400002 -0.29300001 2 0 0
1.613 -0.74699998 -0.296 150 16 0
1.607 -0.74800003 -0.29800001 1 0 0
1.595 -0.74699998 -0.29899999 2 0 0
1.591 -0.75 -0.301 2 0 0
1.5880001 -0.75300002 -0.303 61 0 0
1.581 -0.75300002 -0.30500001 1 0 0
1.577 -0.75599998 -0.30700001 75 0 0
1.574 -0.75800002 -0.31 63 0 0
1.572 -0.76200002 -0.31299999 62 0 0
1.568 -0.764 -0.315 63 0 0
1.562 -0.76499999 -0.317 65 0 0
1.5599999 -0.76800001 -0.31999999 2 0 0
1.551 -0.76800001 -0.32100001 2 0 0
1.546 -0.76899999 -0.32300001 95 0 0
1.541 -0.76999998 -0.32499999 101 0 0
1.539 -0.773 -0.32699999 67 0 0
1.534 -0.77499998 -0.33000001 74 0 0
1.531 -0.77700001 -0.33199999 66 0 0
1.527 -0.77899998 -0.33399999 109 0 0
1.525 -0.78100002 -0.33700001 82 0 0
1.52 -0.78299999 -0.33899999 77 0 0
1.511 -0.78100002 -0.34 83 0 0
1.508 -0.78299999 -0.34200001 71 0 0
1.506 -0.78600001 -0.345 74 0 0
1.502 -0.787 -0.347 83 0 0
1.5 -0.79000002 -0.34999999 60 0 0
1.495 -0.79000002 -0.352 100 0 0
1.4910001 -0.79100001 -0.354 81 0 0
1.488 -0.79299998 -0.35600001 123 0 0
1.479 -0.792 -0.35699999 81 0 0
1.479 -0.79500002 -0.36000001 108 0 0
1.469 -0.79299998 -0.361 113 0 0
1.473 -0.79799998 -0.36500001 74 0 0
1.466 -0.79699999 -0.366 108 0 0
1.4630001 -0.79900002 -0.36899999 77 0 0
1.46 -0.80000001 -0.37099999 80 0 0
1.455 -0.80000001 -0.373 85 0 0
1.454 -0.80199999 -0.375 103 0 0
1.449 -0.80199999 -0.377 92 0 0
1.449 -0.80500001 -0.38 91 0 0
1.4450001 -0.80599999 -0.382 105 0 0
1.439 -0.80500001 -0.384 112 0 0
1.434 -0.80500001 -0.38600001 119 0 0
1.433 -0.80699998 -0.38800001 137 0 0
1.428 -0.80699998 -0.38999999 98 0 0
1.426 -0.80800003 -0.39199999 111 0 0
1.425 -0.81 -0.39500001 123 0 0
1.421 -0.81 -0.39700001 130 0 0
1.421 -0.81199998 -0.40000001 104 0 0
1.42 -0.81400001 -0.40200001 145 0 0
1.416 -0.81300002 -0.40400001 150 0 0
1.413 -0.81400001 -0.40599999 145 0 0
1.408 -0.81300002 -0.40799999 121 0 0
1.405 -0.81300002 -0.41 138 0 0
1.405 -0.815 -0.41299999 141 0 0
1.4 -0.81400001 -0.414 150 0 0
1.398 -0.815 -0.41600001 144 0 0
1.396 -0.81599998 -0.419 150 0 0
1.398 -0.81900001 -0.42199999 133 0 0
1.3940001 -0.81699997 -0.42399999 150 0 0
1.392 -0.81800002 -0.426 150 0 0
1.392 -0.81999999 -0.42899999 150 0 0
1.385 -0.81699997 -0.42899999 150 0 0
1.387 -0.81999999 -0.433 150 0 0
1.383 -0.81800002 -0.43399999 150 0 0
1.385 -0.82099998 -0.43700001 149 0 0
1.38 -0.81999999 -0.43900001 150 0 0
1.378 -0.81999999 -0.44100001 150 0 0
1.375 -0.81900001 -0.442 150 0 0
1.377 -0.82099998 -0.44600001 150 0 0
1.373 -0.81900001 -0.447 150 0 0
1.372 -0.81999999 -0.449 150 0 0
1.369 -0.81900001 -0.45100001 150 0 0
1.37 -0.81999999 -0.454 150 0 0
1.369 -0.82099998 -0.456 150 0 0
1.368 -0.82099998 -0.458 150 0 0
1.3660001 -0.81999999 -0.46000001 150 0 0
1.368 -0.82099998 -0.463 150 0 0
1.364 -0.81999999 -0.46399999 150 0 0
1.364 -0.81999999 -0.46599999 150 0 0
1.365 -0.82099998 -0.46900001 150 0 0
1.367 -0.82200003 -0.472 150 0 0
1.362 -0.81999999 -0.472 150 0 0
1.363 -0.81999999 -0.47499999 150 0 0
1.362 -0.81999999 -0.477 150 0 0
1.362 -0.81999999 -0.479 150 0 0
1.359 -0.81800002 -0.47999999 150 0 0
1.359 -0.81800002 -0.48300001 150 0 0
1.363 -0.81999999 -0.486 150 0 0
1.363 -0.81999999 -0.48800001 150 0 0
1.363 -0.81999999 -0.49000001 150 0 0
1.363 -0.81900001 -0.49200001 150 0 0
1.362 -0.81800002 -0.49399999 150 0 0
1.362 -0.81800002 -0.49599999 150 0 0
1.362 -0.81699997 -0.49700001 150 0 0
1.362 -0.81599998 -0.49900001 150 0 0
1.3609999 -0.815 -0.50099999 150 0 0
1.3609999 -0.815 -0.50300002 150 0 0
1.364 -0.815 -0.505 150 0 0
1.3609999 -0.81300002 -0.50599998 150 0 0
1.362 -0.81199998 -0.50800002 150 0 0
1.3609999 -0.81099999 -0.509 150 0 0
1.369 -0.81400001 -0.514 150 2 0
1.365 -0.81099999 -0.514 150 0 0
1.3660001 -0.81 -0.51599997 150 0 0
1.367 -0.81 -0.51800001 150 0 0
1.369 -0.80900002 -0.51999998 150 0 0
1.37 -0.80900002 -0.52200001 150 0 0
1.372 -0.80800003 -0.52399999 150 0 0
1.3710001 -0.80599999 -0.52499998 150 0 0
1.373 -0.80500001 -0.52700001 150 0 0
1.373 -0.80400002 -0.528 150 0 0
1.375 -0.80299997 -0.52999997 150 0 0
1.3789999 -0.80400002 -0.53200001 150 0 0
1.38 -0.80299997 -0.53399998 150 0 0
1.383 -0.80199999 -0.53600001 150 0 0
1.382 -0.80000001 -0.537 150 0 0
1.382 -0.79799998 -0.53799999 150 0 0
1.387 -0.79900002 -0.54100001 150 0 0
1.386 -0.796 -0.54100001 150 0 0
1.391 -0.79699999 -0.54400003 150 0 0
1.395 -0.796 -0.546 150 0 0
1.395 -0.79400003 -0.54699999 150 0 0
1.395 -0.792 -0.54799998 150 0 0
1.401 -0.79299998 -0.551 150 0 0
1.398 -0.78799999 -0.55000001 150 0 0
1.402 -0.78899997 -0.55199999 150 0 0
1.4069999 -0.78799999 -0.55400002 150 0 0
1.4069999 -0.78600001 -0.55500001 150 0 0
1.411 -0.78500003 -0.55699998 150 0 0
1.4170001 -0.78600001 -0.56 150 0 0
1.419 -0.78399998 -0.56099999 150 0 0
1.419 -0.78100002 -0.56099999 150 0 0
1.4220001 -0.77999997 -0.56300002 150 0 0
1.424 -0.778 -0.56300002 150 0 0
1.428 -0.77700001 -0.565 150 0 0
1.429 -0.77499998 -0.565 150 0 0
1.436 -0.77600002 -0.56800002 150 0 0
1.4400001 -0.77399999 -0.56999999 150 0 0
1.441 -0.77200001 -0.56999999 150 0 0
1.4450001 -0.77100003 -0.57099998 150 0 0
1.446 -0.76800001 -0.57200003 150 0 0
1.45 -0.76700002 -0.57300001 150 0 0
1.451 -0.764 -0.57300001 150 0 0
1.457 -0.764 -0.57499999 150 0 0
1.465 -0.764 -0.57800001 150 0 0
1.462 -0.759 -0.57599998 150 0 0
1.4680001 -0.75800002 -0.57800001 150 0 0
1.472 -0.75700003 -0.579 150 0 0
1.473 -0.75400001 -0.579 150 0 0
1.479 -0.75300002 -0.58099997 150 0 0
1.483 -0.75099999 -0.58200002 150 0 0
1.49 -0.75099999 -0.58399999 150 0 0
1.493 -0.74900001 -0.58399999 150 0 0
1.497 -0.74699998 -0.58499998 150 0 0
1.503 -0.74599999 -0.58600003 150 0 0
1.507 -0.74400002 -0.58700001 150 0 0
1.507 -0.74000001 -0.58600003 150 0 0
1.511 -0.73799998 -0.58700001 150 0 0
1.515 -0.736 -0.58700001 150 0 0
1.522 -0.73500001 -0.58899999 150 0 0
1.524 -0.73199999 -0.588 150 0 0
1.528 -0.73000002 -0.58899999 150 0 0
1.528 -0.72600001 -0.588 150 0 0
1.533 -0.72399998 -0.588 150 0 0
1.5369999 -0.722 -0.58899999 150 0 0
1.548 -0.72299999 -0.59100002 150 19 0
1.55 -0.71899998 -0.59100002 150 0 0
1.556 -0.71799999 -0.59200001 150 0 0
1.563 -0.71600002 -0.59200001 138 0 0
1.571 -0.71499997 -0.59399998 2 0 0
1.567 -0.70999998 -0.59100002 4 0 0
1.576 -0.70899999 -0.59299999 150 16 0
1.582 -0.70700002 -0.59299999 150 16 0
1.5880001 -0.70499998 -0.59399998 150 16 0
1.5880001 -0.70099998 -0.59200001 150 16 0
1.596 -0.69999999 -0.59299999 150 0 0
1.602 -0.69800001 -0.59299999 150 16 0
1.609 -0.69599998 -0.59399998 150 16 0
1.612 -0.69300002 -0.59299999 150 16 0
1.62 -0.69199997 -0.59399998 150 0 0
1.62 -0.68699998 -0.59200001 150 16 0
1.63 -0.68599999 -0.59399998 150 16 0
1.633 -0.68300003 -0.59299999 129 0 0
1.638 -0.68099999 -0.59200001 139 0 0
1.642 -0.67699999 -0.59200001 150 0 0
1.658 -0.67900002 -0.59500003 139 3 0
1.663 -0.676 -0.59500003 118 0 0
1.665 -0.67299998 -0.59299999 110 0 0
1.671 -0.67000002 -0.59299999 98 0 0
1.675 -0.667 -0.59200001 146 0 0
1.681 -0.66399997 -0.59100002 92 0 0
1.6849999 -0.66100001 -0.58999997 93 0 0
1.696 -0.66000003 -0.59100002 110 0 0
1.699 -0.65600002 -0.58999997 2 0 0
1.709 -0.65499997 -0.59100002 2 0 0
1.7130001 -0.65200001 -0.58999997 90 0 0
1.715 -0.648 -0.588 93 0 0
1.727 -0.64700001 -0.58899999 2 0 0
1.732 -0.64399999 -0.588 2 0 0
1.7359999 -0.64099997 -0.58600003 2 0 0
1.744 -0.63800001 -0.58600003 2 0 0
1.747 -0.634 -0.58399999 2 0 0
1.755 -0.63200003 -0.58399999 2 0 0
1.763 -0.63 -0.58399999 2 0 0
1.771 -0.62800002 -0.583 2 0 0
1.777 -0.625 -0.58200002 2 0 0
1.784 -0.62199998 -0.58200002 2 0 0
1.79 -0.61900002 -0.57999998 2 0 0
1.799 -0.61699998 -0.57999998 150 16 0
1.803 -0.61299998 -0.57800001 150 16 0
1.811 -0.611 -0.57700002 150 16 0
1.817 -0.60699999 -0.57599998 150 16 0
1.827 -0.60600001 -0.57599998 150 16 0
1.831 -0.602 -0.574 150 16 0
1.8380001 -0.59899998 -0.57300001 150 16 0
1.848 -0.597 -0.57200003 150 16 0
1.853 -0.59299999 -0.56999999 150 16 0
1.857 -0.58899999 -0.56800002 150 16 0
1.868 -0.588 -0.56800002 150 16 0
1.872 -0.58399999 -0.56599998 150 16 0
1.877 -0.57999998 -0.56400001 150 16 0
1.8839999 -0.57700002 -0.56199998 150 16 0
1.9 -0.57599998 -0.56300002 150 16 0
1.909 -0.574 -0.56199998 150 16 0
1.914 -0.56999999 -0.56 150 16 0
1.921 -0.56599998 -0.55800003 150 16 0
1.9299999 -0.56400001 -0.55699998 150 16 0
1.939 -0.56099999 -0.55599999 150 16 0
1.944 -0.55699998 -0.55299997 150 16 0
1.951 -0.55400002 -0.551 150 16 0
1.957 -0.55000001 -0.54900002 150 16 0
1.969 -0.54799998 -0.54900002 150 16 0
1.973 -0.54400003 -0.546 131 16 0
1.984 -0.54100001 -0.54500002 121 16 0
1.988 -0.537 -0.542 121 16 0
2 -0.53500003 -0.54100001 128 16 0
2.0090001 -0.53200001 -0.53899997 118 16 0
2.013 -0.52700001 -0.53600001 102 16 0
2.026 -0.52499998 -0.53500003 108 16 0
2.036 -0.52200001 -0.53399998 122 16 0
2.0380001 -0.51700002 -0.52999997 116 16 0
2.05 -0.51499999 -0.52899998 113 16 0
2.059 -0.51200002 -0.52700001 111 16 0
2.0680001 -0.509 -0.52499998 102 16 0
2.0739999 -0.505 -0.52200001 112 16 0
2.0880001 -0.50300002 -0.52100003 115 16 0
2.0929999 -0.498 -0.51800001 110 16 0
2.0999999 -0.49399999 -0.51499999 111 16 0
2.1099999 -0.491 -0.51300001 112 16 0
2.1259999 -0.48899999 -0.51200002 104 16 0
2.1340001 -0.486 -0.509 94 16 0
2.1429999 -0.48199999 -0.50700003 79 16 0
2.154 -0.479 -0.50400001 86 16 0
2.164 -0.47499999 -0.50199997 83 16 0
2.1689999 -0.47099999 -0.49900001 76 16 0
2.181 -0.46799999 -0.49599999 78 16 0
2.1919999 -0.465 -0.49399999 70 16 0
2.197 -0.46000001 -0.49000001 69 16 0
2.2049999 -0.456 -0.48699999 69 16 0
2.217 -0.45300001 -0.48500001 70 16 0
2.224 -0.449 -0.48199999 74 16 0
2.2360001 -0.44600001 -0.479 68 16 0
2.243 -0.44100001 -0.47600001 71 16 0
2.2490001 -0.43700001 -0.472 72 16 0
2.2650001 -0.43399999 -0.47 72 16 0
2.273 -0.43000001 -0.46700001 65 16 0
2.2809999 -0.426 -0.463 69 16 0
2.296 -0.42300001 -0.461 68 16 0
2.303 -0.419 -0.45699999 62 16 0
2.3180001 -0.41600001 -0.45500001 60 16 0
2.326 -0.41100001 -0.45100001 54 16 0
2.3380001 -0.40799999 -0.44800001 53 16 0
2.346 -0.403 -0.44400001 66 16 0
2.355 -0.39899999 -0.44100001 59 16 0
2.368 -0.396 -0.43700001 55 16 0
2.3800001 -0.39199999 -0.43399999 55 16 0
2.3870001 -0.38699999 -0.43000001 57 16 0
2.3959999 -0.38299999 -0.426 60 16 0
2.4119999 -0.38 -0.42300001 47 16 0
2.424 -0.37599999 -0.41999999 47 16 0
2.434 -0.37200001 -0.41600001 43 16 0
2.4419999 -0.36700001 -0.412 44 16 0
2.4530001 -0.36300001 -0.40799999 39 16 0
2.4679999 -0.359 -0.40400001 39 16 0
2.4760001 -0.354 -0.40000001 38 16 0
2.487 -0.34999999 -0.396 38 16 0
2.4909999 -0.345 -0.391 41 16 0
2.5079999 -0.34099999 -0.38699999 32 16 0
2.5209999 -0.33700001 -0.384 33 16 0
2.529 -0.33199999 -0.37900001 33 16 0
2.546 -0.329 -0.375 33 16 0
2.5610001 -0.32499999 -0.37200001 33 16 0
2.5650001 -0.31900001 -0.366 34 16 0
2.5769999 -0.315 -0.36199999 34 16 0
2.5899999 -0.31099999 -0.35699999 33 16 0
2.602 -0.30599999 -0.35299999 33 16 0
2.6140001 -0.30199999 -0.34799999 32 16 0
2.6229999 -0.29699999 -0.34299999 32 16 0
2.6359999 -0.292 -0.33899999 33 16 0
2.654 -0.28799999 -0.33500001 33 16 0
2.664 -0.28299999 -0.33000001 31 16 0
2.675 -0.278 -0.32499999 33 16 0
2.6930001 -0.27399999 -0.31999999 33 16 0
2.7019999 -0.26899999 -0.315 31 16 0
2.7119999 -0.264 -0.31 30 16 0
2.721 -0.259 -0.30399999 32 16 0
2.7309999 -0.25400001 -0.29899999 32 16 0
2.7509999 -0.249 -0.294 31 16 0
2.76 -0.244 -0.28799999 31 16 0
2.773 -0.23899999 -0.28299999 30 16 0
2.789 -0.234 -0.278 31 16 0
2.7969999 -0.229 -0.27200001 30 16 0
2.8139999 -0.22400001 -0.26699999 31 16 0
2.8299999 -0.219 -0.26100001 30 16 0
2.8399999 -0.214 -0.255 29 16 0
2.8540001 -0.20900001 -0.25 30 16 0
2.869 -0.20299999 -0.244 31 16 0
2.878 -0.198 -0.23800001 29 16 0
2.898 -0.193 -0.23199999 30 16 0
2.9100001 -0.18799999 -0.226 30 16 0
2.9230001 -0.182 -0.22 30 16 0
2.9389999 -0.177 -0.214 29 16 0
2.9549999 -0.171 -0.208 28 16 0
2.97 -0.16599999 -0.20200001 28 16 0
2.9860001 -0.161 -0.19499999 27 16 0
2.9979999 -0.155 -0.189 28 16 0
3.016 -0.149 -0.183 28 16 0
3.0350001 -0.14399999 -0.176 28 16 0
3.046 -0.138 -0.169 28 16 0
3.0680001 -0.133 -0.163 28 16 0
3.082 -0.127 -0.156 27 16 0
3.098 -0.121 -0.149 27 16 0
3.112 -0.115 -0.142 27 16 0
3.1289999 -0.109 -0.13500001 28 16 0
3.1440001 -0.103 -0.12800001 29 16 0
3.165 -0.097000003 -0.121 30 16 0
3.177 -0.090999998 -0.113 29 16 0
3.2 -0.085000001 -0.106 30 16 0
3.2149999 -0.079000004 -0.098999999 33 16 0
3.227 -0.072999999 -0.090999998 49 16 0
3.2379999 -0.066 -0.082999997 150 16 0
3.244 -0.059999999 -0.075000003 150 16 0
3.2420001 -0.052999999 -0.067000002 150 16 0
3.2379999 -0.046 -0.057999998 150 16 0
3.2420001 -0.039999999 -0.050000001 150 16 0
3.237 -0.033 -0.041999999 150 16 0
3.2379999 -0.027000001 -0.034000002 150 16 0
3.2360001 -0.02 -0.026000001 109 16 0
3.2390001 -0.014 -0.017000001 35 16 0
3.256 -0.0070000002 -0.0089999996 20 16 0
3.2750001 -0.001 -0.001 19 16 0
3.2939999 0.0049999999 0.0060000001 19 16 0
3.306 0.012 0.015 20 16 0
3.326 0.017999999 0.023 21 16 0
3.349 0.025 0.032000002 36 16 0
3.355 0.032000002 0.041000001 103 16 0
3.3499999 0.037999999 0.048999999 53 16 0
3.346 0.045000002 0.057999998 14 16 0
3.296 0.050999999 0.064999998 4 18 0
3.309 0.057 0.074000001 16 16 0
3.319 0.064000003 0.082999997 16 16 0
3.332 0.071000002 0.092 33 16 0
3.3110001 0.077 0.1 34 16 0
3.2920001 0.082999997 0.108 32 16 0
3.2739999 0.088 0.116 33 16 0
3.2539999 0.093999997 0.124 45 16 0
3.247 0.1 0.132 144 16 0
3.25 0.107 0.14 150 16 0
3.2490001 0.113 0.149 150 16 0
3.2520001 0.119 0.15700001 150 16 0
3.25 0.125 0.16599999 150 16 0
3.2460001 0.132 0.17399999 150 16 0
3.25 0.138 0.183 150 16 0
3.253 0.14399999 0.192 150 16 0
3.2490001 0.15000001 0.2 150 16 0
3.253 0.15700001 0.20900001 150 16 0
3.243 0.162 0.21699999 150 16 0
3.1429999 0.163 0.21799999 148 17 0
3.0250001 0.163 0.21799999 27 18 0
3.0739999 0.171 0.23 46 16 0
3.174 0.183 0.24600001 150 16 0
3.2539999 0.193 0.26100001 150 16 0
3.253 0.199 0.26899999 150 16 0
3.2520001 0.205 0.278 150 16 0
3.2509999 0.211 0.287 150 16 0
3.2550001 0.21799999 0.296 150 16 0
3.2590001 0.22400001 0.30500001 150 16 0
3.2579999 0.23 0.31299999 150 16 0
3.2579999 0.236 0.322 150 16 0
3.257 0.242 0.331 150 16 0
3.26 0.248 0.34 150 16 0
3.2639999 0.25400001 0.34900001 150 16 0
3.263 0.25999999 0.35800001 150 16 0
3.2609999 0.266 0.36700001 150 16 0
3.26 0.27200001 0.37599999 150 16 0
3.2609999 0.278 0.38499999 150 16 0
3.2550001 0.28299999 0.39300001 148 16 0
3.2420001 0.28799999 0.40000001 46 16 0
3.2260001 0.292 0.40700001 44 16 0
3.214 0.29699999 0.414 44 16 0
3.197 0.301 0.421 44 16 0
3.1800001 0.30500001 0.42699999 46 16 0
3.1659999 0.30899999 0.43399999 46 16 0
3.155 0.31400001 0.442 46 16 0
3.132 0.317 0.447 43 16 0
3.1199999 0.322 0.454 45 16 0
3.1029999 0.32499999 0.46000001 43 16 0
3.0910001 0.33000001 0.46700001 43 16 0
3.072 0.333 0.47299999 42 16 0
3.0569999 0.33700001 0.479 41 16 0
3.0469999 0.34099999 0.486 44 16 0
3.0309999 0.34400001 0.49200001 43 16 0
3.0139999 0.34799999 0.498 45 16 0
3.003 0.352 0.50400001 43 16 0
2.984 0.354 0.509 42 16 0
2.9719999 0.35800001 0.51599997 46 16 0
2.96 0.36199999 0.52200001 52 16 0
2.948 0.36500001 0.52899998 51 16 0
2.9260001 0.36700001 0.53299999 62 16 0
2.918 0.37099999 0.54000002 70 16 0
2.9059999 0.375 0.546 65 16 0
2.8940001 0.37799999 0.55199999 63 16 0
2.8729999 0.38 0.55599999 67 16 0
2.8659999 0.384 0.56300002 72 16 0
2.855 0.38699999 0.56900001 71 16 0
2.8399999 0.38999999 0.574 65 16 0
2.823 0.39199999 0.579 69 16 0
2.8150001 0.396 0.58600003 77 16 0
2.8 0.39899999 0.59100002 76 16 0
2.7909999 0.40200001 0.597 75 16 0
2.777 0.40400001 0.602 77 16 0
2.7609999 0.40700001 0.60699999 74 16 0
2.747 0.40900001 0.61199999 75 16 0
2.737 0.412 0.61799997 77 16 0
2.724 0.414 0.62300003 78 16 0
2.7190001 0.41800001 0.63 94 16 0
2.7030001 0.41999999 0.634 88 16 0
2.691 0.42199999 0.639 92 16 0
2.6819999 0.42500001 0.64499998 99 16 0
2.671 0.428 0.64999998 92 16 0
2.654 0.42899999 0.65399998 90 16 0
2.645 0.43200001 0.66000003 96 16 0
2.6389999 0.435 0.66600001 94 16 0
2.6270001 0.43700001 0.671 97 16 0
2.6129999 0.43900001 0.67500001 87 16 0
2.602 0.44100001 0.68000001 95 16 0
2.5940001 0.44299999 0.68599999 100 16 0
2.585 0.44600001 0.69099998 99 16 0
2.569 0.447 0.69499999 105 16 0
2.5569999 0.449 0.699 108 16 0
2.5480001 0.45100001 0.704 105 16 0
2.5350001 0.45300001 0.70899999 100 16 0
2.527 0.45500001 0.71399999 103 16 0
2.516 0.45699999 0.71899998 105 16 0
2.5079999 0.45899999 0.72399998 110 16 0
2.49 0.45899999 0.727 100 16 0
2.4849999 0.46200001 0.73299998 103 16 0
2.471 0.463 0.736 108 16 0
2.4619999 0.465 0.741 104 16 0
2.4530001 0.46599999 0.74599999 104 16 0
2.4419999 0.46799999 0.75 113 16 0
2.434 0.47 0.755 145 16 0
2.4230001 0.47099999 0.759 144 16 0
2.4100001 0.472 0.76300001 150 16 0
2.401 0.47299999 0.76700002 150 16 0
2.3929999 0.47499999 0.77200001 150 16 0
2.385 0.477 0.77700001 150 16 0
2.375 0.47799999 0.78100002 150 16 0
2.362 0.47799999 0.78500003 150 16 0
2.3559999 0.47999999 0.79000002 150 16 0
2.3469999 0.48199999 0.79400003 150 16 0
2.3340001 0.48199999 0.79699999 150 16 0
2.3310001 0.484 0.80400002 150 16 0
2.3180001 0.48500001 0.80599999 150 16 0
2.312 0.486 0.81199998 150 16 0
2.3050001 0.48800001 0.81599998 150 16 0
2.29 0.48800001 0.81900001 150 16 0
2.2869999 0.49000001 0.82499999 150 16 0
2.2739999 0.49000001 0.82700002 150 16 0
2.2639999 0.49000001 0.83099997 150 16 0
2.2579999 0.49200001 0.83600003 150 16 0
2.247 0.49200001 0.83899999 150 16 0
2.2320001 0.491 0.83999997 150 16 0
2.223 0.49200001 0.84399998 150 16 0
2.22 0.49399999 0.85000002 150 16 0
2.2079999 0.49399999 0.85299999 150 16 0
2.2030001 0.495 0.85799998 150 16 0
2.194 0.49599999 0.861 150 16 0
2.1800001 0.495 0.86299998 150 16 0
2.1760001 0.49599999 0.86799997 150 16 0
2.168 0.49700001 0.87199998 150 16 0
2.1570001 0.49700001 0.87400001 150 16 0
2.1489999 0.49700001 0.87800002 150 16 0
2.141 0.49700001 0.88200003 150 16 0
2.1359999 0.498 0.88599998 150 16 0
2.128 0.49900001 0.88999999 150 16 0
2.118 0.498 0.89300001 150 16 0
2.109 0.498 0.89499998 150 16 0
2.1010001 0.49900001 0.89899999 150 16 0
2.095 0.49900001 0.903 150 16 0
2.082 0.498 0.90399998 150 16 0
2.0780001 0.49900001 0.90899998 150 16 0
2.0680001 0.498 0.91100001 150 16 0
2.063 0.49900001 0.91500002 150 16 0
2.0580001 0.49900001 0.92000002 150 16 0
2.049 0.49900001 0.92199999 150 16 0
2.0380001 0.498 0.92400002 150 16 0
2.0320001 0.498 0.92799997 150 16 0
2.0250001 0.498 0.93099999 150 16 0
2.0179999 0.498 0.93400002 150 16 0
2.0090001 0.49700001 0.93599999 150 16 0
2.003 0.49700001 0.94 150 16 0
1.993 0.49599999 0.94099998 150 16 0
1.988 0.49599999 0.94499999 150 16 0
1.982 0.49599999 0.949 150 16 0
1.978 0.49700001 0.95300001 150 16 0
1.971 0.49599999 0.95599997 150 16 0
1.961 0.495 0.95700002 150 16 0
1.952 0.49399999 0.95899999 150 16 0
1.95 0.49399999 0.96399999 150 16 0
1.936 0.49200001 0.963 150 16 0
1.9299999 0.491 0.96600002 150 16 0
1.927 0.49200001 0.97100002 150 16 0
1.923 0.49200001 0.97500002 150 16 0
1.914 0.49000001 0.97600001 150 16 0
1.91 0.49000001 0.98000002 150 16 0
1.902 0.48899999 0.98100001 150 16 0
1.893 0.48699999 0.98299998 150 16 0
1.89 0.48699999 0.98699999 150 16 0
1.886 0.48699999 0.99000001 150 16 0
1.882 0.48699999 0.99400002 150 16 0
1.872 0.48500001 0.99400002 150 16 0
1.864 0.48300001 0.995 150 16 0
1.862 0.48300001 1 150 16 0
1.854 0.48199999 1.001 150 16 0
1.852 0.48100001 1.005 150 16 0
1.846 0.47999999 1.008 150 16 0
1.839 0.479 1.0089999 150 16 0
1.836 0.47799999 1.012 150 16 0
1.827 0.47600001 1.013 150 16 0
1.822 0.47499999 1.015 150 16 0
1.816 0.47400001 1.017 150 16 0
1.809 0.472 1.018 150 16 0
1.807 0.472 1.022 150 16 0
1.804 0.47099999 1.025 150 16 0
1.796 0.46900001 1.025 150 16 0
1.7920001 0.46799999 1.028 150 16 0
1.788 0.46700001 1.031 150 16 0
1.781 0.465 1.0319999 150 16 0
1.776 0.463 1.033 150 16 0
1.774 0.463 1.0369999 150 16 0
1.771 0.46200001 1.04 150 16 0
1.766 0.46000001 1.041 150 16 0
1.762 0.458 1.043 150 16 0
1.7589999 0.45699999 1.045 150 16 0
1.7539999 0.456 1.0470001 150 16 0
1.752 0.454 1.05 150 16 0
1.745 0.45199999 1.05 150 16 0
1.742 0.45100001 1.052 150 16 0
1.735 0.44800001 1.052 150 16 0
1.733 0.447 1.0549999 150 16 0
1.729 0.44499999 1.056 150 16 0
1.725 0.44400001 1.058 150 16 0
1.72 0.442 1.059 150 16 0
1.7180001 0.44 1.061 150 16 0
1.716 0.43900001 1.064 150 16 0
1.7 0.43399999 1.057 150 18 0
1.698 0.433 1.0599999 150 16 0
1.698 0.43099999 1.063 150 16 0
1.693 0.42899999 1.063 150 16 0
1.693 0.428 1.067 150 16 0
1.689 0.426 1.067 150 16 0
1.687 0.42399999 1.069 150 16 0
1.686 0.42300001 1.072 150 16 0
1.683 0.421 1.072 150 16 0
1.683 0.41999999 1.076 150 16 0
1.679 0.417 1.076 150 16 0
1.677 0.41499999 1.077 150 16 0
1.67 0.412 1.076 150 16 0
1.67 0.41100001 1.0779999 150 16 0
1.669 0.40900001 1.08 150 16 0
1.668 0.40700001 1.082 150 16 0
1.663 0.405 1.081 150 16 0
1.6619999 0.403 1.0829999 150 16 0
1.659 0.40000001 1.0829999 150 16 0
1.6619999 0.39899999 1.087 150 16 0
1.6569999 0.39700001 1.086 150 16 0
1.656 0.39500001 1.087 150 16 0
1.656 0.39300001 1.089 150 16 0
1.655 0.391 1.09 150 16 0
1.648 0.38699999 1.087 150 19 0
1.647 0.38499999 1.0880001 150 16 0
1.647 0.38299999 1.09 150 16 0
1.647 0.38100001 1.091 150 16 0
1.646 0.37900001 1.092 150 16 0
1.642 0.37599999 1.091 150 16 0
1.642 0.37400001 1.092 150 16 0
1.642 0.37200001 1.0930001 150 16 0
1.64 0.37 1.0930001 150 16 0
1.642 0.368 1.095 150 16 0
1.64 0.36500001 1.095 150 16 0
1.636 0.36199999 1.0930001 150 16 0
1.6339999 0.359 1.092 150 16 0
1.637 0.35800001 1.094 150 16 0
1.6339999 0.35499999 1.0930001 150 16 0
1.6339999 0.35299999 1.0930001 150 16 0
1.636 0.35100001 1.095 150 16 0
1.633 0.34799999 1.094 150 16 0
1.6339999 0.34599999 1.094 150 16 0
1.6339999 0.34299999 1.094 150 16 0
1.6339999 0.34099999 1.095 150 16 0
1.635 0.33899999 1.095 150 16 0
1.633 0.336 1.0930001 150 16 0
1.637 0.33399999 1.096 150 16 0
1.635 0.331 1.094 150 16 0
1.638 0.329 1.096 150 16 0
1.637 0.32699999 1.095 150 16 0
1.638 0.324 1.094 150 16 0
1.637 0.32100001 1.0930001 150 16 0
1.635 0.31799999 1.091 150 16 0
1.64 0.317 1.0930001 150 16 0
1.636 0.31299999 1.09 150 16 0
1.64 0.31099999 1.091 150 16 0
1.642 0.30899999 1.092 150 16 0
1.643 0.30700001 1.091 150 16 0
1.646 0.30500001 1.092 150 16 0
1.645 0.30199999 1.09 150 16 0
1.648 0.30000001 1.091 150 16 0
1.649 0.29699999 1.09 150 16 0
1.648 0.294 1.087 150 16 0
1.652 0.292 1.0880001 150 16 0
1.653 0.28999999 1.087 150 16 0
1.654 0.287 1.086 150 16 0
1.6569999 0.285 1.086 150 16 0
1.658 0.28200001 1.085 150 16 0
1.659 0.28 1.0829999 150 16 0
1.661 0.27700001 1.082 150 16 0
1.664 0.27500001 1.082 150 16 0
1.665 0.27200001 1.08 150 16 0
1.67 0.27000001 1.081 150 16 0
1.673 0.26800001 1.081 150 16 0
1.675 0.26499999 1.079 150 16 0
1.676 0.26199999 1.077 150 16 0
1.6799999 0.25999999 1.077 150 16 0
1.681 0.25799999 1.075 150 16 0
1.683 0.255 1.073 150 16 0
1.6849999 0.25299999 1.072 150 16 0
1.687 0.25 1.0700001 150 16 0
1.691 0.248 1.0700001 150 16 0
1.699 0.24600001 1.072 150 16 0
1.701 0.244 1.0700001 150 16 0
1.7029999 0.241 1.068 150 16 0
1.711 0.23899999 1.069 150 16 0
1.712 0.237 1.067 150 16 0
1.714 0.234 1.064 150 16 0
1.717 0.23199999 1.062 150 16 0
1.719 0.229 1.0599999 150 16 0
1.725 0.227 1.0599999 150 16 0
1.727 0.22499999 1.057 150 16 0
1.7309999 0.222 1.056 150 16 0
1.7309999 0.219 1.052 150 16 0
1.737 0.21699999 1.052 150 16 0
1.7410001 0.215 1.05 150 16 0
1.743 0.213 1.0470001 150 16 0
1.7460001 0.20999999 1.045 150 16 0
1.749 0.208 1.043 150 16 0
1.751 0.205 1.04 150 16 0
1.757 0.20299999 1.039 150 16 0
1.76 0.20100001 1.036 150 16 0
1.762 0.198 1.033 150 16 0
1.778 0.198 1.038 150 19 0
1.784 0.19499999 1.0369999 150 16 0
1.788 0.193 1.035 150 16 0
1.7920001 0.191 1.0319999 150 16 0
1.795 0.18799999 1.029 150 16 0
1.8 0.186 1.027 150 16 0
1.811 0.185 1.029 150 16 0
1.814 0.182 1.025 150 16 0
1.816 0.18000001 1.022 150 16 0
1.823 0.178 1.02 150 16 0
1.827 0.176 1.018 150 16 0
1.8329999 0.17399999 1.016 150 16 0
1.834 0.171 1.011 150 16 0
1.8430001 0.17 1.011 150 16 0
1.849 0.167 1.0089999 150 16 0
1.855 0.16500001 1.007 150 16 0
1.857 0.163 1.003 150 16 0
1.864 0.161 1.001 150 16 0
1.867 0.15899999 0.99699998 150 16 0
1.878 0.15700001 0.99800003 150 16 0
1.887 0.155 0.99699998 150 16 0
1.895 0.154 0.99599999 150 16 0
1.892 0.15099999 0.98799998 150 16 0
1.902 0.149 0.98799998 150 16 0
1.909 0.147 0.986 150 16 0
1.911 0.145 0.98100001 150 16 0
1.924 0.14399999 0.98100001 150 16 0
1.925 0.141 0.97600001 150 16 0
1.931 0.14 0.97399998 150 16 0
1.941 0.138 0.972 150 16 0
1.952 0.13600001 0.972 150 16 0
1.955 0.134 0.96700001 150 16 0
1.9630001 0.132 0.96499997 150 16 0
1.9680001 0.13 0.96200001 150 16 0
1.976 0.12899999 0.95899999 150 16 0
1.9809999 0.127 0.95599997 150 16 0
1.988 0.125 0.95300001 150 16 0
1.994 0.123 0.949 150 16 0
1.999 0.121 0.94499999 150 16 0
2.013 0.12 0.94499999 150 16 0
2.02 0.118 0.94199997 150 16 0
2.03 0.116 0.94 150 16 0
2.0380001 0.115 0.93800002 150 16 0
2.0439999 0.113 0.93400002 146 16 0
2.052 0.111 0.93099999 150 16 0
2.0610001 0.109 0.92799997 150 16 0
2.0680001 0.108 0.92500001 150 16 0
2.0739999 0.106 0.921 136 16 0
2.0829999 0.104 0.91799998 150 16 0
2.089 0.103 0.91399997 137 16 0
2.096 0.101 0.91000003 149 16 0
2.1029999 0.098999999 0.90600002 143 16 0
2.1110001 0.097999997 0.903 139 16 0
2.1199999 0.096000001 0.89999998 143 16 0
2.1270001 0.093999997 0.89499998 137 16 0
2.1340001 0.093000002 0.89099997 141 16 0
2.1440001 0.090999998 0.88800001 140 16 0
2.1500001 0.090000004 0.884 148 16 0
2.1589999 0.088 0.88099998 129 16 0
2.168 0.086999997 0.87699997 130 16 0
2.178 0.085000001 0.87400001 139 16 0
2.1849999 0.083999999 0.87 135 16 0
2.1960001 0.082000002 0.86699998 139 16 0
2.204 0.081 0.86299998 135 16 0
2.211 0.079000004 0.85799998 140 16 0
2.224 0.078000002 0.85600001 124 16 0
2.23 0.075999998 0.85100001 120 16 0
2.237 0.075000003 0.84600002 115 16 0
2.2479999 0.072999999 0.84200001 133 16 0
2.257 0.071999997 0.838 139 16 0
2.2690001 0.071000002 0.83499998 123 16 0
2.28 0.068999998 0.83200002 123 16 0
2.286 0.068000004 0.82599998 122 16 0
2.2950001 0.066 0.82200003 111 16 0
2.3069999 0.064999998 0.81800002 107 16 0
2.3180001 0.064000003 0.81400001 110 16 0
2.3280001 0.063000001 0.81099999 117 16 0
2.339 0.061000001 0.80699998 110 16 0
2.348 0.059999999 0.80199999 118 16 0
2.359 0.059 0.79699999 120 16 0
2.3670001 0.057 0.792 96 16 0
2.375 0.056000002 0.787 108 16 0
2.385 0.055 0.78200001 102 16 0
2.4000001 0.054000001 0.77999997 90 16 0
2.405 0.052000001 0.773 96 16 0
2.415 0.050999999 0.76800001 81 16 0
2.427 0.050000001 0.764 95 16 0
2.4360001 0.048999999 0.759 87 16 0
2.444 0.048 0.75300002 91 16 0
2.4549999 0.046 0.74800003 91 16 0
2.4690001 0.045000002 0.74400002 91 16 0
2.483 0.044 0.74000001 83 16 0
2.49 0.043000001 0.73400003 83 16 0
2.5020001 0.041999999 0.72899997 93 16 0
2.513 0.041000001 0.72399998 83 16 0
2.523 0.039999999 0.71799999 80 16 0
2.536 0.039000001 0.713 77 16 0
2.546 0.037999999 0.708 81 16 0
2.559 0.037 0.70300001 80 16 0
2.5769999 0.035999998 0.699 79 16 0
2.5869999 0.035 0.69300002 71 16 0
2.6029999 0.034000002 0.68900001 72 16 0
2.612 0.033 0.68300003 69 16 0
2.6229999 0.032000002 0.67699999 62 16 0
2.6370001 0.030999999 0.67199999 58 16 0
2.6489999 0.029999999 0.66600001 62 16 0
2.658 0.028999999 0.65899998 71 16 0
2.671 0.028000001 0.65399998 67 16 0
2.6830001 0.027000001 0.648 67 16 0
2.6900001 0.026000001 0.64099997 61 16 0
2.7090001 0.025 0.63599998 56 16 0
2.7249999 0.024 0.63099998 33 16 0
2.7360001 0.023 0.625 34 16 0
2.7539999 0.022 0.62 32 16 0
2.7650001 0.022 0.61299998 33 16 0
2.777 0.021 0.60600001 31 16 0
2.7920001 0.02 0.60000002 33 16 0
2.8039999 0.018999999 0.59399998 33 16 0
2.816 0.017999999 0.58700001 33 16 0
2.8269999 0.017999999 0.57999998 34 16 0
2.839 0.017000001 0.57300001 40 16 0
2.852 0.016000001 0.56599998 35 16 0
2.872 0.015 0.56099999 34 16 0
2.891 0.015 0.55500001 33 16 0
2.904 0.014 0.54799998 31 16 0
2.9300001 0.013 0.54299998 32 16 0
2.938 0.013 0.53500003 31 16 0
2.9519999 0.012 0.528 30 16 0
2.9719999 0.011 0.52100003 31 16 0
2.9890001 0.011 0.51499999 32 16 0
3.0009999 0.0099999998 0.50700003 32 16 0
3.0209999 0.0089999996 0.5 32 16 0
3.033 0.0089999996 0.49200001 32 16 0
3.052 0.0080000004 0.48500001 31 16 0
3.069 0.0080000004 0.47799999 31 16 0
3.0869999 0.0070000002 0.47099999 32 16 0
3.1010001 0.0060000001 0.463 31 16 0
3.118 0.0060000001 0.45500001 31 16 0
3.141 0.0049999999 0.44800001 33 16 0
3.1589999 0.0049999999 0.44 33 16 0
3.181 0.0040000002 0.433 33 16 0
3.198 0.0040000002 0.42500001 34 16 0
3.21 0.003 0.41600001 33 16 0
3.233 0.003 0.40799999 32 16 0
3.2520001 0.003 0.40000001 33 16 0
3.2720001 0.0020000001 0.39199999 33 16 0
3.29 0.0020000001 0.38299999 32 16 0
3.3150001 0.001 0.375 33 16 0
3.326 0.001 0.366 33 16 0
3.3499999 0.001 0.35800001 32 16 0
3.3670001 0 0.34799999 41 16 0
3.3759999 0 0.338 139 16 0
3.3740001 0 0.32699999 95 16 0
3.372 0 0.31600001 106 16 0
3.365 0 0.30399999 96 16 0
3.3599999 0 0.29300001 93 16 0
3.359 0 0.28200001 98 16 0
3.3510001 -0.001 0.271 83 16 0
3.346 -0.001 0.259 93 16 0
3.3429999 -0.001 0.248 102 16 0
3.3369999 -0.001 0.237 97 16 0
3.335 -0.001 0.226 101 16 0
3.329 -0.001 0.215 104 16 0
3.322 -0.001 0.20299999 106 16 0
3.322 -0.001 0.193 103 16 0
3.319 -0.0020000001 0.182 120 16 0
3.303 -0.0020000001 0.17 117 16 0
3.303 -0.0020000001 0.15899999 125 16 0
3.2969999 -0.0020000001 0.148 112 16 0
3.29 -0.001 0.13699999 121 16 0
3.29 -0.001 0.127 131 16 0
3.2850001 -0.001 0.116 83 16 0
3.2950001 -0.001 0.106 35 16 0
3.3110001 -0.001 0.094999999 24 16 0
3.3099999 -0.001 0.083999999 17 16 0
3.306 -0.001 0.074000001 16 16 0
3.302 -0.001 0.063000001 16 16 0
3.3010001 -0.001 0.052000001 16 16 0
3.2939999 0 0.041000001 16 16 0
3.2869999 0 0.030999999 16 16 0
3.286 0 0.02 16 16 0
3.286 0 0.0089999996 16 16 0
3.279 0 0 16 16 0
3.277 0 -0.011 16 16 0
3.2739999 0 -0.021 15 16 0
3.2690001 0 -0.032000002 16 16 0
3.2690001 0.001 -0.043000001 16 16 0
3.2639999 0.001 -0.052999999 16 16 0
3.26 0.001 -0.064000003 16 16 0
3.257 0.0020000001 -0.074000001 16 16 0
3.2520001 0.0020000001 -0.083999999 16 16 0
3.247 0.003 -0.094999999 16 16 0
3.2479999 0.003 -0.105 16 16 0
3.24 0.0040000002 -0.116 16 16 0
3.24 0.0040000002 -0.126 16 16 0
3.2390001 0.0049999999 -0.13699999 16 16 0
3.2320001 0.0049999999 -0.147 16 16 0
