# .PCD v0.7 - Point Cloud Data file format
VERSION 0.7
FIELDS x y z intensity tag line
SIZE 4 4 4 4 1 1
TYPE F F F F U U
COUNT 1 1 1 1 1 1
WIDTH 1370
HEIGHT 1
VIEWPOINT 0 0 0 1 0 0 0
POINTS 1370
DATA ascii
2.677 0.162 -1.279 147 16 0
2.671 0.164 -1.284 147 16 0
2.6700001 0.167 -1.2920001 150 16 0
2.664 0.17 -1.298 144 16 0
2.6619999 0.17299999 -1.3049999 150 16 0
2.6570001 0.176 -1.311 134 16 0
2.655 0.17900001 -1.318 135 16 0
2.648 0.18099999 -1.323 143 16 0
2.6429999 0.184 -1.3279999 135 16 0
2.6370001 0.18700001 -1.334 134 16 0
2.6359999 0.19 -1.341 146 16 0
2.6300001 0.193 -1.346 131 16 0
2.6270001 0.19599999 -1.353 140 16 0
2.6240001 0.199 -1.359 142 16 0
2.6159999 0.20200001 -1.363 123 16 0
2.612 0.205 -1.369 123 16 0
2.608 0.208 -1.374 136 16 0
2.605 0.211 -1.38 132 16 0
2.5999999 0.214 -1.385 122 16 0
2.598 0.21699999 -1.392 133 16 0
2.595 0.221 -1.398 133 16 0
2.589 0.22400001 -1.402 138 16 0
2.5829999 0.227 -1.4069999 134 16 0
2.5829999 0.23 -1.414 126 16 0
2.579 0.233 -1.419 130 16 0
2.572 0.236 -1.4220001 126 16 0
2.569 0.23999999 -1.428 125 16 0
2.562 0.243 -1.432 125 16 0
2.562 0.24600001 -1.438 146 16 0
2.556 0.249 -1.442 137 16 0
2.5510001 0.25299999 -1.446 116 16 0
2.55 0.25600001 -1.452 144 16 0
2.5450001 0.259 -1.456 125 16 0
2.543 0.26300001 -1.462 136 16 0
2.54 0.26699999 -1.467 141 16 0
2.5350001 0.27000001 -1.471 131 16 0
2.53 0.273 -1.474 133 16 0
2.529 0.27700001 -1.48 128 16 0
2.5220001 0.28 -1.483 129 16 0
2.523 0.28400001 -1.489 122 16 0
2.5139999 0.287 -1.49 127 16 0
2.5120001 0.29100001 -1.4960001 115 16 0
2.51 0.294 -1.5 135 16 0
2.507 0.29800001 -1.505 121 16 0
2.4990001 0.301 -1.506 113 16 0
2.4960001 0.30399999 -1.5089999 116 16 0
2.4949999 0.308 -1.515 115 16 0
2.4909999 0.31200001 -1.518 111 16 0
2.49 0.31600001 -1.523 111 16 0
2.483 0.31900001 -1.524 116 16 0
2.4809999 0.32300001 -1.529 116 16 0
2.477 0.32600001 -1.531 115 16 0
2.474 0.33000001 -1.535 117 16 0
2.4690001 0.333 -1.5369999 109 16 0
2.4619999 0.336 -1.5369999 110 16 0
2.4660001 0.34099999 -1.544 110 16 0
2.4579999 0.34400001 -1.544 112 16 0
2.4560001 0.34799999 -1.548 116 16 0
2.4530001 0.35100001 -1.551 116 16 0
2.447 0.35499999 -1.551 107 16 0
2.4449999 0.35800001 -1.554 109 16 0
2.4430001 0.36199999 -1.557 111 16 0
2.4400001 0.366 -1.5599999 112 16 0
2.438 0.36899999 -1.563 105 16 0
2.4389999 0.37400001 -1.567 111 16 0
2.431 0.37599999 -1.566 116 16 0
2.4260001 0.38 -1.567 109 16 0
2.425 0.384 -1.5700001 118 16 0
2.4200001 0.38699999 -1.5700001 126 16 0
2.418 0.391 -1.572 120 16 0
2.4159999 0.39399999 -1.574 124 16 0
2.4119999 0.398 -1.575 115 16 0
2.4119999 0.40200001 -1.5779999 118 16 0
2.4100001 0.40599999 -1.58 110 16 0
2.4070001 0.40900001 -1.58 127 16 0
2.4070001 0.41299999 -1.5829999 115 16 0
2.4030001 0.41600001 -1.5829999 112 16 0
2.401 0.41999999 -1.585 112 16 0
2.4000001 0.42399999 -1.587 122 16 0
2.3989999 0.428 -1.5880001 120 16 0
2.3959999 0.43099999 -1.589 116 16 0
2.3929999 0.43399999 -1.5880001 106 16 0
2.3900001 0.43799999 -1.589 112 16 0
2.385 0.44100001 -1.587 115 16 0
2.388 0.44499999 -1.59 116 16 0
2.382 0.44800001 -1.5880001 108 16 0
2.381 0.45199999 -1.589 112 16 0
2.3789999 0.45500001 -1.589 106 16 0
2.378 0.45899999 -1.59 109 16 0
2.3770001 0.46200001 -1.59 104 16 0
2.375 0.465 -1.589 108 16 0
2.3740001 0.46900001 -1.59 108 16 0
2.375 0.47299999 -1.591 108 16 0
2.369 0.47499999 -1.5880001 111 16 0
2.3710001 0.479 -1.589 124 16 0
2.3659999 0.48199999 -1.587 108 16 0
2.3670001 0.486 -1.587 115 16 0
2.365 0.48800001 -1.586 119 16 0
2.365 0.49200001 -1.586 116 16 0
2.362 0.495 -1.584 147 16 0
2.358 0.49700001 -1.581 141 16 0
2.3599999 0.50099999 -1.582 149 16 0
2.3610001 0.505 -1.582 141 16 0
2.3570001 0.50700003 -1.579 150 16 0
2.3540001 0.50999999 -1.576 147 16 0
2.3559999 0.514 -1.576 149 16 0
2.352 0.51599997 -1.573 150 16 0
2.3499999 0.51800001 -1.5700001 145 16 0
2.352 0.52200001 -1.5700001 139 16 0
2.3499999 0.52499998 -1.567 144 16 0
2.352 0.528 -1.567 137 16 0
2.3510001 0.53100002 -1.5650001 148 16 0
2.3529999 0.53399998 -1.564 150 16 0
2.349 0.53600001 -1.5599999 141 16 0
2.3510001 0.53899997 -1.559 143 16 0
2.352 0.542 -1.557 143 16 0
2.348 0.54400003 -1.553 138 16 0
2.348 0.54699999 -1.55 150 16 0
2.349 0.54900002 -1.548 150 16 0
2.349 0.55199999 -1.546 150 16 0
2.3499999 0.55500001 -1.544 150 16 0
2.349 0.55699998 -1.541 150 16 0
2.3469999 0.55900002 -1.536 150 16 0
2.346 0.56099999 -1.533 147 16 0
2.3469999 0.56400001 -1.53 150 16 0
2.3469999 0.56599998 -1.526 150 16 0
2.348 0.56800002 -1.524 150 16 0
2.349 0.57099998 -1.521 150 16 0
2.349 0.57300001 -1.517 150 16 0
2.352 0.57599998 -1.515 150 16 0
2.3510001 0.57700002 -1.511 150 16 0
2.349 0.579 -1.506 150 16 0
2.3499999 0.58099997 -1.503 150 16 0
2.355 0.58399999 -1.502 150 16 0
2.352 0.58499998 -1.4960001 150 16 0
2.3540001 0.58700001 -1.492 150 16 0
2.355 0.58899999 -1.489 150 16 0
2.352 0.58999997 -1.482 150 16 0
2.3529999 0.59100002 -1.478 150 16 0
2.358 0.59399998 -1.477 150 16 0
2.3570001 0.59500003 -1.471 150 16 0
2.359 0.597 -1.467 150 16 0
2.358 0.59799999 -1.462 150 16 0
2.362 0.60000002 -1.46 150 16 0
2.362 0.60100001 -1.454 150 16 0
2.3640001 0.60299999 -1.45 150 16 0
2.3659999 0.60500002 -1.446 150 16 0
2.368 0.60600001 -1.442 150 16 0
2.3699999 0.60699999 -1.438 150 16 0
2.3710001 0.60799998 -1.433 150 16 0
2.3729999 0.61000001 -1.428 150 16 0
2.375 0.611 -1.424 150 16 0
2.378 0.61199999 -1.42 150 16 0
2.3770001 0.61299998 -1.413 150 16 0
2.3789999 0.61400002 -1.409 150 16 0
2.3800001 0.61500001 -1.403 150 16 0
2.385 0.616 -1.4 150 16 0
2.385 0.61699998 -1.3940001 150 16 0
2.3900001 0.61799997 -1.39 150 16 0
2.3929999 0.61900002 -1.386 150 16 0
2.391 0.61900002 -1.378 150 16 0
2.3970001 0.62099999 -1.375 150 16 0
2.392 0.61900002 -1.3660001 150 16 0
2.3989999 0.62099999 -1.363 150 16 0
2.3989999 0.62099999 -1.357 150 16 0
2.402 0.62199998 -1.352 150 16 0
2.405 0.62199998 -1.346 150 16 0
2.4070001 0.62300003 -1.341 150 16 0
2.4100001 0.62300003 -1.336 150 16 0
2.4130001 0.62400001 -1.331 150 16 0
2.415 0.62400001 -1.325 150 16 0
2.4189999 0.62400001 -1.3200001 150 16 0
2.4219999 0.62400001 -1.314 150 16 0
2.421 0.62400001 -1.307 150 16 0
2.428 0.625 -1.303 150 16 0
2.431 0.625 -1.298 150 16 0
2.4289999 0.62400001 -1.29 150 16 0
2.4360001 0.625 -1.286 150 16 0
2.4400001 0.625 -1.281 150 16 0
2.437 0.62300003 -1.272 150 16 0
2.441 0.62300003 -1.266 150 16 0
2.444 0.62300003 -1.261 150 16 0
2.444 0.62199998 -1.253 150 16 0
2.45 0.62199998 -1.249 150 16 0
2.451 0.62099999 -1.242 150 16 0
2.4560001 0.62099999 -1.237 150 16 0
2.454 0.62 -1.228 150 16 0
2.461 0.62 -1.224 150 16 0
2.464 0.61900002 -1.2180001 150 16 0
2.467 0.61900002 -1.212 150 16 0
2.471 0.61799997 -1.206 150 16 0
2.4719999 0.61699998 -1.198 150 16 0
2.4779999 0.61699998 -1.193 150 16 0
2.4779999 0.61500001 -1.186 150 16 0
2.4809999 0.61400002 -1.179 150 16 0
2.487 0.61400002 -1.174 150 16 0
2.4890001 0.61299998 -1.1670001 150 16 0
2.4909999 0.611 -1.16 150 16 0
2.4949999 0.611 -1.154 150 16 0
2.5 0.61000001 -1.149 150 16 0
2.5020001 0.60799998 -1.141 150 16 0
2.507 0.60699999 -1.136 150 16 0
2.51 0.60600001 -1.1289999 150 16 0
2.5109999 0.60399997 -1.122 150 16 0
2.517 0.60299999 -1.1160001 150 16 0
2.52 0.602 -1.109 150 16 0
2.523 0.60100001 -1.103 150 16 0
2.529 0.60000002 -1.097 150 16 0
2.5320001 0.59799999 -1.091 150 16 0
2.536 0.597 -1.084 150 16 0
2.54 0.59500003 -1.077 150 16 0
2.54 0.59299999 -1.069 150 16 0
2.5450001 0.59100002 -1.063 150 16 0
2.55 0.58999997 -1.057 150 16 0
2.556 0.58899999 -1.051 150 16 0
2.5610001 0.58700001 -1.045 150 16 0
2.562 0.58499998 -1.0369999 150 16 0
2.5680001 0.58399999 -1.0319999 150 16 0
2.5680001 0.58099997 -1.024 150 16 0
2.582 0.58099997 -1.02 150 16 0
2.5910001 0.57999998 -1.016 13 16 0
2.658 0.59299999 -1.034 0 17 0
2.428 0.53799999 -0.93599999 0 17 0
2.668 0.58899999 -1.02 0 17 0
0 0 0 0 16 0
2.6140001 0.57099998 -0.98299998 0 16 0
2.5280001 0.54900002 -0.94300002 0 16 0
2.48 0.53500003 -0.917 0 16 0
2.4879999 0.53399998 -0.912 0 16 0
2.487 0.53100002 -0.90399998 0 16 0
2.4430001 0.51899999 -0.88 0 17 0
2.687 0.56699997 -0.95899999 0 17 0
2.641 0.55400002 -0.93400002 15 16 0
2.6359999 0.55000001 -0.92400002 150 16 0
2.642 0.54799998 -0.91799998 150 16 0
2.645 0.54500002 -0.91100001 150 16 0
2.648 0.542 -0.903 150 16 0
2.651 0.53899997 -0.89600003 150 16 0
2.654 0.53600001 -0.88800001 150 16 0
2.658 0.53399998 -0.88099998 150 16 0
2.664 0.53100002 -0.875 150 16 0
2.6659999 0.528 -0.86799997 150 16 0
2.6700001 0.52499998 -0.861 150 16 0
2.678 0.523 -0.85500002 150 16 0
2.6819999 0.51999998 -0.84799999 150 16 0
2.6849999 0.51700002 -0.83999997 150 16 0
2.688 0.514 -0.833 150 16 0
2.691 0.51099998 -0.82499999 150 16 0
2.7 0.509 -0.81999999 150 16 0
2.7030001 0.505 -0.81199998 150 16 0
2.71 0.50300002 -0.80599999 150 16 0
2.7119999 0.49900001 -0.79799998 150 16 0
2.7149999 0.49599999 -0.79100001 150 16 0
2.7179999 0.493 -0.78299999 150 16 0
2.7320001 0.491 -0.77899998 150 16 0
2.7349999 0.48800001 -0.77100003 150 16 0
2.7379999 0.484 -0.764 150 16 0
2.7409999 0.48100001 -0.75599998 150 16 0
2.7479999 0.47799999 -0.75 150 16 0
2.756 0.47499999 -0.74400002 150 16 0
2.76 0.472 -0.736 150 16 0
2.7650001 0.46799999 -0.72899997 150 16 0
2.7679999 0.465 -0.722 150 16 0
2.7739999 0.461 -0.71499997 150 16 0
2.776 0.45699999 -0.70700002 150 16 0
2.783 0.454 -0.69999999 150 16 0
2.7820001 0.44999999 -0.69199997 150 16 0
2.7909999 0.447 -0.68599999 150 16 0
2.799 0.44400001 -0.67900002 150 16 0
2.8039999 0.44 -0.67199999 150 16 0
2.8110001 0.43700001 -0.66600001 150 16 0
2.816 0.433 -0.65799999 150 16 0
2.819 0.42899999 -0.65100002 150 16 0
2.8310001 0.426 -0.64499998 150 16 0
2.8280001 0.421 -0.63599998 150 16 0
2.835 0.41800001 -0.62900001 150 16 0
2.8399999 0.414 -0.62199998 150 16 0
2.8440001 0.41 -0.61500001 150 16 0
2.852 0.40599999 -0.60799998 150 16 0
2.8540001 0.40200001 -0.60000002 150 16 0
2.8599999 0.398 -0.59299999 150 16 0
2.8670001 0.39399999 -0.58600003 150 16 0
2.872 0.38999999 -0.579 150 16 0
2.8740001 0.38600001 -0.57099998 150 16 0
2.878 0.382 -0.56300002 150 16 0
2.885 0.37799999 -0.55599999 150 16 0
2.8989999 0.375 -0.551 150 16 0
2.8959999 0.37 -0.542 150 16 0
2.908 0.366 -0.53600001 150 16 0
2.914 0.36199999 -0.528 150 16 0
2.9170001 0.35699999 -0.52100003 150 16 0
2.927 0.354 -0.514 150 16 0
2.9300001 0.34900001 -0.50599998 150 16 0
2.9360001 0.345 -0.49900001 150 16 0
2.941 0.34 -0.49200001 150 16 0
2.9430001 0.33500001 -0.484 150 16 0
2.954 0.33199999 -0.477 150 16 0
2.9579999 0.32699999 -0.46900001 150 16 0
2.9690001 0.32300001 -0.463 150 16 0
2.97 0.31799999 -0.454 150 16 0
2.973 0.31299999 -0.44600001 150 16 0
2.983 0.30899999 -0.44 150 16 0
2.9849999 0.30399999 -0.43200001 150 16 0
2.9909999 0.29899999 -0.42399999 150 16 0
2.9979999 0.29499999 -0.417 150 16 0
3.003 0.28999999 -0.40900001 150 16 0
3.0039999 0.285 -0.40099999 150 16 0
3.017 0.28 -0.39399999 150 16 0
3.0179999 0.27500001 -0.38600001 150 16 0
3.027 0.271 -0.37900001 150 16 0
3.0309999 0.26499999 -0.37099999 150 16 0
3.036 0.25999999 -0.36399999 150 16 0
3.043 0.25600001 -0.35600001 150 16 0
3.053 0.25099999 -0.34900001 150 16 0
3.056 0.24600001 -0.34099999 150 16 0
3.062 0.241 -0.333 150 16 0
3.0699999 0.236 -0.32600001 150 16 0
3.0710001 0.23 -0.31799999 150 16 0
3.0739999 0.22499999 -0.30899999 150 16 0
3.085 0.22 -0.30199999 150 16 0
3.0929999 0.215 -0.29499999 150 16 0
3.0999999 0.20999999 -0.287 150 16 0
3.108 0.204 -0.27900001 150 16 0
3.112 0.199 -0.271 150 16 0
3.119 0.19400001 -0.264 142 16 0
3.1240001 0.18799999 -0.25600001 150 16 0
3.132 0.183 -0.248 150 16 0
3.1359999 0.177 -0.23999999 150 16 0
3.148 0.17200001 -0.23199999 150 16 0
3.154 0.16599999 -0.22400001 150 16 0
3.1589999 0.161 -0.21600001 150 16 0
3.1670001 0.155 -0.208 150 16 0
3.1719999 0.149 -0.2 148 16 0
3.1789999 0.14399999 -0.193 150 16 0
3.1900001 0.138 -0.185 150 16 0
3.1960001 0.132 -0.177 145 16 0
3.198 0.126 -0.168 132 16 0
3.2090001 0.121 -0.16 139 16 0
3.2149999 0.115 -0.152 131 16 0
3.2219999 0.109 -0.14399999 128 16 0
3.2309999 0.103 -0.13600001 130 16 0
3.2379999 0.097000003 -0.12800001 129 16 0
3.2449999 0.090999998 -0.12 121 16 0
3.25 0.085000001 -0.112 140 16 0
3.2550001 0.078000002 -0.103 134 16 0
3.2609999 0.071999997 -0.094999999 109 16 0
3.2709999 0.066 -0.086999997 99 16 0
3.279 0.059999999 -0.078000002 50 16 0
3.2820001 0.054000001 -0.07 54 16 0
3.283 0.046999998 -0.061999999 118 16 0
3.2920001 0.041000001 -0.052999999 116 16 0
3.302 0.035 -0.045000002 96 16 0
3.3150001 0.028000001 -0.037 45 16 0
3.3099999 0.022 -0.028000001 24 16 0
3.2969999 0.015 -0.02 20 16 0
3.2909999 0.0080000004 -0.011 19 16 0
3.277 0.0020000001 -0.003 19 16 0
3.26 -0.0040000002 0.0049999999 19 16 0
3.253 -0.0099999998 0.013 28 16 0
3.256 -0.017000001 0.021 82 16 0
3.266 -0.023 0.029999999 150 16 0
3.27 -0.029999999 0.037999999 150 16 0
3.279 -0.035999998 0.046 150 16 0
3.277 -0.043000001 0.055 150 16 0
3.2909999 -0.050000001 0.063000001 150 16 0
3.2950001 -0.057 0.071999997 150 16 0
3.3050001 -0.064000003 0.079999998 150 16 0
3.3039999 -0.07 0.089000002 43 16 0
3.2880001 -0.077 0.096000001 31 16 0
3.28 -0.082999997 0.104 30 16 0
3.266 -0.090000004 0.112 31 16 0
3.256 -0.096000001 0.12 31 16 0
3.24 -0.102 0.12800001 30 16 0
3.2320001 -0.108 0.13500001 32 16 0
3.221 -0.115 0.14300001 32 16 0
3.2160001 -0.121 0.15099999 31 16 0
3.2060001 -0.12800001 0.15800001 28 16 0
3.1949999 -0.134 0.16599999 31 16 0
3.1819999 -0.14 0.17299999 30 16 0
3.1719999 -0.146 0.18000001 29 16 0
3.158 -0.152 0.18700001 29 16 0
3.148 -0.15800001 0.19499999 30 16 0
3.138 -0.164 0.20200001 29 16 0
3.1270001 -0.17 0.20900001 29 16 0
3.1140001 -0.176 0.215 31 16 0
3.1029999 -0.182 0.222 30 16 0
3.0929999 -0.18799999 0.229 29 16 0
3.082 -0.19400001 0.236 29 16 0
3.072 -0.2 0.243 29 16 0
3.0610001 -0.206 0.249 30 16 0
3.05 -0.212 0.25600001 29 16 0
3.039 -0.21699999 0.26300001 30 16 0
3.03 -0.223 0.26899999 30 16 0
3.016 -0.229 0.27500001 30 16 0
3.0050001 -0.235 0.28200001 31 16 0
2.9960001 -0.23999999 0.28799999 30 16 0
2.9849999 -0.24600001 0.294 31 16 0
2.977 -0.252 0.301 29 16 0
2.96 -0.257 0.30599999 29 16 0
2.9530001 -0.26300001 0.31299999 29 16 0
2.944 -0.26800001 0.31900001 29 16 0
2.9349999 -0.27399999 0.32499999 30 16 0
2.924 -0.28 0.331 31 16 0
2.918 -0.285 0.33700001 32 16 0
2.8989999 -0.28999999 0.34200001 31 16 0
2.892 -0.296 0.34799999 32 16 0
2.882 -0.301 0.354 32 16 0
2.872 -0.30700001 0.359 31 16 0
2.8640001 -0.31200001 0.36500001 32 16 0
2.8559999 -0.31799999 0.37099999 32 16 0
2.849 -0.324 0.377 32 16 0
2.832 -0.32800001 0.38100001 30 16 0
2.8210001 -0.333 0.38699999 31 16 0
2.812 -0.33899999 0.39199999 31 16 0
2.8 -0.34400001 0.39700001 30 16 0
2.7980001 -0.34999999 0.403 32 16 0
2.783 -0.354 0.40799999 32 16 0
2.779 -0.36000001 0.414 31 16 0
2.767 -0.36500001 0.419 33 16 0
2.7590001 -0.37 0.42399999 33 16 0
2.7479999 -0.375 0.42899999 33 16 0
2.7360001 -0.38 0.433 34 16 0
2.7290001 -0.38499999 0.43900001 34 16 0
2.7179999 -0.38999999 0.44299999 34 16 0
2.7119999 -0.396 0.449 36 16 0
2.6989999 -0.40000001 0.45300001 33 16 0
2.691 -0.40599999 0.458 35 16 0
2.6860001 -0.41100001 0.463 35 16 0
2.675 -0.41600001 0.46799999 37 16 0
2.6689999 -0.421 0.47299999 36 16 0
2.661 -0.42699999 0.477 50 16 0
2.651 -0.43099999 0.48199999 37 16 0
2.642 -0.43599999 0.486 44 16 0
2.6370001 -0.442 0.491 47 16 0
2.622 -0.44600001 0.495 41 16 0
2.618 -0.45100001 0.5 57 16 0
2.602 -0.45500001 0.50300002 49 16 0
2.5969999 -0.46000001 0.50800002 48 16 0
2.5869999 -0.465 0.51200002 46 16 0
2.5799999 -0.47 0.51599997 56 16 0
2.5680001 -0.47400001 0.51999998 47 16 0
2.562 -0.479 0.52399999 52 16 0
2.5480001 -0.48300001 0.52700001 59 16 0
2.5450001 -0.48899999 0.53200001 52 16 0
2.5339999 -0.493 0.53600001 57 16 0
2.529 -0.498 0.54000002 58 16 0
2.5139999 -0.50199997 0.54299998 43 16 0
2.507 -0.50700003 0.54699999 57 16 0
2.4990001 -0.51099998 0.551 67 16 0
2.493 -0.51599997 0.55500001 65 16 0
2.484 -0.52100003 0.55900002 60 16 0
2.4719999 -0.52499998 0.56099999 53 16 0
2.461 -0.52899998 0.56400001 67 16 0
2.451 -0.53299999 0.56699997 52 16 0
2.444 -0.53799999 0.57099998 75 16 0
2.4360001 -0.542 0.57499999 64 16 0
2.428 -0.54699999 0.57800001 71 16 0
2.4189999 -0.551 0.58099997 75 16 0
2.4100001 -0.55500001 0.58399999 69 16 0
2.4059999 -0.56 0.58899999 71 16 0
2.398 -0.565 0.59200001 81 16 0
2.391 -0.56999999 0.59500003 69 16 0
2.378 -0.57300001 0.597 73 16 0
2.3759999 -0.57800001 0.602 86 16 0
2.3629999 -0.58200002 0.60299999 76 16 0
2.355 -0.58600003 0.60600001 75 16 0
2.3499999 -0.59100002 0.61000001 84 16 0
2.3399999 -0.59500003 0.61299998 84 16 0
2.3329999 -0.59899998 0.616 84 16 0
2.326 -0.60299999 0.61900002 79 16 0
2.3199999 -0.60799998 0.62199998 77 16 0
2.3069999 -0.611 0.62300003 77 16 0
2.296 -0.61400002 0.625 82 16 0
2.2880001 -0.61799997 0.62800002 80 16 0
2.279 -0.62199998 0.63 92 16 0
2.2739999 -0.62699997 0.63300002 81 16 0
2.2650001 -0.63099998 0.63499999 110 16 0
2.2579999 -0.63499999 0.63800001 123 16 0
2.2479999 -0.63800001 0.63999999 122 16 0
2.237 -0.64099997 0.64099997 119 16 0
2.234 -0.64600003 0.64499998 126 16 0
2.2279999 -0.65100002 0.64700001 105 16 0
2.2179999 -0.65399998 0.64899999 114 16 0
2.207 -0.65700001 0.64999998 117 16 0
2.201 -0.66100001 0.65200001 122 16 0
2.1919999 -0.66500002 0.65399998 121 16 0
2.184 -0.66799998 0.65600002 116 16 0
2.1760001 -0.67199999 0.65799999 129 16 0
2.171 -0.67699999 0.66000003 126 16 0
2.1630001 -0.68000001 0.662 132 16 0
2.151 -0.68300003 0.66299999 124 16 0
2.1400001 -0.685 0.66299999 121 16 0
2.135 -0.69 0.66600001 135 16 0
2.131 -0.69499999 0.66799998 136 16 0
2.1210001 -0.69700003 0.66900003 132 16 0
2.115 -0.70099998 0.671 129 16 0
2.108 -0.70499998 0.67299998 129 16 0
2.102 -0.70899999 0.67400002 124 16 0
2.0869999 -0.70999998 0.67299998 122 16 0
2.082 -0.71399999 0.67500001 132 16 0
2.0780001 -0.71899998 0.67799997 139 16 0
2.0680001 -0.72100002 0.67799997 137 16 0
2.0650001 -0.72600001 0.68099999 128 16 0
2.0580001 -0.72899997 0.68199998 142 16 0
2.0510001 -0.73299998 0.68300003 144 16 0
2.0350001 -0.73299998 0.68099999 145 16 0
2.033 -0.73799998 0.68400002 132 16 0
2.027 -0.74199998 0.685 144 16 0
2.0190001 -0.745 0.68599999 133 16 0
2.013 -0.74800003 0.68699998 135 16 0
2.0090001 -0.75300002 0.68900001 136 16 0
2.0009999 -0.755 0.69 141 16 0
1.989 -0.75700003 0.68900001 142 16 0
1.98 -0.759 0.68900001 126 16 0
1.9680001 -0.75999999 0.68800002 150 16 0
1.966 -0.76499999 0.69 147 16 0
1.9579999 -0.76800001 0.69 150 16 0
1.954 -0.77200001 0.69099998 142 16 0
1.946 -0.77399999 0.69099998 147 16 0
1.941 -0.778 0.69199997 131 16 0
1.9299999 -0.77899998 0.69099998 141 16 0
1.925 -0.78299999 0.69199997 150 16 0
1.918 -0.78500003 0.69199997 150 16 0
1.914 -0.78899997 0.69400001 150 16 0
1.909 -0.79299998 0.69400001 150 16 0
1.898 -0.79400003 0.69300002 150 16 0
1.895 -0.79799998 0.69400001 150 16 0
1.8890001 -0.801 0.69499999 150 16 0
1.88 -0.80199999 0.69300002 150 16 0
1.877 -0.80599999 0.69499999 150 16 0
1.869 -0.80800003 0.69400001 150 16 0
1.863 -0.81099999 0.69400001 150 16 0
1.8559999 -0.81300002 0.69300002 150 16 0
1.848 -0.815 0.69300002 150 16 0
1.847 -0.81999999 0.69400001 150 16 0
1.842 -0.82300001 0.69400001 150 16 0
1.834 -0.824 0.69400001 150 16 0
1.825 -0.82599998 0.69199997 150 16 0
1.819 -0.82800001 0.69199997 150 16 0
1.814 -0.83099997 0.69099998 150 16 0
1.808 -0.833 0.69099998 150 16 0
1.804 -0.83600003 0.69099998 150 16 0
1.796 -0.83700001 0.69 150 16 0
1.794 -0.84100002 0.69 150 16 0
1.784 -0.84200001 0.68800002 150 16 0
1.779 -0.84399998 0.68800002 150 16 0
1.777 -0.84799999 0.68900001 150 16 0
1.766 -0.847 0.685 150 16 0
1.7640001 -0.85100001 0.68599999 150 16 0
1.7589999 -0.85399997 0.68599999 150 16 0
1.752 -0.85500002 0.68400002 150 16 0
1.749 -0.85799998 0.68400002 150 16 0
1.734 -0.85500002 0.67900002 150 19 0
1.729 -0.85799998 0.67799997 150 16 0
1.726 -0.86000001 0.67799997 150 16 0
1.722 -0.86299998 0.67799997 150 16 0
1.7180001 -0.86500001 0.67699999 150 16 0
1.7180001 -0.87 0.67699999 150 16 0
1.7130001 -0.87099999 0.676 150 16 0
1.71 -0.87400001 0.676 150 16 0
1.701 -0.87400001 0.67299998 150 16 0
1.698 -0.87699997 0.67299998 150 16 0
1.6950001 -0.87900001 0.67199999 150 16 0
1.689 -0.88 0.67000002 150 16 0
1.689 -0.884 0.67000002 150 16 0
1.678 -0.88200003 0.66600001 150 19 0
1.676 -0.88499999 0.66600001 150 16 0
1.673 -0.88700002 0.66500002 150 16 0
1.6670001 -0.88800001 0.66299999 150 16 0
1.663 -0.889 0.66100001 150 16 0
1.661 -0.89200002 0.66100001 150 16 0
1.653 -0.89200002 0.65799999 150 16 0
1.65 -0.89399999 0.65600002 150 16 0
1.649 -0.89600003 0.65600002 150 16 0
1.6440001 -0.89700001 0.65399998 150 16 0
1.641 -0.89899999 0.65200001 150 16 0
1.64 -0.90200001 0.65200001 150 16 0
1.635 -0.90200001 0.64899999 150 16 0
1.627 -0.90100002 0.64600003 150 16 0
1.625 -0.903 0.64499998 150 16 0
1.618 -0.903 0.64200002 150 16 0
1.615 -0.90399998 0.63999999 150 16 0
1.614 -0.90600002 0.639 150 16 0
1.61 -0.90700001 0.63700002 150 16 0
1.608 -0.90899998 0.63499999 150 16 0
1.6059999 -0.91000003 0.634 150 16 0
1.601 -0.91000003 0.63099998 150 16 0
1.6 -0.912 0.63 150 16 0
1.596 -0.912 0.62699997 150 16 0
1.595 -0.91399997 0.62599999 150 16 0
1.596 -0.91799998 0.625 150 16 0
1.59 -0.917 0.62199998 150 16 0
1.586 -0.917 0.61900002 150 16 0
1.586 -0.91900003 0.61799997 150 16 0
1.585 -0.921 0.61699998 150 16 0
1.58 -0.92000002 0.61299998 150 16 0
1.579 -0.921 0.611 150 16 0
1.576 -0.921 0.60900003 150 16 0
1.575 -0.92299998 0.60699999 150 16 0
1.569 -0.921 0.60299999 150 18 0
1.567 -0.92199999 0.60100001 150 16 0
1.566 -0.92199999 0.59899998 150 16 0
1.5650001 -0.92400002 0.597 150 16 0
1.5599999 -0.92199999 0.59399998 150 16 0
1.5599999 -0.92400002 0.59200001 150 16 0
1.558 -0.92400002 0.58999997 150 16 0
1.5549999 -0.92299998 0.58700001 150 16 0
1.557 -0.926 0.58600003 150 16 0
1.553 -0.92500001 0.58200002 150 16 0
1.557 -0.92799997 0.58200002 150 16 0
1.55 -0.92500001 0.57700002 150 16 0
1.549 -0.92500001 0.57499999 150 16 0
1.548 -0.92500001 0.57300001 150 16 0
1.548 -0.926 0.56999999 150 16 0
1.548 -0.92699999 0.56800002 150 16 0
1.5549999 -0.93199998 0.56900001 78 3 0
1.5420001 -0.92400002 0.56199998 84 0 0
1.5420001 -0.92500001 0.55900002 70 0 0
1.5420001 -0.926 0.55699998 73 0 0
1.543 -0.926 0.55500001 83 0 0
1.543 -0.92699999 0.55299997 79 0 0
1.543 -0.92699999 0.55000001 76 0 0
1.541 -0.926 0.54699999 66 0 0
1.54 -0.92500001 0.54400003 76 0 0
1.54 -0.92500001 0.542 95 0 0
1.5420001 -0.926 0.54000002 71 0 0
1.543 -0.92699999 0.53799999 70 0 0
1.5420001 -0.926 0.53500003 74 0 0
1.543 -0.926 0.53299999 93 0 0
1.54 -0.92400002 0.52899998 69 0 0
1.544 -0.926 0.528 76 0 0
1.5369999 -0.921 0.52200001 85 0 0
1.543 -0.92400002 0.52200001 134 0 0
1.544 -0.92400002 0.51899999 76 0 0
1.544 -0.92400002 0.51700002 73 0 0
1.545 -0.92299998 0.514 76 0 0
1.541 -0.92000002 0.50999999 87 0 0
1.546 -0.92199999 0.509 73 0 0
1.544 -0.91900003 0.505 75 0 0
1.545 -0.91900003 0.50199997 73 0 0
1.5420001 -0.91600001 0.498 75 0 0
1.543 -0.91500002 0.49599999 66 0 0
1.548 -0.917 0.49399999 67 0 0
1.545 -0.91399997 0.491 78 0 0
1.5470001 -0.91299999 0.48800001 78 0 0
1.548 -0.91299999 0.48500001 69 0 0
1.549 -0.912 0.48199999 69 0 0
1.551 -0.91100001 0.47999999 82 0 0
1.552 -0.91000003 0.477 96 0 0
1.552 -0.90799999 0.47400001 71 0 0
1.554 -0.90700001 0.47099999 71 0 0
1.5599999 -0.90899998 0.47 2 0 0
1.558 -0.90600002 0.46599999 84 0 0
1.559 -0.90499997 0.46399999 90 0 0
1.561 -0.903 0.461 66 0 0
1.566 -0.90399998 0.45899999 80 0 0
1.564 -0.90100002 0.45500001 2 0 0
1.569 -0.90100002 0.45300001 2 0 0
1.566 -0.898 0.449 94 0 0
1.569 -0.89700001 0.447 3 0 0
1.574 -0.89700001 0.44499999 2 0 0
1.572 -0.89300001 0.44100001 2 0 0
1.574 -0.89200002 0.43799999 58 0 0
1.581 -0.89300001 0.43700001 2 0 0
1.582 -0.89099997 0.43399999 54 0 0
1.587 -0.89099997 0.43200001 2 0 0
1.586 -0.88800001 0.428 2 0 0
1.5829999 -0.88300002 0.42399999 68 0 0
1.592 -0.88499999 0.42300001 2 0 0
1.591 -0.88200003 0.41999999 43 0 0
1.5930001 -0.88 0.417 58 0 0
1.6 -0.88099998 0.41499999 45 0 0
1.601 -0.87800002 0.412 54 0 0
1.604 -0.87599999 0.40900001 52 0 0
1.607 -0.875 0.40700001 49 0 0
1.609 -0.87199998 0.40400001 42 0 0
1.613 -0.87199998 0.40200001 45 0 0
1.613 -0.86799997 0.398 44 0 0
1.617 -0.866 0.396 42 0 0
1.617 -0.86299998 0.39199999 40 0 0
1.6210001 -0.861 0.38999999 50 0 0
1.623 -0.85900003 0.38699999 46 0 0
1.627 -0.85799998 0.38499999 47 0 0
1.6289999 -0.85500002 0.382 46 0 0
1.635 -0.85399997 0.38 49 0 0
1.64 -0.85299999 0.37799999 42 0 0
1.6440001 -0.852 0.375 43 0 0
1.646 -0.84899998 0.37200001 45 0 0
1.654 -0.84899998 0.37 3 0 0
1.651 -0.84299999 0.366 40 0 0
1.661 -0.84399998 0.36500001 39 0 0
1.663 -0.84100002 0.36199999 39 0 0
1.668 -0.83999997 0.36000001 41 0 0
1.6720001 -0.838 0.35800001 2 0 0
1.674 -0.83499998 0.35499999 1 0 0
1.681 -0.83399999 0.35299999 37 0 0
1.687 -0.83200002 0.34999999 2 0 0
1.692 -0.83099997 0.34799999 1 0 0
1.6950001 -0.82700002 0.345 1 0 0
1.698 -0.82499999 0.34299999 144 16 0
1.6950001 -0.81900001 0.33899999 147 16 0
1.706 -0.81900001 0.338 1 0 0
1.7079999 -0.81599998 0.33500001 150 16 0
1.71 -0.81300002 0.33199999 150 16 0
1.7180001 -0.81199998 0.33000001 125 16 0
1.722 -0.80900002 0.32699999 122 16 0
1.728 -0.80699998 0.32499999 132 16 0
1.733 -0.80500001 0.32300001 135 16 0
1.738 -0.80199999 0.31999999 132 16 0
1.7410001 -0.79900002 0.31799999 126 16 0
1.743 -0.79500002 0.315 119 16 0
1.752 -0.79400003 0.31299999 127 16 0
1.755 -0.79000002 0.31 136 16 0
1.7589999 -0.787 0.308 116 16 0
1.763 -0.78399998 0.30500001 122 16 0
1.77 -0.78299999 0.303 117 16 0
1.774 -0.77899998 0.301 127 16 0
1.789 -0.77999997 0.30000001 112 16 0
1.791 -0.77600002 0.29699999 121 16 0
1.795 -0.773 0.294 123 16 0
1.799 -0.76999998 0.292 123 16 0
1.804 -0.76599997 0.289 124 16 0
1.813 -0.76499999 0.28799999 130 16 0
1.817 -0.76099998 0.285 124 16 0
1.819 -0.75700003 0.28200001 124 16 0
1.829 -0.75599998 0.28099999 106 16 0
1.835 -0.75300002 0.278 108 16 0
1.8380001 -0.74900001 0.27599999 103 16 0
1.848 -0.74699998 0.27399999 117 16 0
1.853 -0.74400002 0.27200001 111 16 0
1.859 -0.741 0.26899999 121 16 0
1.863 -0.73699999 0.26699999 115 16 0
1.8710001 -0.73500001 0.26499999 126 16 0
1.877 -0.73100001 0.26300001 112 16 0
1.8789999 -0.72600001 0.25999999 107 16 0
1.8839999 -0.72299999 0.257 109 16 0
1.887 -0.71799999 0.255 115 16 0
1.892 -0.71499997 0.252 106 16 0
1.91 -0.71600002 0.252 101 19 0
1.919 -0.713 0.25 105 16 0
1.924 -0.70899999 0.24699999 98 16 0
1.9299999 -0.70599997 0.245 104 16 0
1.9349999 -0.70200002 0.243 102 16 0
1.942 -0.69800001 0.241 93 16 0
1.948 -0.69499999 0.23800001 94 16 0
1.957 -0.69199997 0.236 85 16 0
1.964 -0.68800002 0.234 84 16 0
1.97 -0.68400002 0.23199999 83 16 0
1.978 -0.68099999 0.23 81 16 0
1.983 -0.67699999 0.227 80 16 0
1.995 -0.67500001 0.226 79 16 0
1.999 -0.67000002 0.223 79 16 0
2.01 -0.667 0.222 74 16 0
2.02 -0.66399997 0.22 78 16 0
2.0220001 -0.65899998 0.21699999 77 16 0
2.033 -0.65600002 0.215 71 16 0
2.0420001 -0.653 0.213 75 16 0
2.0469999 -0.648 0.211 72 16 0
2.05 -0.64300001 0.208 66 16 0
2.0639999 -0.64099997 0.207 61 16 0
2.0680001 -0.63599998 0.204 57 16 0
2.079 -0.63200003 0.20299999 65 16 0
2.085 -0.62800002 0.2 59 16 0
2.0910001 -0.62300003 0.198 60 16 0
2.1059999 -0.62099999 0.197 55 16 0
2.1140001 -0.61699998 0.19499999 59 16 0
2.125 -0.61400002 0.193 62 16 0
2.128 -0.60799998 0.19 60 16 0
2.1389999 -0.60399997 0.18799999 68 16 0
2.1459999 -0.60000002 0.186 62 16 0
2.1530001 -0.59500003 0.184 57 16 0
2.168 -0.59200001 0.183 58 16 0
2.177 -0.588 0.18000001 60 16 0
2.1819999 -0.58200002 0.178 55 16 0
2.198 -0.57999998 0.177 50 16 0
2.207 -0.57499999 0.175 51 16 0
2.2130001 -0.56999999 0.17200001 42 16 0
2.223 -0.56599998 0.17 47 16 0
2.2360001 -0.56199998 0.169 48 16 0
2.244 -0.55699998 0.16599999 47 16 0
2.2550001 -0.55299997 0.164 50 16 0
2.2620001 -0.54799998 0.162 48 16 0
2.273 -0.54299998 0.16 48 16 0
2.2820001 -0.53799999 0.15800001 43 16 0
2.2950001 -0.53399998 0.156 43 16 0
2.303 -0.52899998 0.154 42 16 0
2.3110001 -0.523 0.152 42 16 0
2.3210001 -0.51800001 0.15000001 33 16 0
2.336 -0.514 0.148 41 16 0
2.346 -0.509 0.146 47 16 0
2.358 -0.50400001 0.14399999 37 16 0
2.368 -0.49900001 0.142 31 16 0
2.3770001 -0.49399999 0.14 29 16 0
2.3970001 -0.49000001 0.139 40 16 0
2.4000001 -0.48300001 0.13600001 44 16 0
2.4119999 -0.47799999 0.134 45 16 0
2.425 -0.47299999 0.132 37 16 0
2.4360001 -0.46799999 0.13 33 16 0
2.448 -0.46200001 0.12800001 33 16 0
2.4579999 -0.45699999 0.126 36 16 0
2.471 -0.45100001 0.124 33 16 0
2.483 -0.44600001 0.122 35 16 0
2.494 -0.44 0.12 37 16 0
2.5020001 -0.433 0.118 32 16 0
2.516 -0.428 0.116 35 16 0
2.529 -0.42199999 0.114 33 16 0
2.54 -0.41600001 0.112 32 16 0
2.5510001 -0.41 0.11 30 16 0
2.5669999 -0.40400001 0.108 30 16 0
2.579 -0.398 0.106 31 16 0
2.589 -0.39199999 0.104 30 16 0
2.609 -0.38600001 0.102 33 16 0
2.6229999 -0.38 0.1 32 16 0
2.6300001 -0.373 0.097999997 30 16 0
2.6470001 -0.36700001 0.096000001 27 16 0
2.661 -0.361 0.093999997 26 16 0
2.674 -0.354 0.092 27 16 0
2.691 -0.34799999 0.090000004 27 16 0
2.7030001 -0.34099999 0.088 25 16 0
2.72 -0.33500001 0.086000003 26 16 0
2.7290001 -0.32699999 0.083999999 27 16 0
2.743 -0.31999999 0.081 26 16 0
2.756 -0.31299999 0.079000004 26 16 0
2.7679999 -0.30599999 0.077 26 16 0
2.7839999 -0.29899999 0.075000003 26 16 0
2.8 -0.292 0.072999999 27 16 0
2.8099999 -0.28400001 0.071000002 25 16 0
2.8299999 -0.27700001 0.068999998 26 16 0
2.845 -0.27000001 0.067000002 26 16 0
2.8610001 -0.26199999 0.064999998 25 16 0
2.8759999 -0.255 0.061999999 25 16 0
2.891 -0.24699999 0.059999999 25 16 0
2.9100001 -0.23899999 0.057999998 26 16 0
2.921 -0.23100001 0.056000002 25 16 0
2.947 -0.22400001 0.054000001 25 19 0
2.9660001 -0.21600001 0.052000001 25 16 0
2.9719999 -0.207 0.050000001 25 16 0
2.997 -0.199 0.048 25 16 0
3.0090001 -0.191 0.045000002 25 16 0
3.0339999 -0.183 0.043000001 25 16 0
3.056 -0.175 0.041000001 24 16 0
3.075 -0.16599999 0.039000001 25 16 0
3.0880001 -0.15700001 0.037 24 16 0
3.1059999 -0.148 0.034000002 25 16 0
3.1300001 -0.139 0.032000002 26 16 0
3.1459999 -0.13 0.029999999 26 16 0
3.1700001 -0.121 0.028000001 25 16 0
3.1889999 -0.112 0.026000001 25 16 0
3.2060001 -0.102 0.023 26 16 0
3.2290001 -0.093000002 0.021 25 16 0
3.2509999 -0.082999997 0.018999999 27 16 0
3.2709999 -0.074000001 0.016000001 37 16 0
3.276 -0.063000001 0.014 143 16 0
3.27 -0.052999999 0.012 112 16 0
3.26 -0.041999999 0.0089999996 99 16 0
3.257 -0.032000002 0.0070000002 99 16 0
3.2479999 -0.022 0.0040000002 51 16 0
3.253 -0.012 0.0020000001 20 16 0
3.2750001 -0.001 0 17 16 0
3.2939999 0.0080000004 -0.001 17 16 0
3.323 0.018999999 -0.0040000002 22 16 0
3.323 0.028999999 -0.0060000001 47 16 0
3.316 0.039999999 -0.0080000004 51 16 0
3.306 0.050000001 -0.0099999998 43 16 0
3.306 0.061000001 -0.013 41 16 0
3.3010001 0.071000002 -0.015 50 16 0
3.2920001 0.081 -0.017000001 51 16 0
3.2880001 0.092 -0.018999999 53 16 0
3.2850001 0.102 -0.021 55 16 0
3.2709999 0.112 -0.023 54 16 0
3.2679999 0.122 -0.025 53 16 0
3.266 0.132 -0.027000001 54 16 0
3.256 0.142 -0.028999999 53 16 0
3.25 0.152 -0.030999999 58 16 0
3.244 0.163 -0.033 57 16 0
3.2390001 0.17299999 -0.035 63 16 0
3.234 0.183 -0.037 55 16 0
3.2309999 0.193 -0.039000001 52 16 0
3.221 0.20200001 -0.041000001 70 16 0
3.2190001 0.213 -0.043000001 73 16 0
3.2130001 0.223 -0.044 72 16 0
3.2030001 0.23199999 -0.046 71 16 0
3.1989999 0.242 -0.048 68 16 0
3.194 0.252 -0.050000001 67 16 0
3.1849999 0.26100001 -0.050999999 65 16 0
3.1789999 0.271 -0.052999999 69 16 0
3.177 0.28099999 -0.055 60 16 0
3.1659999 0.28999999 -0.056000002 64 16 0
3.1619999 0.30000001 -0.057999998 77 16 0
3.158 0.31 -0.059 85 16 0
3.152 0.31900001 -0.061000001 59 16 0
3.1459999 0.329 -0.061999999 62 16 0
3.1389999 0.338 -0.064000003 70 16 0
3.132 0.347 -0.064999998 65 16 0
3.1210001 0.35600001 -0.067000002 57 16 0
3.1240001 0.36700001 -0.068000004 78 16 0
3.1129999 0.375 -0.07 83 16 0
3.108 0.38499999 -0.071000002 69 16 0
3.105 0.39399999 -0.071999997 70 16 0
3.095 0.403 -0.074000001 71 16 0
3.096 0.41299999 -0.075000003 76 16 0
3.0869999 0.42199999 -0.075999998 85 16 0
3.082 0.43200001 -0.078000002 77 16 0
3.079 0.44100001 -0.079000004 91 16 0
3.072 0.44999999 -0.079999998 103 16 0
3.066 0.45899999 -0.081 91 16 0
3.062 0.46900001 -0.082999997 88 16 0
3.0550001 0.47799999 -0.083999999 89 16 0
3.0480001 0.486 -0.085000001 85 16 0
3.0420001 0.495 -0.086000003 90 16 0
3.039 0.505 -0.086999997 84 16 0
3.029 0.51300001 -0.088 93 16 0
3.0309999 0.523 -0.089000002 89 16 0
3.0239999 0.53200001 -0.090000004 90 16 0
3.0139999 0.54000002 -0.090999998 90 16 0
3.0120001 0.55000001 -0.092 91 16 0
3.0079999 0.55900002 -0.093000002 80 16 0
3.003 0.56800002 -0.093999997 75 16 0
2.997 0.57599998 -0.094999999 91 16 0
2.9909999 0.58499998 -0.096000001 82 16 0
2.9890001 0.59500003 -0.097000003 87 16 0
2.983 0.60299999 -0.097999997 79 16 0
2.98 0.61199999 -0.097999997 101 16 0
2.9690001 0.62 -0.098999999 77 16 0
2.9690001 0.63 -0.1 81 16 0
2.9649999 0.639 -0.101 82 16 0
2.9560001 0.64600003 -0.101 97 16 0
2.9530001 0.65600002 -0.102 85 16 0
2.9489999 0.66399997 -0.103 94 16 0
2.941 0.67199999 -0.103 96 16 0
2.9389999 0.68199998 -0.104 96 16 0
2.931 0.69 -0.104 100 16 0
2.927 0.69800001 -0.105 105 16 0
2.9219999 0.70700002 -0.106 121 16 0
2.924 0.71700001 -0.106 118 16 0
2.9130001 0.72399998 -0.107 114 16 0
2.908 0.73199999 -0.107 124 16 0
2.9030001 0.741 -0.108 128 16 0
2.901 0.75 -0.108 125 16 0
2.8970001 0.759 -0.109 125 16 0
2.8940001 0.76800001 -0.109 137 16 0
2.8859999 0.77600002 -0.109 137 16 0
2.8829999 0.78399998 -0.11 138 16 0
2.8770001 0.792 -0.11 135 16 0
2.869 0.80000001 -0.11 138 16 0
2.8640001 0.80800003 -0.11 124 16 0
2.8559999 0.81599998 -0.11 132 16 0
2.855 0.82499999 -0.111 140 16 0
2.848 0.83200002 -0.111 142 16 0
2.846 0.84100002 -0.111 128 16 0
2.8410001 0.84899998 -0.111 138 16 0
2.836 0.85799998 -0.111 142 16 0
2.8340001 0.866 -0.112 150 16 0
2.829 0.875 -0.112 136 16 0
2.823 0.88200003 -0.112 127 16 0
2.8239999 0.89200002 -0.112 137 16 0
2.8169999 0.89899999 -0.112 139 16 0
2.812 0.90799999 -0.112 150 16 0
2.812 0.917 -0.112 149 16 0
2.803 0.92299998 -0.111 150 16 0
2.8 0.93199998 -0.111 129 16 0
2.7939999 0.94 -0.111 150 16 0
2.79 0.94800001 -0.111 142 16 0
2.7850001 0.95499998 -0.111 150 16 0
2.7850001 0.96499997 -0.111 39 16 0
2.7909999 0.977 -0.111 33 16 0
2.7780001 0.98100001 -0.11 140 16 0
2.7650001 0.986 -0.11 150 16 0
2.766 0.99599999 -0.109 150 16 0
2.7590001 1.003 -0.109 132 16 0
2.756 1.011 -0.108 135 16 0
2.753 1.0190001 -0.108 150 16 0
2.75 1.027 -0.108 140 16 0
2.7460001 1.035 -0.107 150 16 0
2.7409999 1.043 -0.107 150 16 0
2.733 1.049 -0.106 135 16 0
2.734 1.059 -0.106 146 16 0
2.727 1.0650001 -0.105 143 16 0
2.724 1.073 -0.104 150 16 0
2.724 1.0829999 -0.104 150 16 0
2.7149999 1.089 -0.103 150 16 0
2.7119999 1.097 -0.102 150 16 0
2.7119999 1.1059999 -0.102 150 16 0
2.7060001 1.112 -0.101 150 16 0
2.7030001 1.12 -0.1 150 16 0
2.6989999 1.128 -0.098999999 150 16 0
2.6960001 1.136 -0.097999997 150 16 0
2.6900001 1.143 -0.097000003 150 16 0
2.6889999 1.151 -0.097000003 150 16 0
2.6849999 1.159 -0.096000001 150 16 0
2.6800001 1.166 -0.094999999 150 16 0
2.6789999 1.174 -0.093999997 150 16 0
2.674 1.181 -0.093000002 150 16 0
2.6700001 1.188 -0.092 137 16 0
2.6689999 1.197 -0.090999998 150 16 0
2.6659999 1.204 -0.089000002 146 16 0
2.6619999 1.212 -0.088 150 16 0
2.6589999 1.219 -0.086999997 150 16 0
2.6489999 1.223 -0.086000003 150 16 0
2.6489999 1.232 -0.085000001 150 16 0
2.6489999 1.2410001 -0.082999997 150 16 0
2.645 1.248 -0.082000002 150 16 0
2.642 1.256 -0.081 150 16 0
2.6389999 1.263 -0.079000004 150 16 0
2.6329999 1.2690001 -0.078000002 150 16 0
2.632 1.277 -0.077 150 16 0
2.6270001 1.283 -0.075000003 150 16 0
2.622 1.289 -0.072999999 150 16 0
2.6229999 1.298 -0.071999997 150 16 0
2.618 1.3049999 -0.07 150 16 0
2.6129999 1.311 -0.068999998 150 16 0
2.612 1.319 -0.067000002 150 16 0
2.608 1.325 -0.064999998 150 16 0
2.605 1.332 -0.064000003 150 16 0
2.602 1.339 -0.061999999 146 16 0
2.6010001 1.347 -0.059999999 150 16 0
2.5969999 1.353 -0.057999998 150 16 0
2.596 1.3609999 -0.057 147 16 0
2.589 1.3660001 -0.055 150 16 0
2.585 1.372 -0.052999999 150 16 0
2.5840001 1.3789999 -0.050999999 150 16 0
2.582 1.387 -0.048999999 150 16 0
2.5810001 1.3940001 -0.046999998 137 16 0
2.575 1.399 -0.045000002 143 16 0
2.575 1.4069999 -0.043000001 150 16 0
2.573 1.414 -0.041000001 150 16 0
2.566 1.418 -0.039000001 150 16 0
2.5669999 1.426 -0.037 150 16 0
2.563 1.432 -0.034000002 150 16 0
2.5650001 1.441 -0.032000002 150 16 0
2.562 1.447 -0.029999999 150 16 0
2.5580001 1.452 -0.028000001 150 16 0
2.5569999 1.459 -0.025 150 16 0
2.5569999 1.467 -0.023 150 16 0
2.5510001 1.471 -0.021 150 16 0
2.5469999 1.476 -0.017999999 150 16 0
2.5480001 1.484 -0.016000001 150 16 0
2.5450001 1.49 -0.013 150 16 0
2.5469999 1.498 -0.011 150 16 0
2.5420001 1.503 -0.0080000004 150 16 0
2.539 1.508 -0.0060000001 150 16 0
2.5369999 1.513 -0.003 150 16 0
2.5380001 1.521 0 150 16 0
2.5309999 1.524 0.001 150 16 0
2.5339999 1.5319999 0.0040000002 150 16 0
2.533 1.538 0.0070000002 150 16 0
2.5309999 1.544 0.0089999996 150 16 0
2.5280001 1.549 0.012 150 16 0
2.5250001 1.553 0.015 150 16 0
2.523 1.559 0.017999999 150 16 0
2.52 1.564 0.021 150 16 0
2.5179999 1.568 0.024 150 16 0
2.5150001 1.573 0.026000001 150 16 0
2.5179999 1.581 0.028999999 150 16 0
2.5190001 1.5880001 0.033 150 16 0
2.5109999 1.589 0.035 150 16 0
2.5139999 1.597 0.037999999 150 16 0
2.5109999 1.601 0.041999999 150 16 0
2.513 1.608 0.045000002 150 16 0
2.5079999 1.61 0.048 150 16 0
2.5050001 1.614 0.050999999 150 16 0
2.5020001 1.618 0.054000001 148 16 0
2.5020001 1.623 0.057 148 16 0
2.503 1.628 0.059999999 146 16 0
2.5 1.632 0.064000003 144 16 0
2.5039999 1.64 0.067000002 144 16 0
2.5090001 1.648 0.07 150 16 0
2.507 1.652 0.074000001 135 16 0
2.5039999 1.654 0.077 140 16 0
2.503 1.658 0.079999998 139 16 0
2.497 1.659 0.083999999 145 16 0
2.5020001 1.6670001 0.086999997 139 16 0
2.5 1.67 0.090000004 147 16 0
2.4979999 1.6720001 0.093999997 146 16 0
2.5020001 1.6799999 0.097999997 134 16 0
2.5 1.682 0.101 134 16 0
2.4979999 1.6849999 0.104 122 16 0
2.5 1.6900001 0.108 130 16 0
2.5 1.694 0.111 123 16 0
2.4960001 1.6950001 0.115 133 16 0
2.4990001 1.7 0.119 131 16 0
2.4990001 1.7029999 0.122 136 16 0
2.5 1.707 0.126 105 16 0
2.4960001 1.7079999 0.12899999 50 16 0
2.503 1.715 0.133 39 16 0
2.497 1.714 0.13699999 34 16 0
2.5009999 1.719 0.14 37 16 0
2.4990001 1.721 0.14399999 45 16 0
2.4949999 1.72 0.147 89 16 0
2.493 1.721 0.15099999 108 16 0
2.4979999 1.727 0.155 115 16 0
2.4960001 1.728 0.15800001 115 16 0
2.4960001 1.73 0.162 111 16 0
2.5 1.734 0.16599999 127 16 0
2.4990001 1.735 0.169 134 16 0
2.5020001 1.739 0.17299999 150 16 0
2.5020001 1.7410001 0.177 150 16 0
2.507 1.745 0.18099999 149 16 0
2.5079999 1.747 0.185 122 16 0
2.51 1.749 0.189 86 16 0
2.507 1.748 0.192 64 16 0
2.5109999 1.751 0.19599999 43 16 0
2.516 1.756 0.2 36 16 0
2.51 1.752 0.20299999 28 16 0
2.506 1.75 0.206 24 16 0
2.5009999 1.7460001 0.20999999 21 16 0
2.5020001 1.747 0.213 18 16 0
2.503 1.748 0.21699999 16 16 0
2.5 1.745 0.22 16 16 0
2.4990001 1.745 0.223 14 16 0
2.5 1.744 0.227 13 16 0
2.5 1.743 0.23100001 14 16 0
2.4949999 1.739 0.234 13 16 0
2.5020001 1.744 0.23800001 13 16 0
2.5009999 1.742 0.241 13 16 0
2.5050001 1.743 0.245 13 16 0
2.5120001 1.747 0.249 13 16 0
2.513 1.7460001 0.252 14 16 0
2.5150001 1.7460001 0.25600001 14 16 0
2.5209999 1.748 0.25999999 15 16 0
2.5190001 1.745 0.26300001 17 16 0
2.53 1.751 0.26699999 19 19 0
2.536 1.752 0.271 22 16 0
2.5439999 1.756 0.27500001 26 16 0
2.5409999 1.751 0.278 32 16 0
2.5439999 1.751 0.28200001 37 16 0
2.552 1.753 0.28600001 47 16 0
2.5510001 1.75 0.289 71 16 0
2.5550001 1.75 0.292 105 16 0
2.559 1.75 0.296 150 16 0
2.556 1.744 0.29899999 150 16 0
2.559 1.743 0.30199999 150 16 0
2.5610001 1.7410001 0.30500001 150 16 0
2.5610001 1.737 0.308 131 16 0
2.563 1.735 0.31099999 124 16 0
2.5669999 1.733 0.315 121 16 0
2.5699999 1.732 0.31799999 124 16 0
2.572 1.729 0.32100001 113 16 0
2.5739999 1.726 0.324 82 16 0
2.575 1.722 0.32600001 58 16 0
2.5829999 1.723 0.33000001 47 16 0
2.5829999 1.719 0.333 44 16 0
2.5869999 1.717 0.336 40 16 0
2.5910001 1.714 0.33899999 30 16 0
2.595 1.712 0.34200001 18 16 0
2.5880001 1.702 0.34299999 10 16 0
2.5840001 1.6950001 0.345 5 16 0
2.5869999 1.691 0.34799999 3 16 0
2.595 1.691 0.35100001 2 16 0
2.605 1.692 0.35499999 4 16 0
2.6070001 1.688 0.35699999 8 16 0
2.6129999 1.686 0.36000001 27 16 0
2.6170001 1.683 0.36300001 89 16 0
2.619 1.678 0.36500001 150 16 0
2.619 1.6720001 0.36700001 150 16 0
2.625 1.67 0.37 150 16 0
2.6270001 1.665 0.37200001 138 16 0
2.6300001 1.66 0.37400001 80 16 0
2.6270001 1.652 0.37599999 46 16 0
2.6259999 1.645 0.377 41 16 0
2.6159999 1.632 0.377 36 16 0
2.6159999 1.626 0.37900001 32 16 0
2.615 1.618 0.38 31 16 0
2.612 1.61 0.382 31 16 0
2.6129999 1.604 0.38299999 31 16 0
2.6110001 1.596 0.384 31 16 0
2.6059999 1.585 0.38499999 32 16 0
2.5999999 1.575 0.38600001 33 16 0
2.599 1.567 0.38600001 33 16 0
2.596 1.558 0.38699999 38 16 0
2.599 1.553 0.389 46 16 0
2.595 1.543 0.389 70 16 0
2.598 1.538 0.391 114 16 0
2.602 1.533 0.39300001 150 16 0
2.5999999 1.524 0.39300001 150 16 0
2.6029999 1.518 0.39500001 150 16 0
2.608 1.513 0.396 150 16 0
2.612 1.508 0.398 150 16 0
2.6129999 1.501 0.398 150 16 0
2.608 1.49 0.398 75 16 0
2.582 1.4680001 0.39500001 31 18 0
2.5539999 1.444 0.391 25 16 0
2.563 1.442 0.39300001 28 16 0
2.6010001 1.455 0.40000001 67 18 0
2.618 1.456 0.403 69 16 0
2.5969999 1.436 0.40000001 32 16 0
2.602 1.431 0.40099999 37 16 0
2.642 1.4450001 0.40700001 133 17 0
2.655 1.444 0.41 150 16 0
2.655 1.436 0.41 150 16 0
2.6589999 1.4299999 0.41100001 150 16 0
2.6619999 1.423 0.41100001 150 16 0
2.668 1.418 0.412 150 16 0
2.6700001 1.41 0.412 150 16 0
2.674 1.404 0.41299999 150 16 0
2.678 1.397 0.414 150 16 0
2.681 1.39 0.414 150 16 0
2.6849999 1.383 0.414 150 16 0
2.6889999 1.377 0.41499999 150 16 0
2.691 1.369 0.41499999 150 16 0
2.697 1.363 0.41499999 150 16 0
2.6989999 1.3559999 0.41499999 150 16 0
2.7019999 1.348 0.41600001 150 16 0
2.7049999 1.341 0.41499999 150 16 0
2.7149999 1.337 0.417 150 16 0
2.7149999 1.3279999 0.41600001 150 16 0
2.7190001 1.321 0.41600001 150 16 0
2.721 1.313 0.41600001 150 16 0
2.7279999 1.307 0.41600001 150 16 0
2.73 1.299 0.41600001 150 16 0
2.737 1.293 0.41600001 150 16 0
2.737 1.284 0.41499999 150 16 0
2.74 1.277 0.41499999 150 16 0
2.747 1.271 0.41499999 150 16 0
2.7509999 1.263 0.41499999 150 16 0
2.7539999 1.256 0.414 150 16 0
2.7579999 1.248 0.414 150 16 0
2.7609999 1.24 0.41299999 150 16 0
2.7650001 1.233 0.412 150 16 0
2.7679999 1.225 0.412 150 16 0
2.7720001 1.217 0.41100001 150 16 0
2.7750001 1.21 0.41100001 150 16 0
2.779 1.202 0.41 150 16 0
2.779 1.192 0.40799999 150 16 0
2.786 1.186 0.40799999 150 16 0
2.7909999 1.179 0.40799999 150 16 0
2.793 1.17 0.40599999 150 16 0
2.796 1.1619999 0.405 150 16 0
2.8 1.154 0.40400001 150 16 0
2.803 1.146 0.403 150 16 0
2.8069999 1.138 0.40200001 150 16 0
2.8099999 1.13 0.40099999 150 16 0
2.813 1.122 0.40000001 150 16 0
2.819 1.115 0.39899999 150 16 0
2.823 1.107 0.398 150 16 0
2.825 1.099 0.396 150 16 0
2.8269999 1.09 0.39500001 150 16 0
2.8299999 1.081 0.39300001 150 16 0
2.8340001 1.073 0.39199999 150 16 0
2.8369999 1.0650001 0.391 150 16 0
2.8429999 1.058 0.38999999 150 16 0
2.846 1.05 0.38800001 150 16 0
2.8499999 1.041 0.38600001 150 16 0
2.8529999 1.033 0.38499999 150 16 0
2.8529999 1.023 0.38299999 150 16 0
2.8640001 1.018 0.382 150 16 0
2.8659999 1.0089999 0.38 150 16 0
2.8659999 0.99900001 0.37799999 150 16 0
2.8729999 0.99199998 0.377 150 16 0
2.872 0.98199999 0.37400001 150 16 0
2.8789999 0.97500002 0.373 150 16 0
2.8829999 0.96700001 0.37099999 150 16 0
2.8859999 0.95899999 0.36899999 150 16 0
2.888 0.94999999 0.36700001 150 16 0
2.8940001 0.94199997 0.366 150 16 0
2.8989999 0.93400002 0.36399999 150 16 0
2.9000001 0.92500001 0.361 150 16 0
2.901 0.91600001 0.359 150 16 0
2.908 0.90799999 0.35699999 150 16 0
2.9070001 0.89899999 0.35499999 150 16 0
2.9119999 0.88999999 0.35299999 150 16 0
2.9170001 0.88200003 0.35100001 150 16 0
2.918 0.87300003 0.34799999 150 16 0
2.9219999 0.86500001 0.34599999 150 16 0
2.9230001 0.85600001 0.34400001 150 16 0
2.928 0.84799999 0.34099999 150 16 0
2.931 0.83899999 0.33899999 150 16 0
2.934 0.82999998 0.33700001 150 16 0
2.941 0.82300001 0.33500001 150 16 0
2.947 0.815 0.33199999 150 16 0
2.948 0.80599999 0.33000001 150 16 0
2.9489999 0.796 0.32699999 150 16 0
2.9519999 0.78799999 0.32499999 150 16 0
2.96 0.77999997 0.32300001 150 16 0
2.9579999 0.76999998 0.31900001 150 16 0
2.964 0.76200002 0.317 150 16 0
2.9649999 0.75300002 0.31400001 150 16 0
2.9679999 0.74400002 0.31099999 150 16 0
2.973 0.736 0.30899999 150 16 0
2.98 0.72799999 0.30700001 150 16 0
2.977 0.71799999 0.303 150 16 0
2.9860001 0.71100003 0.301 150 16 0
2.9920001 0.70300001 0.29800001 150 16 0
2.993 0.69300002 0.29499999 150 16 0
2.9960001 0.685 0.292 150 16 0
2.9990001 0.676 0.289 150 16 0
3.0009999 0.667 0.28600001 150 16 0
3.006 0.65799999 0.28400001 150 16 0
3.0090001 0.64999998 0.28099999 150 16 0
3.0109999 0.63999999 0.27700001 150 16 0
3.016 0.63200003 0.27399999 150 16 0
3.017 0.62300003 0.271 150 16 0
3.02 0.61400002 0.26800001 150 16 0
3.023 0.60500002 0.26499999 150 16 0
3.027 0.59600002 0.26199999 150 16 0
3.0339999 0.588 0.259 150 16 0
3.0320001 0.579 0.255 150 16 0
3.0339999 0.56900001 0.252 150 16 0
3.04 0.56099999 0.249 150 16 0
3.0480001 0.55299997 0.24600001 150 16 0
3.049 0.54400003 0.243 150 16 0
3.052 0.53500003 0.23899999 147 16 0
3.0550001 0.52600002 0.236 150 16 0
3.0599999 0.51800001 0.233 150 16 0
3.062 0.50800002 0.229 150 16 0
3.066 0.5 0.226 150 16 0
3.0680001 0.491 0.222 150 16 0
3.0699999 0.48199999 0.219 150 16 0
3.0739999 0.47299999 0.215 150 16 0
3.079 0.46399999 0.212 150 16 0
3.0829999 0.45500001 0.208 150 16 0
3.0840001 0.44600001 0.204 150 16 0
3.086 0.43700001 0.20100001 150 16 0
3.0899999 0.428 0.197 140 16 0
3.0969999 0.41999999 0.19400001 100 16 0
3.1010001 0.41100001 0.19 60 16 0
3.108 0.40200001 0.18700001 44 16 0
3.115 0.39399999 0.183 38 16 0
3.1229999 0.38499999 0.18000001 34 16 0
3.1300001 0.377 0.176 32 16 0
3.142 0.36899999 0.17299999 30 16 0
3.155 0.361 0.169 30 16 0
3.1600001 0.352 0.16599999 29 16 0
3.168 0.34299999 0.162 30 16 0
3.181 0.33500001 0.15899999 29 16 0
3.1860001 0.32600001 0.155 29 16 0
3.1960001 0.31799999 0.15099999 29 16 0
3.2090001 0.30899999 0.147 32 16 0
3.2130001 0.30000001 0.14300001 32 16 0
3.2219999 0.292 0.139 36 16 0
3.2309999 0.28299999 0.13500001 37 16 0
3.2160001 0.27200001 0.131 28 16 0
3.2309999 0.26300001 0.127 28 16 0
3.2550001 0.25600001 0.123 49 16 0
3.2550001 0.24600001 0.119 69 16 0
3.2320001 0.235 0.114 47 16 0
3.211 0.22400001 0.109 48 16 0
3.211 0.214 0.104 47 16 0
3.2260001 0.206 0.1 68 16 0
3.2219999 0.19599999 0.096000001 96 16 0
3.22 0.18700001 0.090999998 87 16 0
3.2149999 0.177 0.086999997 75 16 0
3.221 0.168 0.082000002 82 16 0
3.2219999 0.15800001 0.078000002 88 16 0
3.23 0.149 0.074000001 84 16 0
3.233 0.14 0.068999998 100 16 0
3.247 0.131 0.064999998 76 16 0
3.2909999 0.123 0.061000001 51 18 0
3.3069999 0.114 0.057 53 16 0
3.3110001 0.105 0.052000001 55 16 0
3.3150001 0.094999999 0.046999998 50 16 0
3.3150001 0.085000001 0.043000001 50 16 0
3.3169999 0.075999998 0.037999999 66 16 0
3.3210001 0.066 0.033 52 16 0
3.3269999 0.057 0.028999999 41 16 0
3.3239999 0.046999998 0.024 55 16 0
3.325 0.037 0.018999999 55 16 0
3.336 0.028000001 0.014 41 16 0
3.3199999 0.017999999 0.0089999996 21 16 0
3.299 0.0089999996 0.0040000002 18 16 0
3.277 0 0 17 16 0
3.2490001 -0.0089999996 -0.0049999999 19 16 0
3.2360001 -0.017999999 -0.0089999996 43 16 0
3.243 -0.028000001 -0.014 150 16 0
3.2479999 -0.037 -0.018999999 141 16 0
3.2550001 -0.046999998 -0.024 150 16 0
3.253 -0.056000002 -0.028999999 150 16 0
3.2520001 -0.064999998 -0.034000002 150 16 0
3.2420001 -0.074000001 -0.039000001 36 16 0
3.22 -0.082999997 -0.043000001 27 16 0
