# .PCD v0.7 - Point Cloud Data file format
VERSION 0.7
FIELDS x y z intensity tag line
SIZE 4 4 4 4 1 1
TYPE F F F F U U
COUNT 1 1 1 1 1 1
WIDTH 1352
HEIGHT 1
VIEWPOINT 0 0 0 1 0 0 0
POINTS 1352
DATA ascii
2.7420001 0.81 -0.37099999 150 16 0
2.753 0.80500001 -0.368 150 16 0
2.7590001 0.79799998 -0.36399999 150 16 0
2.7620001 0.79100001 -0.359 150 16 0
2.7639999 0.78399998 -0.35499999 150 16 0
2.7690001 0.77700001 -0.35100001 150 16 0
2.7750001 0.76999998 -0.347 150 16 0
2.7780001 0.76300001 -0.34299999 150 16 0
2.783 0.75599998 -0.33899999 150 16 0
2.793 0.75099999 -0.33500001 150 16 0
2.7980001 0.74400002 -0.331 150 16 0
2.799 0.736 -0.32699999 150 16 0
2.8110001 0.73100001 -0.32300001 150 16 0
2.8150001 0.72399998 -0.31900001 150 16 0
2.8180001 0.71600002 -0.315 150 16 0
2.8269999 0.70999998 -0.31099999 150 16 0
2.826 0.70200002 -0.30700001 150 16 0
2.8369999 0.69599998 -0.303 150 16 0
2.839 0.68800002 -0.29899999 150 16 0
2.8429999 0.68099999 -0.29499999 150 16 0
2.8499999 0.67400002 -0.29100001 150 16 0
2.855 0.667 -0.287 150 16 0
2.8629999 0.66000003 -0.28400001 150 16 0
2.8670001 0.65200001 -0.28 150 16 0
2.8710001 0.64499998 -0.27500001 150 16 0
2.8729999 0.63700002 -0.271 150 16 0
2.8829999 0.63099998 -0.26800001 150 16 0
2.885 0.62199998 -0.264 150 16 0
2.8929999 0.616 -0.25999999 150 16 0
2.8989999 0.60799998 -0.25600001 150 16 0
2.905 0.60100001 -0.252 150 16 0
2.911 0.59299999 -0.249 150 16 0
2.9130001 0.58499998 -0.244 150 16 0
2.924 0.579 -0.241 150 16 0
2.931 0.57099998 -0.237 150 16 0
2.937 0.56400001 -0.233 150 16 0
2.9400001 0.55500001 -0.229 150 16 0
2.948 0.54799998 -0.226 150 16 0
2.95 0.54000002 -0.222 150 16 0
2.957 0.53200001 -0.21799999 150 16 0
2.964 0.52499998 -0.214 150 16 0
2.9660001 0.51599997 -0.20999999 150 16 0
2.9749999 0.509 -0.207 150 16 0
2.9820001 0.50099999 -0.20299999 150 16 0
2.9849999 0.493 -0.199 150 16 0
2.9909999 0.48500001 -0.19499999 150 16 0
2.9990001 0.477 -0.192 150 16 0
3 0.46799999 -0.18799999 150 16 0
3.0109999 0.461 -0.184 150 16 0
3.016 0.45300001 -0.18000001 150 16 0
3.02 0.44400001 -0.176 150 16 0
3.0239999 0.43599999 -0.17299999 150 16 0
3.0280001 0.42699999 -0.169 136 16 0
3.0369999 0.419 -0.16500001 135 16 0
3.0450001 0.412 -0.162 138 16 0
3.052 0.403 -0.15800001 131 16 0
3.052 0.39399999 -0.154 142 16 0
3.0639999 0.38600001 -0.15099999 147 16 0
3.069 0.37799999 -0.147 138 16 0
3.069 0.36899999 -0.14300001 141 16 0
3.0829999 0.361 -0.14 125 16 0
3.0910001 0.35299999 -0.13600001 130 16 0
3.0940001 0.34400001 -0.132 132 16 0
3.102 0.33500001 -0.12899999 121 16 0
3.109 0.32699999 -0.125 138 16 0
3.118 0.31799999 -0.121 124 16 0
3.122 0.30899999 -0.118 119 16 0
3.128 0.30000001 -0.114 118 16 0
3.1289999 0.29100001 -0.11 107 16 0
3.1400001 0.28299999 -0.107 114 16 0
3.1500001 0.27399999 -0.103 126 16 0
3.151 0.26499999 -0.098999999 128 16 0
3.1630001 0.25600001 -0.096000001 116 16 0
3.1700001 0.24699999 -0.092 127 16 0
3.1730001 0.23800001 -0.088 104 16 0
3.184 0.229 -0.085000001 98 16 0
3.1889999 0.22 -0.081 111 16 0
3.1949999 0.20999999 -0.078000002 108 16 0
3.204 0.20100001 -0.074000001 96 16 0
3.2090001 0.192 -0.07 100 16 0
3.22 0.183 -0.067000002 107 16 0
3.2260001 0.17299999 -0.063000001 98 16 0
3.233 0.164 -0.059999999 114 16 0
3.2379999 0.154 -0.056000002 105 16 0
3.247 0.145 -0.052000001 97 16 0
3.2520001 0.13500001 -0.048999999 99 16 0
3.2550001 0.126 -0.045000002 99 16 0
3.267 0.116 -0.041000001 104 16 0
3.277 0.107 -0.037999999 87 16 0
3.2780001 0.097000003 -0.034000002 93 16 0
3.2869999 0.086999997 -0.030999999 83 16 0
3.289 0.077 -0.027000001 77 16 0
3.2939999 0.067000002 -0.023 69 16 0
3.306 0.057 -0.02 46 16 0
3.3099999 0.046999998 -0.016000001 75 16 0
3.3180001 0.037 -0.013 85 16 0
3.3329999 0.027000001 -0.0089999996 40 16 0
3.306 0.017000001 -0.0060000001 20 16 0
3.2869999 0.0070000002 -0.0020000001 19 16 0
3.267 -0.0020000001 0.001 18 16 0
3.2479999 -0.012 0.0040000002 31 16 0
3.2479999 -0.022 0.0070000002 150 16 0
3.2590001 -0.032000002 0.011 150 16 0
3.266 -0.041999999 0.014 150 16 0
3.2739999 -0.052999999 0.017999999 150 16 0
3.2809999 -0.063000001 0.021 150 16 0
3.273 -0.072999999 0.024 40 16 0
3.2490001 -0.082000002 0.028000001 33 16 0
3.23 -0.090999998 0.030999999 32 16 0
3.214 -0.101 0.034000002 31 16 0
3.191 -0.11 0.037 31 16 0
3.1719999 -0.119 0.039999999 32 16 0
3.1500001 -0.12800001 0.043000001 32 16 0
3.1300001 -0.13699999 0.046 31 16 0
3.1170001 -0.146 0.048 29 16 0
3.0940001 -0.155 0.050999999 30 16 0
3.0780001 -0.163 0.054000001 30 16 0
3.0539999 -0.171 0.056000002 30 16 0
3.0439999 -0.18000001 0.059 30 16 0
3.0179999 -0.18799999 0.061999999 32 16 0
2.9990001 -0.19599999 0.064000003 30 16 0
2.983 -0.204 0.067000002 31 16 0
2.9660001 -0.213 0.068999998 29 16 0
2.95 -0.221 0.071000002 31 16 0
2.937 -0.229 0.074000001 31 16 0
2.914 -0.236 0.075999998 32 16 0
2.902 -0.244 0.078000002 33 16 0
2.885 -0.252 0.081 33 16 0
2.8670001 -0.259 0.082999997 32 16 0
2.8529999 -0.26699999 0.085000001 33 16 0
2.8340001 -0.27399999 0.086999997 34 16 0
2.813 -0.28099999 0.089000002 33 16 0
2.8050001 -0.289 0.090999998 34 16 0
2.789 -0.296 0.093000002 33 16 0
2.7720001 -0.303 0.094999999 35 16 0
2.7620001 -0.31 0.097000003 34 16 0
2.7379999 -0.31600001 0.098999999 36 16 0
2.7290001 -0.324 0.101 34 16 0
2.7179999 -0.331 0.102 36 16 0
2.711 -0.33899999 0.105 36 16 0
2.688 -0.34400001 0.106 36 16 0
2.674 -0.35100001 0.108 36 16 0
2.658 -0.35699999 0.109 39 16 0
2.6489999 -0.36399999 0.111 42 16 0
2.6340001 -0.37099999 0.113 36 16 0
2.622 -0.377 0.114 47 16 0
2.5999999 -0.382 0.115 45 16 0
2.5929999 -0.38999999 0.117 48 16 0
2.5810001 -0.396 0.119 52 16 0
2.5710001 -0.403 0.12 48 16 0
2.5539999 -0.40799999 0.122 56 16 0
2.5380001 -0.414 0.123 58 16 0
2.526 -0.41999999 0.124 62 16 0
2.5109999 -0.42500001 0.125 58 16 0
2.5009999 -0.43200001 0.127 61 16 0
2.4879999 -0.43700001 0.12800001 66 16 0
2.4760001 -0.44299999 0.12899999 66 16 0
2.464 -0.449 0.131 75 16 0
2.454 -0.45500001 0.132 67 16 0
2.4449999 -0.461 0.133 79 16 0
2.4289999 -0.46599999 0.134 66 16 0
2.4130001 -0.47099999 0.13500001 61 16 0
2.405 -0.477 0.13600001 67 16 0
2.3929999 -0.48300001 0.13699999 73 16 0
2.3800001 -0.48800001 0.138 70 16 0
2.3729999 -0.49399999 0.139 79 16 0
2.3570001 -0.498 0.14 90 16 0
2.3499999 -0.50400001 0.141 64 16 0
2.3329999 -0.50800002 0.142 74 16 0
2.326 -0.514 0.14300001 85 16 0
2.3110001 -0.51800001 0.14399999 78 16 0
2.2980001 -0.523 0.14399999 74 16 0
2.2880001 -0.528 0.145 81 16 0
2.276 -0.53299999 0.146 79 16 0
2.266 -0.53799999 0.147 98 16 0
2.253 -0.54299998 0.147 95 16 0
2.2460001 -0.54799998 0.148 93 16 0
2.2360001 -0.55299997 0.149 102 16 0
2.2279999 -0.55800003 0.15000001 109 16 0
2.2130001 -0.56199998 0.15000001 105 16 0
2.2060001 -0.56699997 0.15099999 100 16 0
2.1930001 -0.57099998 0.15099999 105 16 0
2.1849999 -0.57599998 0.152 117 16 0
2.1760001 -0.58099997 0.153 100 16 0
2.164 -0.58499998 0.153 109 16 0
2.1570001 -0.58999997 0.154 105 16 0
2.1359999 -0.59200001 0.153 115 19 0
2.1289999 -0.597 0.154 117 16 0
2.122 -0.602 0.155 122 16 0
2.1129999 -0.60600001 0.155 149 16 0
2.0999999 -0.61000001 0.155 149 16 0
2.0929999 -0.61500001 0.156 133 16 0
2.0810001 -0.61799997 0.156 150 16 0
2.0739999 -0.62300003 0.156 138 16 0
2.063 -0.62699997 0.156 147 16 0
2.0580001 -0.63200003 0.15700001 150 16 0
2.0480001 -0.63599998 0.15700001 150 16 0
2.0369999 -0.639 0.15700001 150 16 0
2.0239999 -0.64200002 0.15700001 150 16 0
2.0190001 -0.64700001 0.15800001 147 16 0
2.0079999 -0.64999998 0.15800001 150 16 0
2.0050001 -0.65600002 0.15800001 150 16 0
1.993 -0.65899998 0.15800001 150 16 0
1.983 -0.662 0.15800001 150 16 0
1.974 -0.66600001 0.15800001 150 16 0
1.964 -0.67000002 0.15800001 150 16 0
1.956 -0.67299998 0.15800001 150 16 0
1.951 -0.67799997 0.15800001 150 16 0
1.942 -0.68199998 0.15800001 150 16 0
1.926 -0.68300003 0.15800001 150 16 0
1.9170001 -0.68599999 0.15700001 150 16 0
1.915 -0.69199997 0.15800001 150 16 0
1.9069999 -0.69499999 0.15800001 150 16 0
1.899 -0.699 0.15800001 150 16 0
1.895 -0.704 0.15800001 150 16 0
1.886 -0.70700002 0.15800001 150 16 0
1.877 -0.70999998 0.15700001 150 16 0
1.87 -0.713 0.15700001 150 16 0
1.859 -0.71600002 0.15700001 150 16 0
1.855 -0.72000003 0.15700001 150 16 0
1.848 -0.72399998 0.15700001 150 16 0
1.8430001 -0.72899997 0.15700001 150 16 0
1.837 -0.73199999 0.156 150 16 0
1.822 -0.73299998 0.156 150 16 0
1.812 -0.73500001 0.155 150 16 0
1.806 -0.73799998 0.155 150 16 0
1.7970001 -0.741 0.154 150 16 0
1.7970001 -0.74699998 0.154 109 0 0
1.789 -0.74900001 0.154 80 0 0
1.783 -0.75300002 0.154 73 0 0
1.775 -0.75599998 0.153 69 0 0
1.767 -0.759 0.153 2 0 0
1.762 -0.76200002 0.152 73 0 0
1.751 -0.764 0.15099999 52 0 0
1.747 -0.76800001 0.15099999 88 0 0
1.738 -0.76899999 0.15000001 82 0 0
1.734 -0.77399999 0.15000001 111 0 0
1.725 -0.77600002 0.149 113 0 0
1.723 -0.77999997 0.149 108 0 0
1.715 -0.78299999 0.148 101 0 0
1.7130001 -0.78799999 0.148 120 0 0
1.694 -0.78399998 0.146 93 3 0
1.692 -0.78899997 0.146 107 0 0
1.683 -0.79100001 0.145 124 0 0
1.676 -0.79299998 0.145 109 0 0
1.673 -0.79699999 0.14399999 129 0 0
1.666 -0.79900002 0.14300001 124 0 0
1.661 -0.80299997 0.14300001 97 0 0
1.655 -0.80500001 0.142 150 0 0
1.648 -0.80699998 0.141 118 0 0
1.64 -0.80900002 0.14 150 0 0
1.635 -0.81199998 0.139 118 0 0
1.631 -0.815 0.139 118 0 0
1.623 -0.81699997 0.138 93 0 0
1.618 -0.81900001 0.13699999 123 0 0
1.61 -0.82099998 0.13600001 87 0 0
1.605 -0.824 0.13500001 108 0 0
1.602 -0.82700002 0.134 150 0 0
1.596 -0.829 0.133 123 0 0
1.586 -0.829 0.132 126 0 0
1.581 -0.83200002 0.131 131 0 0
1.575 -0.833 0.13 110 0 0
1.573 -0.83700001 0.12899999 150 0 0
1.568 -0.83999997 0.12800001 150 0 0
1.563 -0.84200001 0.127 150 0 0
1.561 -0.84600002 0.126 141 0 0
1.557 -0.84899998 0.125 144 0 0
1.549 -0.85000002 0.124 150 0 0
1.544 -0.85100001 0.123 148 0 0
1.54 -0.85399997 0.122 127 0 0
1.53 -0.85299999 0.12 150 0 0
1.528 -0.85699999 0.119 139 0 0
1.5190001 -0.85699999 0.118 134 0 0
1.516 -0.85900003 0.116 140 0 0
1.5140001 -0.86299998 0.115 109 0 0
1.508 -0.86400002 0.114 117 0 0
1.507 -0.86799997 0.113 140 0 0
1.5 -0.86799997 0.112 129 0 0
1.4960001 -0.87099999 0.11 124 0 0
1.493 -0.87300003 0.109 147 0 0
1.484 -0.87199998 0.108 129 0 0
1.4809999 -0.875 0.106 150 0 0
1.477 -0.87699997 0.105 146 0 0
1.47 -0.87599999 0.104 150 0 0
1.471 -0.88200003 0.103 127 0 0
1.464 -0.88200003 0.101 115 0 0
1.459 -0.88300002 0.1 150 0 0
1.455 -0.884 0.097999997 150 0 0
1.452 -0.88599998 0.097000003 118 0 0
1.448 -0.88800001 0.094999999 147 0 0
1.439 -0.88599998 0.093999997 150 0 0
1.441 -0.89099997 0.093000002 150 0 0
1.436 -0.89099997 0.090999998 150 0 0
1.432 -0.89300001 0.090000004 150 0 0
1.429 -0.89499998 0.088 144 0 0
1.427 -0.89700001 0.086999997 150 0 0
1.419 -0.89600003 0.085000001 136 0 0
1.4170001 -0.898 0.082999997 132 0 0
1.411 -0.898 0.082000002 150 0 0
1.411 -0.90100002 0.079999998 124 0 0
1.41 -0.903 0.079000004 137 0 0
1.403 -0.903 0.077 135 0 0
1.402 -0.90499997 0.075999998 146 0 0
1.398 -0.90600002 0.074000001 139 0 0
1.397 -0.90799999 0.071999997 150 0 0
1.392 -0.90799999 0.071000002 138 0 0
1.388 -0.90799999 0.068999998 134 0 0
1.385 -0.90899998 0.067000002 147 0 0
1.381 -0.91000003 0.066 150 0 0
1.382 -0.91299999 0.064000003 140 0 0
1.378 -0.91299999 0.061999999 119 0 0
1.374 -0.91299999 0.061000001 114 0 0
1.373 -0.91500002 0.059 100 0 0
1.37 -0.91600001 0.057 150 0 0
1.368 -0.917 0.056000002 150 0 0
1.367 -0.91900003 0.054000001 140 0 0
1.364 -0.91900003 0.052000001 132 0 0
1.363 -0.92000002 0.050999999 150 0 0
1.359 -0.92000002 0.048999999 132 0 0
1.357 -0.921 0.046999998 134 0 0
1.357 -0.92299998 0.045000002 150 0 0
1.3559999 -0.92400002 0.044 124 0 0
1.351 -0.92299998 0.041999999 143 0 0
1.354 -0.92699999 0.039999999 111 0 0
1.349 -0.92500001 0.037999999 133 0 0
1.347 -0.926 0.035999998 145 0 0
1.347 -0.92799997 0.035 149 0 0
1.347 -0.92900002 0.033 150 0 0
1.3430001 -0.92799997 0.030999999 132 0 0
1.337 -0.92500001 0.028999999 140 0 0
1.34 -0.92900002 0.027000001 133 0 0
1.339 -0.93000001 0.025 132 0 0
1.335 -0.92799997 0.024 130 0 0
1.335 -0.93000001 0.022 150 0 0
1.332 -0.92799997 0.02 126 0 0
1.334 -0.93099999 0.017999999 130 0 0
1.3279999 -0.92799997 0.016000001 116 0 0
1.33 -0.93000001 0.014 131 0 0
1.33 -0.93099999 0.012 127 0 0
1.329 -0.93099999 0.011 115 0 0
1.329 -0.93199998 0.0089999996 99 0 0
1.326 -0.93000001 0.0070000002 103 0 0
1.3279999 -0.93199998 0.0049999999 136 0 0
1.326 -0.93099999 0.003 129 0 0
1.326 -0.93199998 0.001 131 0 0
1.325 -0.93199998 0 141 0 0
1.327 -0.93300003 -0.001 111 0 0
1.309 -0.921 -0.003 110 1 0
1.324 -0.93199998 -0.0049999999 138 3 0
1.322 -0.93000001 -0.0070000002 146 0 0
1.322 -0.93000001 -0.0089999996 138 0 0
1.322 -0.93000001 -0.011 145 0 0
1.3200001 -0.92799997 -0.013 131 0 0
1.3200001 -0.92799997 -0.015 143 0 0
1.309 -0.92000002 -0.016000001 126 1 0
1.3200001 -0.92799997 -0.017999999 134 0 0
1.3200001 -0.92699999 -0.02 2 0 0
1.323 -0.92900002 -0.022 138 0 0
1.323 -0.92799997 -0.024 150 0 0
1.321 -0.926 -0.026000001 142 0 0
1.322 -0.926 -0.028000001 150 0 0
1.324 -0.92699999 -0.028999999 150 0 0
1.324 -0.926 -0.030999999 150 0 0
1.326 -0.926 -0.033 150 0 0
1.325 -0.92500001 -0.035 150 0 0
1.326 -0.92400002 -0.037 137 0 0
1.326 -0.92299998 -0.039000001 143 0 0
1.327 -0.92199999 -0.039999999 150 0 0
1.327 -0.921 -0.041999999 150 0 0
1.3279999 -0.92000002 -0.044 150 0 0
1.329 -0.91900003 -0.046 140 0 0
1.334 -0.92199999 -0.048 147 0 0
1.331 -0.91799998 -0.048999999 150 0 0
1.331 -0.91600001 -0.050999999 141 0 0
1.332 -0.91500002 -0.052999999 150 0 0
1.335 -0.91500002 -0.055 125 0 0
1.3329999 -0.912 -0.056000002 123 0 0
1.337 -0.91299999 -0.057999998 149 0 0
1.336 -0.91000003 -0.059999999 150 0 0
1.341 -0.91100001 -0.061999999 150 0 0
1.342 -0.91100001 -0.063000001 94 0 0
1.342 -0.90799999 -0.064999998 148 0 0
1.344 -0.90700001 -0.067000002 140 0 0
1.345 -0.90600002 -0.068000004 143 0 0
1.351 -0.90700001 -0.07 150 0 0
1.352 -0.90600002 -0.071999997 125 0 0
1.352 -0.903 -0.072999999 150 0 0
1.357 -0.90399998 -0.075000003 150 0 0
1.354 -0.89899999 -0.077 150 0 0
1.36 -0.90100002 -0.078000002 143 0 0
1.359 -0.89700001 -0.079999998 137 0 0
1.363 -0.89700001 -0.081 134 0 0
1.364 -0.89499998 -0.082999997 134 0 0
1.368 -0.89399999 -0.085000001 150 0 0
1.3710001 -0.89300001 -0.086000003 150 0 0
1.375 -0.89300001 -0.088 150 0 0
1.378 -0.89200002 -0.090000004 135 0 0
1.38 -0.88999999 -0.090999998 150 0 0
1.381 -0.88700002 -0.092 150 0 0
1.38 -0.884 -0.093999997 150 0 0
1.385 -0.88300002 -0.094999999 150 0 0
1.385 -0.88 -0.097000003 150 0 0
1.387 -0.87800002 -0.097999997 150 0 0
1.39 -0.87599999 -0.098999999 150 0 0
1.3940001 -0.875 -0.101 136 0 0
1.396 -0.87300003 -0.102 135 0 0
1.397 -0.87 -0.104 147 0 0
1.406 -0.87199998 -0.105 150 0 0
1.4069999 -0.86900002 -0.107 129 0 0
1.41 -0.86699998 -0.108 143 0 0
1.416 -0.86699998 -0.11 150 0 0
1.4170001 -0.86400002 -0.111 149 0 0
1.4220001 -0.86299998 -0.112 147 0 0
1.425 -0.861 -0.113 128 0 0
1.429 -0.85900003 -0.115 140 0 0
1.4299999 -0.85600001 -0.116 150 0 0
1.4349999 -0.85500002 -0.117 150 0 0
1.437 -0.852 -0.118 150 0 0
1.438 -0.84799999 -0.119 150 0 0
1.448 -0.85000002 -0.121 139 0 0
1.45 -0.847 -0.122 150 0 0
1.452 -0.84399998 -0.123 150 0 0
1.456 -0.84200001 -0.124 150 0 0
1.461 -0.83999997 -0.126 148 0 0
1.467 -0.83899999 -0.127 150 0 0
1.474 -0.83899999 -0.12800001 148 0 0
1.479 -0.83700001 -0.12899999 111 0 0
1.482 -0.83399999 -0.13 123 0 0
1.483 -0.82999998 -0.131 119 0 0
1.488 -0.82800001 -0.132 133 0 0
1.49 -0.82499999 -0.133 150 0 0
1.495 -0.82300001 -0.134 123 0 0
1.507 -0.82499999 -0.13600001 131 0 0
1.505 -0.81900001 -0.13600001 125 0 0
1.508 -0.81599998 -0.13699999 74 0 0
1.5190001 -0.81699997 -0.139 145 0 0
1.524 -0.815 -0.14 150 0 0
1.526 -0.81099999 -0.14 98 0 0
1.534 -0.81 -0.142 139 0 0
1.5369999 -0.80699998 -0.142 114 0 0
1.54 -0.80400002 -0.14300001 115 0 0
1.5470001 -0.80199999 -0.14399999 148 0 0
1.55 -0.79799998 -0.145 122 0 0
1.561 -0.79900002 -0.146 115 0 0
1.563 -0.79500002 -0.147 116 0 0
1.569 -0.79299998 -0.147 150 0 0
1.571 -0.78899997 -0.148 113 0 0
1.576 -0.78600001 -0.149 139 0 0
1.585 -0.78500003 -0.15000001 150 0 0
1.592 -0.78299999 -0.15099999 112 0 0
1.594 -0.77899998 -0.15099999 122 0 0
1.597 -0.77499998 -0.15099999 108 0 0
1.603 -0.773 -0.152 123 0 0
1.605 -0.76899999 -0.153 106 0 0
1.614 -0.76700002 -0.153 125 0 0
1.617 -0.76300001 -0.154 102 0 0
1.63 -0.764 -0.155 122 0 0
1.633 -0.75999999 -0.156 6 0 0
1.643 -0.759 -0.156 119 0 0
1.647 -0.755 -0.15700001 106 0 0
1.654 -0.75300002 -0.15700001 97 0 0
1.66 -0.75 -0.15800001 150 16 0
1.664 -0.74599999 -0.15800001 89 0 0
1.676 -0.74599999 -0.15899999 3 0 0
1.682 -0.74299997 -0.16 150 16 0
1.687 -0.73900002 -0.16 150 16 0
1.6900001 -0.73500001 -0.16 150 16 0
1.696 -0.73199999 -0.161 75 0 0
1.706 -0.73000002 -0.161 150 16 0
1.706 -0.72399998 -0.161 82 0 0
1.717 -0.72299999 -0.162 63 0 0
1.727 -0.722 -0.162 61 0 0
1.7309999 -0.71799999 -0.163 76 0 0
1.739 -0.71499997 -0.163 60 0 0
1.75 -0.71399999 -0.164 65 0 0
1.758 -0.71100003 -0.164 68 0 0
1.762 -0.70599997 -0.164 58 0 0
1.767 -0.70200002 -0.164 1 0 0
1.774 -0.699 -0.164 2 0 0
1.777 -0.69400001 -0.164 39 0 0
1.79 -0.69300002 -0.16500001 2 0 0
1.8 -0.69099998 -0.16500001 2 0 0
1.8049999 -0.68699998 -0.16500001 150 16 0
1.8150001 -0.68400002 -0.16500001 150 16 0
1.8200001 -0.68000001 -0.16500001 150 16 0
1.825 -0.676 -0.16500001 150 16 0
1.8380001 -0.67400002 -0.16599999 150 16 0
1.841 -0.66900003 -0.16500001 150 16 0
1.858 -0.66900003 -0.16599999 150 16 0
1.862 -0.66399997 -0.16599999 150 16 0
1.87 -0.66100001 -0.16599999 150 16 0
1.874 -0.65600002 -0.16500001 150 16 0
1.8839999 -0.653 -0.16500001 150 16 0
1.892 -0.64899999 -0.16500001 150 16 0
1.905 -0.64700001 -0.16599999 137 16 0
1.909 -0.64200002 -0.16500001 150 16 0
1.916 -0.63800001 -0.16500001 150 16 0
1.9220001 -0.634 -0.16500001 150 16 0
1.928 -0.62900001 -0.164 150 16 0
1.941 -0.62699997 -0.164 150 16 0
1.956 -0.625 -0.16500001 150 16 0
1.96 -0.62 -0.164 129 16 0
1.969 -0.616 -0.164 143 16 0
1.974 -0.611 -0.163 142 16 0
1.985 -0.60799998 -0.163 138 16 0
1.993 -0.60299999 -0.163 125 16 0
2.006 -0.60100001 -0.163 131 16 0
2.0109999 -0.59500003 -0.162 129 16 0
2.0209999 -0.59200001 -0.162 131 16 0
2.033 -0.588 -0.162 104 16 0
2.0369999 -0.583 -0.161 105 16 0
2.0510001 -0.57999998 -0.161 107 16 0
2.059 -0.57599998 -0.16 103 16 0
2.075 -0.57300001 -0.16 99 16 0
2.0829999 -0.56800002 -0.15899999 111 16 0
2.095 -0.565 -0.15899999 96 16 0
2.099 -0.55900002 -0.15800001 101 16 0
2.1110001 -0.55500001 -0.15800001 99 16 0
2.119 -0.55000001 -0.15700001 99 16 0
2.131 -0.546 -0.156 88 16 0
2.1400001 -0.542 -0.156 90 16 0
2.1530001 -0.53799999 -0.155 89 16 0
2.1619999 -0.53299999 -0.154 92 16 0
2.1830001 -0.53100002 -0.154 91 19 0
2.1919999 -0.52600002 -0.153 82 16 0
2.197 -0.51999998 -0.152 84 16 0
2.2090001 -0.51599997 -0.152 79 16 0
2.2219999 -0.51099998 -0.15099999 79 16 0
2.234 -0.50700003 -0.15000001 75 16 0
2.24 -0.50099999 -0.149 78 16 0
2.2520001 -0.49599999 -0.148 74 16 0
2.267 -0.49200001 -0.147 62 16 0
2.2780001 -0.48699999 -0.146 60 16 0
2.2839999 -0.48100001 -0.145 68 16 0
2.303 -0.47799999 -0.145 72 16 0
2.3110001 -0.472 -0.14300001 69 16 0
2.323 -0.46700001 -0.142 57 16 0
2.3340001 -0.461 -0.141 51 16 0
2.349 -0.45699999 -0.14 53 16 0
2.3610001 -0.45100001 -0.139 51 16 0
2.3740001 -0.44600001 -0.138 48 16 0
2.381 -0.44 -0.13699999 51 16 0
2.395 -0.435 -0.13500001 52 16 0
2.414 -0.43099999 -0.13500001 57 16 0
2.4260001 -0.42500001 -0.133 57 16 0
2.4389999 -0.41999999 -0.132 52 16 0
2.4519999 -0.414 -0.131 54 16 0
2.4619999 -0.40799999 -0.12899999 52 16 0
2.4749999 -0.40200001 -0.12800001 46 16 0
2.4860001 -0.396 -0.126 43 16 0
2.5050001 -0.391 -0.125 44 16 0
2.5190001 -0.38499999 -0.124 36 16 0
2.5320001 -0.37900001 -0.122 40 16 0
2.543 -0.373 -0.12 33 16 0
2.5599999 -0.36700001 -0.119 29 16 0
2.576 -0.361 -0.117 29 16 0
2.5869999 -0.35499999 -0.115 31 16 0
2.6040001 -0.34900001 -0.114 30 16 0
2.6170001 -0.34200001 -0.112 29 16 0
2.631 -0.336 -0.11 29 16 0
2.6459999 -0.33000001 -0.109 29 16 0
2.6630001 -0.32300001 -0.107 28 16 0
2.678 -0.317 -0.105 28 16 0
2.6889999 -0.31 -0.103 29 16 0
2.7130001 -0.30399999 -0.101 29 16 0
2.727 -0.29699999 -0.098999999 28 16 0
2.7349999 -0.289 -0.097000003 27 16 0
2.7550001 -0.28299999 -0.094999999 28 16 0
2.7690001 -0.27599999 -0.093000002 28 16 0
2.786 -0.26899999 -0.090999998 27 16 0
2.8 -0.26100001 -0.089000002 27 16 0
2.8169999 -0.25400001 -0.086000003 27 16 0
2.839 -0.24699999 -0.083999999 27 16 0
2.855 -0.23999999 -0.082000002 26 16 0
2.8670001 -0.23199999 -0.079999998 26 16 0
2.8859999 -0.22400001 -0.077 27 16 0
2.9089999 -0.21699999 -0.075000003 26 16 0
2.9219999 -0.20900001 -0.071999997 27 16 0
2.9489999 -0.20200001 -0.07 26 16 0
2.9619999 -0.19400001 -0.067000002 25 16 0
2.9849999 -0.186 -0.064999998 26 16 0
2.9990001 -0.178 -0.061999999 26 16 0
3.013 -0.169 -0.059 25 16 0
3.0469999 -0.162 -0.057 26 16 0
3.0650001 -0.153 -0.054000001 26 16 0
3.0869999 -0.145 -0.050999999 26 16 0
3.108 -0.13600001 -0.048 26 16 0
3.1289999 -0.12800001 -0.045000002 27 16 0
3.1459999 -0.119 -0.041999999 27 16 0
3.1670001 -0.11 -0.039000001 26 16 0
3.194 -0.101 -0.035999998 27 16 0
3.21 -0.092 -0.033 26 16 0
3.237 -0.082999997 -0.029999999 29 16 0
3.2579999 -0.072999999 -0.026000001 43 16 0
3.266 -0.063000001 -0.023 150 16 0
3.2609999 -0.052999999 -0.018999999 126 16 0
3.256 -0.043000001 -0.016000001 126 16 0
3.25 -0.033 -0.012 134 16 0
3.2490001 -0.023 -0.0080000004 93 16 0
3.2460001 -0.013 -0.0049999999 27 16 0
3.2739999 -0.0040000002 -0.001 17 16 0
3.2920001 0.0049999999 0.0020000001 18 16 0
3.319 0.015 0.0049999999 20 16 0
3.3369999 0.026000001 0.0089999996 38 16 0
3.3329999 0.035999998 0.013 59 16 0
3.325 0.046 0.017000001 65 16 0
3.3329999 0.056000002 0.021 43 16 0
3.323 0.066 0.024 53 16 0
3.3180001 0.075999998 0.028000001 78 16 0
3.3150001 0.086000003 0.032000002 61 16 0
3.3139999 0.096000001 0.035999998 72 16 0
3.3080001 0.105 0.039999999 60 16 0
3.3069999 0.115 0.044 63 16 0
3.286 0.125 0.046999998 84 16 0
3.2409999 0.133 0.050999999 97 16 0
3.2279999 0.142 0.054000001 108 16 0
3.2290001 0.152 0.057999998 96 16 0
3.22 0.161 0.061999999 97 16 0
3.2160001 0.17 0.066 96 16 0
3.2160001 0.18000001 0.07 103 16 0
3.2119999 0.189 0.074000001 92 16 0
3.207 0.199 0.077 93 16 0
3.2019999 0.208 0.081 85 16 0
3.2 0.21799999 0.085000001 94 16 0
3.2 0.227 0.089000002 102 16 0
3.1930001 0.236 0.093000002 97 16 0
3.1930001 0.24600001 0.097000003 102 16 0
3.1949999 0.255 0.101 108 16 0
3.1960001 0.26499999 0.105 83 16 0
3.191 0.27399999 0.109 62 16 0
3.1989999 0.28400001 0.113 41 16 0
3.211 0.29499999 0.118 40 16 0
3.234 0.30700001 0.123 81 16 0
3.2360001 0.317 0.127 123 16 0
3.234 0.32600001 0.132 73 16 0
3.223 0.33500001 0.13500001 48 16 0
3.2119999 0.34299999 0.139 41 16 0
3.2079999 0.352 0.14300001 37 16 0
3.2 0.361 0.147 36 16 0
3.1860001 0.36899999 0.15099999 33 16 0
3.1800001 0.37799999 0.155 31 16 0
3.1630001 0.38499999 0.15800001 30 16 0
3.161 0.39399999 0.162 32 16 0
3.1500001 0.40200001 0.16599999 31 16 0
3.1389999 0.41 0.17 32 16 0
3.128 0.41800001 0.17399999 31 16 0
3.118 0.426 0.177 33 16 0
3.1040001 0.433 0.18099999 34 16 0
3.1010001 0.442 0.185 39 16 0
3.0929999 0.44999999 0.189 49 16 0
3.0899999 0.45899999 0.193 90 16 0
3.0810001 0.46700001 0.197 138 16 0
3.0799999 0.47600001 0.20100001 150 16 0
3.073 0.484 0.205 150 16 0
3.0710001 0.493 0.20900001 150 16 0
3.066 0.50099999 0.214 150 16 0
3.066 0.50999999 0.21799999 150 16 0
3.063 0.51899999 0.222 150 16 0
3.059 0.52700001 0.226 150 16 0
3.059 0.53600001 0.23100001 150 16 0
3.056 0.54500002 0.235 150 16 0
3.0550001 0.55299997 0.23999999 150 16 0
3.0469999 0.56099999 0.244 150 16 0
3.05 0.56999999 0.248 150 16 0
3.0480001 0.579 0.25299999 150 16 0
3.043 0.58700001 0.257 150 16 0
3.0439999 0.59600002 0.26199999 150 16 0
3.0369999 0.60399997 0.266 150 16 0
3.033 0.61199999 0.27000001 150 16 0
3.0320001 0.62099999 0.27500001 150 16 0
3.0350001 0.63 0.28 150 16 0
3.0309999 0.63800001 0.28400001 150 16 0
3.0250001 0.64600003 0.28799999 150 16 0
3.0239999 0.65399998 0.29300001 150 16 0
3.02 0.66299999 0.29699999 150 16 0
3.0179999 0.671 0.30199999 150 16 0
3.017 0.67900002 0.30599999 150 16 0
3.0139999 0.68800002 0.31099999 150 16 0
3.0120001 0.69599998 0.31600001 150 16 0
3.0090001 0.704 0.31999999 150 16 0
3.006 0.71200001 0.32499999 150 16 0
3.0090001 0.722 0.33000001 150 16 0
3.007 0.73000002 0.33500001 150 16 0
3.0039999 0.73799998 0.34 150 16 0
3.0020001 0.74599999 0.34400001 150 16 0
3.0009999 0.755 0.34900001 150 16 0
2.9949999 0.76200002 0.354 150 16 0
2.994 0.77100003 0.359 150 16 0
2.993 0.77899998 0.36300001 150 16 0
2.9890001 0.787 0.368 150 16 0
2.9890001 0.79500002 0.373 150 16 0
2.9860001 0.80299997 0.37799999 150 16 0
2.9820001 0.81099999 0.38299999 150 16 0
2.98 0.81900001 0.38800001 150 16 0
2.977 0.82700002 0.39199999 150 16 0
2.9779999 0.83600003 0.398 150 16 0
2.974 0.84299999 0.403 150 16 0
2.9749999 0.852 0.40799999 150 16 0
2.971 0.85900003 0.41299999 150 16 0
2.9679999 0.86699998 0.41800001 150 16 0
2.9679999 0.87599999 0.42300001 150 16 0
2.964 0.88300002 0.428 150 16 0
2.9619999 0.89099997 0.433 150 16 0
2.961 0.89899999 0.43799999 150 16 0
2.9579999 0.90600002 0.44299999 150 16 0
2.9579999 0.91500002 0.449 150 16 0
2.9590001 0.92400002 0.454 150 16 0
2.9560001 0.93099999 0.45899999 150 16 0
2.9549999 0.93900001 0.465 150 16 0
2.9519999 0.94599998 0.47 150 16 0
2.9519999 0.95499998 0.47499999 150 16 0
2.9460001 0.96100003 0.47999999 150 16 0
2.948 0.97000003 0.486 150 16 0
2.9449999 0.977 0.491 150 16 0
2.9419999 0.98500001 0.49599999 150 16 0
2.9389999 0.99199998 0.50199997 150 16 0
2.937 0.99900001 0.50700003 150 16 0
2.9330001 1.006 0.51200002 150 16 0
2.934 1.015 0.51800001 150 16 0
2.9300001 1.022 0.523 150 16 0
2.924 1.028 0.528 61 16 0
2.914 1.0319999 0.53200001 43 16 0
2.902 1.036 0.53500003 40 16 0
2.892 1.04 0.53899997 39 16 0
2.881 1.044 0.54299998 39 16 0
2.8699999 1.048 0.54699999 38 16 0
2.8640001 1.054 0.55199999 40 16 0
2.858 1.059 0.55599999 39 16 0
2.8469999 1.063 0.56 40 16 0
2.835 1.066 0.56400001 39 16 0
2.829 1.072 0.56800002 39 16 0
2.8169999 1.075 0.57200003 39 16 0
2.8050001 1.0779999 0.57499999 38 16 0
2.799 1.0829999 0.57999998 40 16 0
2.7869999 1.086 0.583 41 16 0
2.7780001 1.089 0.58700001 41 16 0
2.7709999 1.094 0.59200001 41 16 0
2.7579999 1.096 0.59500003 46 16 0
2.7520001 1.101 0.59899998 50 16 0
2.7420001 1.104 0.60299999 49 16 0
2.7249999 1.104 0.60500002 44 16 0
2.72 1.109 0.61000001 45 16 0
2.7149999 1.114 0.61500001 48 16 0
2.704 1.117 0.61799997 43 16 0
2.6930001 1.119 0.62199998 44 16 0
2.6849999 1.122 0.62599999 43 16 0
2.674 1.125 0.62900001 43 16 0
2.671 1.13 0.634 44 16 0
2.658 1.131 0.63700002 46 16 0
2.652 1.135 0.64200002 43 16 0
2.638 1.136 0.64399999 41 16 0
2.6329999 1.14 0.64899999 43 16 0
2.618 1.14 0.65100002 47 16 0
2.6159999 1.146 0.65600002 50 16 0
2.605 1.147 0.66000003 47 16 0
2.598 1.15 0.66399997 48 16 0
2.586 1.151 0.667 53 16 0
2.5799999 1.155 0.671 52 16 0
2.5699999 1.156 0.67400002 51 16 0
2.5610001 1.158 0.67799997 42 16 0
2.5550001 1.161 0.68199998 52 16 0
2.5469999 1.164 0.68599999 45 16 0
2.5380001 1.165 0.68900001 42 16 0
2.5339999 1.169 0.69400001 41 16 0
2.5220001 1.169 0.69700003 44 16 0
2.5109999 1.17 0.69999999 43 16 0
2.507 1.173 0.704 46 16 0
2.494 1.173 0.70700002 41 16 0
2.4909999 1.177 0.71100003 45 16 0
2.483 1.178 0.71499997 46 16 0
2.471 1.177 0.71700001 44 16 0
2.4630001 1.179 0.72100002 43 16 0
2.4549999 1.1799999 0.72399998 41 16 0
2.447 1.181 0.72799999 41 16 0
2.4430001 1.184 0.73199999 44 16 0
2.4349999 1.1849999 0.736 43 16 0
2.4260001 1.186 0.73900002 46 16 0
2.418 1.186 0.74199998 43 16 0
2.4089999 1.187 0.745 43 16 0
2.404 1.189 0.74900001 45 16 0
2.3959999 1.189 0.75199997 46 16 0
2.392 1.192 0.75700003 46 16 0
2.382 1.191 0.759 44 16 0
2.3699999 1.189 0.76099998 49 16 0
2.362 1.1900001 0.764 55 16 0
2.3570001 1.191 0.76800001 53 16 0
2.3529999 1.193 0.77200001 54 16 0
2.346 1.194 0.77499998 64 16 0
2.339 1.194 0.77899998 56 16 0
2.335 1.196 0.78299999 58 16 0
2.3280001 1.196 0.78600001 60 16 0
2.3169999 1.194 0.78799999 62 16 0
2.313 1.1950001 0.792 62 16 0
2.3050001 1.1950001 0.79400003 67 16 0
2.2980001 1.194 0.79699999 61 16 0
2.2920001 1.1950001 0.801 61 16 0
2.2839999 1.194 0.80299997 61 16 0
2.2809999 1.1950001 0.80699998 58 16 0
2.2739999 1.194 0.81 53 16 0
2.2709999 1.196 0.81400001 56 16 0
2.2609999 1.194 0.81599998 52 16 0
2.25 1.1900001 0.81699997 61 16 0
2.2460001 1.191 0.81999999 56 16 0
2.2390001 1.1900001 0.82300001 66 16 0
2.2349999 1.191 0.82700002 61 16 0
2.2260001 1.188 0.82800001 67 16 0
2.22 1.187 0.83099997 58 16 0
2.214 1.186 0.833 55 16 0
2.211 1.187 0.83700001 62 16 0
2.2060001 1.186 0.83999997 59 16 0
2.1989999 1.184 0.84200001 65 16 0
2.194 1.183 0.84500003 62 16 0
2.1849999 1.181 0.84600002 59 16 0
2.1789999 1.179 0.84899998 57 16 0
2.175 1.178 0.852 65 16 0
2.171 1.177 0.85399997 64 16 0
2.1619999 1.174 0.85600001 76 16 0
2.1600001 1.174 0.85900003 69 16 0
2.155 1.173 0.861 57 16 0
2.1500001 1.171 0.86400002 35 16 0
2.142 1.168 0.86500001 25 16 0
2.138 1.1670001 0.86699998 19 16 0
2.135 1.166 0.87 14 16 0
2.1270001 1.1619999 0.87199998 8 16 0
2.1129999 1.155 0.87 4 16 0
2.1099999 1.154 0.87199998 6 16 0
2.112 1.156 0.87699997 12 16 0
2.108 1.154 0.87900001 19 16 0
2.0999999 1.15 0.88 25 16 0
2.1029999 1.152 0.88499999 35 16 0
2.096 1.148 0.88499999 53 16 0
2.089 1.1440001 0.88599998 82 16 0
2.0899999 1.145 0.88999999 95 16 0
2.085 1.142 0.89200002 99 16 0
2.0840001 1.141 0.89399999 87 16 0
2.0780001 1.137 0.89499998 85 16 0
2.0739999 1.135 0.89700001 84 16 0
2.0739999 1.1339999 0.89999998 86 16 0
2.066 1.1289999 0.89999998 93 16 0
2.0639999 1.127 0.90200001 96 16 0
2.0599999 1.124 0.90399998 95 16 0
2.056 1.1210001 0.90499997 89 16 0
2.0550001 1.12 0.90700001 89 16 0
2.0550001 1.118 0.91000003 90 16 0
2.049 1.114 0.91000003 93 16 0
2.0439999 1.11 0.91100001 87 16 0
2.043 1.108 0.91299999 90 16 0
2.04 1.105 0.91399997 91 16 0
2.039 1.103 0.91600001 93 16 0
2.0369999 1.1 0.91799998 86 16 0
2.0369999 1.099 0.92000002 95 16 0
2.029 1.0930001 0.91900003 95 19 0
2.029 1.091 0.921 98 16 0
2.027 1.0880001 0.92199999 98 16 0
2.027 1.086 0.92400002 98 16 0
2.017 1.0779999 0.921 99 18 0
2.0190001 1.077 0.92400002 100 16 0
2.0150001 1.073 0.92400002 101 16 0
2.0150001 1.0700001 0.926 102 16 0
2.013 1.067 0.92699999 102 16 0
2.0109999 1.063 0.92699999 98 16 0
2.0109999 1.061 0.92900002 103 16 0
2.0090001 1.057 0.92900002 93 16 0
2.0050001 1.052 0.92900002 106 16 0
2.0050001 1.05 0.93000001 98 16 0
2.0050001 1.0470001 0.93099999 108 16 0
1.999 1.041 0.93000001 99 16 0
2.003 1.039 0.93199998 105 16 0
2.003 1.036 0.93300003 104 16 0
1.998 1.031 0.93199998 110 16 0
1.997 1.027 0.93199998 108 16 0
1.9960001 1.023 0.93300003 107 16 0
1.997 1.02 0.93400002 113 16 0
1.995 1.016 0.93300003 111 16 0
1.9960001 1.013 0.93400002 112 16 0
1.997 1.01 0.935 105 16 0
1.9960001 1.005 0.935 104 16 0
1.997 1.002 0.935 113 16 0
1.997 0.99900001 0.93599999 113 16 0
1.999 0.995 0.93699998 102 16 0
2.0009999 0.99299997 0.93800002 127 16 0
1.992 0.98400003 0.93300003 106 19 0
1.997 0.98299998 0.93599999 104 16 0
1.994 0.977 0.93400002 104 16 0
1.994 0.97299999 0.93400002 106 16 0
1.995 0.97000003 0.93400002 118 16 0
1.997 0.96600002 0.93400002 111 16 0
1.998 0.96200001 0.93400002 112 16 0
1.995 0.95700002 0.93199998 94 16 0
1.997 0.95300001 0.93199998 103 16 0
1.9960001 0.94800001 0.93099999 98 16 0
2 0.94599998 0.93199998 97 16 0
2.0020001 0.94199997 0.93199998 100 16 0
2.0039999 0.93900001 0.93199998 98 16 0
2.007 0.935 0.93199998 103 16 0
2.0079999 0.93099999 0.93199998 100 16 0
2.0020001 0.92400002 0.92799997 102 16 0
2.0090001 0.92199999 0.93000001 101 16 0
2.0079999 0.917 0.92799997 106 16 0
2.0120001 0.91399997 0.92900002 100 16 0
2.01 0.90799999 0.926 105 16 0
2.013 0.90499997 0.926 107 16 0
2.0139999 0.89999998 0.92500001 109 16 0
2.0190001 0.89700001 0.92500001 107 16 0
2.0190001 0.89300001 0.92400002 113 16 0
2.0209999 0.889 0.92299998 112 16 0
2.0239999 0.88499999 0.92199999 109 16 0
2.027 0.88099998 0.92199999 117 16 0
2.0280001 0.87599999 0.92000002 116 16 0
2.0320001 0.87300003 0.92000002 113 16 0
2.0339999 0.86900002 0.91900003 115 16 0
2.0369999 0.86400002 0.91799998 111 16 0
2.039 0.86000001 0.91600001 116 16 0
2.0409999 0.85600001 0.91500002 114 16 0
2.0439999 0.85100001 0.91399997 120 16 0
2.0469999 0.84799999 0.91299999 113 16 0
2.049 0.84299999 0.91100001 120 16 0
2.0599999 0.84200001 0.91299999 123 16 0
2.0539999 0.83399999 0.90799999 113 16 0
2.0569999 0.82999998 0.90700001 118 16 0
2.059 0.82599998 0.90499997 102 16 0
2.0699999 0.824 0.90700001 123 16 0
2.0710001 0.81900001 0.90399998 104 16 0
2.076 0.81599998 0.903 99 16 0
2.0780001 0.81099999 0.90100002 120 16 0
2.0829999 0.80699998 0.89999998 130 16 0
2.0829999 0.80199999 0.89700001 136 16 0
2.0880001 0.79799998 0.89600003 134 16 0
2.092 0.79400003 0.89499998 134 16 0
2.096 0.79000002 0.89300001 128 16 0
2.098 0.78500003 0.89099997 135 16 0
2.1059999 0.78299999 0.88999999 132 16 0
2.108 0.778 0.88800001 125 16 0
2.1129999 0.77399999 0.88599998 135 16 0
2.115 0.76899999 0.884 135 16 0
2.118 0.764 0.88099998 138 16 0
2.1259999 0.76200002 0.88099998 133 16 0
2.1329999 0.75800002 0.88 137 16 0
2.1340001 0.75300002 0.87699997 134 16 0
2.141 0.75 0.87599999 138 16 0
2.1429999 0.745 0.87300003 136 16 0
2.1470001 0.74000001 0.87 132 16 0
2.154 0.73699999 0.86900002 132 16 0
2.158 0.73299998 0.86699998 132 16 0
2.161 0.72799999 0.86400002 127 16 0
2.1689999 0.72500002 0.86299998 124 16 0
2.1760001 0.72100002 0.86199999 133 16 0
2.1760001 0.71600002 0.85699999 123 16 0
2.1830001 0.71200001 0.85600001 128 16 0
2.1889999 0.708 0.85399997 132 16 0
2.197 0.70499998 0.852 128 16 0
2.204 0.70099998 0.85100001 137 16 0
2.2090001 0.69700003 0.84799999 140 16 0
2.2160001 0.69300002 0.84600002 138 16 0
2.2219999 0.69 0.84399998 125 16 0
2.2279999 0.685 0.84200001 129 16 0
2.23 0.68000001 0.838 121 16 0
2.2360001 0.676 0.83499998 134 16 0
2.2390001 0.671 0.83200002 127 16 0
2.2509999 0.66900003 0.83099997 114 16 0
2.256 0.66399997 0.82800001 115 16 0
2.2650001 0.66100001 0.82700002 129 16 0
2.2650001 0.65600002 0.82200003 119 16 0
2.273 0.65200001 0.81999999 122 16 0
2.276 0.64700001 0.81599998 116 16 0
2.286 0.64399999 0.81400001 112 16 0
2.2909999 0.63999999 0.81099999 108 16 0
2.2969999 0.63499999 0.80800003 98 16 0
2.3010001 0.63 0.80400002 92 16 0
2.313 0.62800002 0.80299997 117 16 0
2.313 0.62199998 0.79799998 134 16 0
2.3210001 0.61799997 0.796 69 16 0
2.3429999 0.61799997 0.79799998 17 19 0
2.3970001 0.62599999 0.81 13 19 0
2.415 0.625 0.81099999 16 16 0
2.424 0.62099999 0.80800003 15 16 0
2.4360001 0.61799997 0.80699998 9 16 0
2.454 0.61699998 0.80699998 3 16 0
2.46 0.61199999 0.80299997 2 16 0
2.4549999 0.60500002 0.796 1 16 0
2.4449999 0.597 0.787 0 16 0
2.4030001 0.57999998 0.76800001 8 16 0
2.4000001 0.574 0.76099998 32 16 0
2.411 0.57099998 0.759 81 16 0
2.4200001 0.56699997 0.75599998 94 16 0
2.4260001 0.56199998 0.75199997 93 16 0
2.438 0.55900002 0.75 85 16 0
2.4449999 0.55500001 0.74599999 89 16 0
2.448 0.55000001 0.741 97 16 0
2.46 0.54699999 0.73900002 83 16 0
2.4690001 0.54299998 0.73500001 85 16 0
2.474 0.53799999 0.73100001 90 16 0
2.4820001 0.53399998 0.727 85 16 0
2.4960001 0.53100002 0.72500002 84 16 0
2.5039999 0.52700001 0.72100002 95 16 0
2.51 0.52200001 0.71600002 88 16 0
2.523 0.51899999 0.71399999 88 16 0
2.5280001 0.514 0.70899999 84 16 0
2.536 0.50999999 0.70499998 87 16 0
2.5450001 0.50599998 0.70099998 79 16 0
2.5569999 0.50199997 0.69800001 81 16 0
2.5699999 0.49900001 0.69499999 73 16 0
2.579 0.495 0.69099998 71 16 0
2.589 0.491 0.68699998 78 16 0
2.5929999 0.486 0.68199998 70 16 0
2.602 0.48199999 0.67699999 71 16 0
2.6159999 0.479 0.67400002 66 16 0
2.6240001 0.47400001 0.67000002 79 16 0
2.6289999 0.46900001 0.66500002 59 16 0
2.6440001 0.46599999 0.662 74 16 0
2.6489999 0.461 0.65600002 63 16 0
2.6570001 0.456 0.65100002 64 16 0
2.6719999 0.45300001 0.648 51 16 0
2.6789999 0.44800001 0.64300001 41 16 0
2.687 0.44400001 0.63800001 39 16 0
2.704 0.44100001 0.63499999 45 16 0
2.707 0.43599999 0.62900001 39 16 0
2.7190001 0.43200001 0.625 39 16 0
2.7320001 0.428 0.62 39 16 0
2.7409999 0.42300001 0.61500001 39 16 0
2.747 0.41800001 0.60900003 40 16 0
2.7679999 0.41600001 0.60699999 39 16 0
2.773 0.41100001 0.60100001 39 16 0
2.789 0.40700001 0.597 37 16 0
2.796 0.40200001 0.59100002 40 16 0
2.8099999 0.398 0.58700001 38 16 0
2.822 0.39399999 0.58200002 37 16 0
2.832 0.38999999 0.57700002 37 16 0
2.848 0.38600001 0.57200003 36 16 0
2.859 0.38100001 0.56699997 39 16 0
2.8729999 0.377 0.56199998 37 16 0
2.8789999 0.37200001 0.55599999 35 16 0
2.895 0.36899999 0.55199999 35 16 0
2.9030001 0.36399999 0.54500002 36 16 0
2.9159999 0.359 0.54000002 33 16 0
2.927 0.35499999 0.53399998 36 16 0
2.9449999 0.35100001 0.52999997 35 16 0
2.9549999 0.34599999 0.52399999 34 16 0
2.97 0.34200001 0.51899999 35 16 0
2.9849999 0.338 0.51300001 36 16 0
2.993 0.333 0.50700003 33 16 0
3.0090001 0.329 0.50199997 34 16 0
3.02 0.324 0.495 35 16 0
3.033 0.31900001 0.48899999 33 16 0
3.052 0.315 0.484 34 16 0
3.0639999 0.31099999 0.47799999 34 16 0
3.075 0.30599999 0.472 34 16 0
3.0929999 0.30199999 0.46599999 34 16 0
3.1059999 0.29699999 0.46000001 34 16 0
3.118 0.292 0.45300001 35 16 0
3.141 0.28799999 0.44800001 34 16 0
3.148 0.28299999 0.44100001 34 16 0
3.1689999 0.27900001 0.435 36 16 0
3.181 0.27399999 0.428 36 16 0
3.1949999 0.26899999 0.421 36 16 0
3.2060001 0.264 0.414 37 16 0
3.2260001 0.259 0.40799999 35 16 0
3.2420001 0.25400001 0.40099999 32 16 0
3.256 0.249 0.39399999 34 16 0
3.27 0.245 0.38699999 81 16 0
3.273 0.23899999 0.37900001 150 16 0
3.276 0.233 0.37 129 16 0
3.2720001 0.226 0.361 121 16 0
3.273 0.221 0.352 116 16 0
3.2739999 0.215 0.34400001 120 16 0
3.276 0.20900001 0.33500001 120 16 0
3.2739999 0.20299999 0.32600001 125 16 0
3.2679999 0.19599999 0.31600001 124 16 0
3.2690001 0.191 0.308 123 16 0
3.2709999 0.185 0.29899999 133 16 0
3.2650001 0.17900001 0.289 123 16 0
3.2449999 0.17200001 0.27900001 150 16 0
3.1070001 0.15899999 0.25799999 150 17 0
3.0869999 0.152 0.248 150 16 0
3.151 0.15000001 0.245 150 16 0
3.253 0.149 0.244 145 16 0
3.263 0.14399999 0.236 121 16 0
3.2609999 0.138 0.227 125 16 0
3.26 0.132 0.21799999 148 16 0
3.257 0.126 0.20900001 134 16 0
3.2579999 0.121 0.2 117 16 0
3.2590001 0.115 0.191 127 16 0
3.2550001 0.109 0.182 134 16 0
3.2590001 0.104 0.17299999 129 16 0
3.257 0.097999997 0.164 132 16 0
3.25 0.092 0.154 135 16 0
3.2520001 0.086999997 0.146 124 16 0
3.2550001 0.081 0.13699999 139 16 0
3.25 0.075999998 0.12800001 52 16 0
3.266 0.071000002 0.119 32 16 0
3.2909999 0.066 0.111 28 16 0
3.3099999 0.061000001 0.102 30 16 0
3.325 0.055 0.093999997 26 16 0
3.3110001 0.048999999 0.083999999 13 16 0
3.339 0.044 0.075999998 5 16 0
3.355 0.039000001 0.067000002 20 16 0
3.3570001 0.033 0.057 49 16 0
3.3510001 0.028000001 0.048 56 16 0
3.3440001 0.022 0.037999999 33 16 0
3.3299999 0.017000001 0.028999999 20 16 0
3.3080001 0.011 0.018999999 18 16 0
3.2980001 0.0060000001 0.0099999998 18 16 0
3.2809999 0 0.001 17 16 0
3.26 -0.0040000002 -0.0070000002 16 16 0
3.2509999 -0.0089999996 -0.016000001 16 16 0
3.2349999 -0.014 -0.025 22 16 0
3.2290001 -0.02 -0.034000002 38 16 0
3.2260001 -0.025 -0.043000001 58 16 0
3.224 -0.029999999 -0.052000001 113 16 0
3.2219999 -0.035 -0.061999999 112 16 0
3.221 -0.039999999 -0.071000002 86 16 0
3.223 -0.045000002 -0.079999998 101 16 0
3.221 -0.050000001 -0.089000002 128 16 0
3.2160001 -0.055 -0.097999997 108 16 0
3.2219999 -0.059999999 -0.107 142 16 0
3.2149999 -0.064999998 -0.116 150 16 0
3.2119999 -0.07 -0.125 101 16 0
3.2049999 -0.075000003 -0.134 41 16 0
3.1860001 -0.079999998 -0.142 27 16 0
3.177 -0.083999999 -0.15099999 25 16 0
3.1600001 -0.089000002 -0.15899999 25 16 0
3.1470001 -0.093000002 -0.167 25 16 0
3.1329999 -0.097999997 -0.175 24 16 0
3.1199999 -0.102 -0.184 24 16 0
3.1070001 -0.106 -0.192 24 16 0
3.098 -0.111 -0.2 24 16 0
3.086 -0.115 -0.208 24 16 0
3.073 -0.119 -0.21600001 23 16 0
3.053 -0.123 -0.22400001 24 16 0
3.043 -0.127 -0.23199999 24 16 0
3.0309999 -0.131 -0.23899999 24 16 0
3.02 -0.13500001 -0.24699999 23 16 0
2.9979999 -0.138 -0.25400001 24 16 0
2.9920001 -0.14300001 -0.26199999 24 16 0
2.9820001 -0.147 -0.27000001 24 16 0
2.971 -0.15000001 -0.278 23 16 0
2.96 -0.154 -0.285 23 16 0
2.9489999 -0.15800001 -0.29300001 23 16 0
2.937 -0.162 -0.30000001 23 16 0
2.928 -0.16500001 -0.308 23 16 0
2.9059999 -0.168 -0.31400001 23 16 0
2.902 -0.17200001 -0.322 24 16 0
2.8870001 -0.176 -0.329 24 16 0
2.8770001 -0.17900001 -0.336 23 16 0
2.8710001 -0.183 -0.34400001 24 16 0
2.858 -0.186 -0.35100001 23 16 0
2.8510001 -0.19 -0.359 24 16 0
2.835 -0.193 -0.36500001 23 16 0
2.826 -0.19599999 -0.37200001 23 16 0
2.822 -0.2 -0.38 26 16 0
2.8110001 -0.20299999 -0.38699999 26 16 0
2.799 -0.206 -0.39399999 27 16 0
2.7869999 -0.20900001 -0.40000001 26 16 0
2.7750001 -0.212 -0.40700001 27 16 0
2.77 -0.215 -0.414 26 16 0
2.7590001 -0.21799999 -0.421 26 16 0
2.75 -0.221 -0.428 27 16 0
2.74 -0.22400001 -0.43399999 27 16 0
2.733 -0.227 -0.44100001 27 16 0
2.723 -0.23 -0.44800001 27 16 0
2.7079999 -0.23199999 -0.454 25 16 0
2.7030001 -0.236 -0.461 25 16 0
2.6960001 -0.23899999 -0.46799999 26 16 0
2.6889999 -0.242 -0.47499999 26 16 0
2.6849999 -0.245 -0.48199999 26 16 0
2.678 -0.248 -0.48899999 27 16 0
2.6659999 -0.25 -0.495 27 16 0
2.6619999 -0.25299999 -0.50300002 28 16 0
2.651 -0.25600001 -0.509 27 16 0
2.6389999 -0.25799999 -0.514 25 16 0
2.6329999 -0.26100001 -0.52100003 26 16 0
2.628 -0.264 -0.528 26 16 0
2.6159999 -0.266 -0.53399998 25 16 0
2.6059999 -0.26800001 -0.54000002 26 16 0
2.598 -0.27000001 -0.546 29 16 0
2.5880001 -0.273 -0.55199999 28 16 0
2.5810001 -0.27500001 -0.55900002 28 16 0
2.575 -0.278 -0.565 28 16 0
2.5639999 -0.28 -0.57099998 28 16 0
2.556 -0.28200001 -0.57700002 27 16 0
2.5539999 -0.285 -0.58499998 29 16 0
2.543 -0.287 -0.58999997 28 16 0
2.5380001 -0.289 -0.597 29 16 0
2.529 -0.29100001 -0.60299999 28 16 0
2.5209999 -0.29300001 -0.60900003 28 16 0
2.5139999 -0.296 -0.61500001 28 16 0
2.506 -0.29699999 -0.62 28 16 0
2.4979999 -0.29899999 -0.62599999 28 16 0
2.4920001 -0.30199999 -0.63300002 28 16 0
2.484 -0.30399999 -0.639 30 16 0
2.48 -0.30599999 -0.64600003 28 16 0
2.471 -0.308 -0.65100002 29 16 0
2.467 -0.31 -0.65799999 28 16 0
2.4560001 -0.31099999 -0.66299999 30 16 0
2.4530001 -0.31400001 -0.67000002 38 16 0
2.4430001 -0.315 -0.67500001 45 16 0
2.4400001 -0.31799999 -0.68199998 40 16 0
2.4349999 -0.31999999 -0.68800002 42 16 0
2.424 -0.32100001 -0.69300002 46 16 0
2.4189999 -0.32300001 -0.699 51 16 0
2.414 -0.32499999 -0.70499998 49 16 0
2.408 -0.32699999 -0.71100003 48 16 0
2.4030001 -0.32800001 -0.71799999 45 16 0
2.395 -0.33000001 -0.72299999 43 16 0
2.3900001 -0.33199999 -0.72899997 48 16 0
2.385 -0.33399999 -0.73500001 49 16 0
2.375 -0.33500001 -0.74000001 48 16 0
2.3729999 -0.33700001 -0.74699998 56 16 0
2.368 -0.338 -0.75300002 53 16 0
2.3570001 -0.33899999 -0.75700003 48 16 0
2.3529999 -0.34099999 -0.764 51 16 0
2.3510001 -0.34299999 -0.76999998 49 16 0
2.3440001 -0.34400001 -0.77600002 49 16 0
2.3399999 -0.34599999 -0.78200001 49 16 0
2.336 -0.34799999 -0.78899997 53 16 0
2.332 -0.34900001 -0.79500002 53 16 0
2.323 -0.34999999 -0.79900002 49 16 0
2.3199999 -0.352 -0.80599999 52 16 0
2.3110001 -0.352 -0.81099999 52 16 0
2.3080001 -0.354 -0.81699997 55 16 0
2.3010001 -0.35499999 -0.82200003 59 16 0
2.2950001 -0.35600001 -0.82700002 60 16 0
2.289 -0.35699999 -0.833 60 16 0
2.2869999 -0.359 -0.83999997 56 16 0
2.283 -0.36000001 -0.84600002 54 16 0
2.279 -0.361 -0.852 55 16 0
2.2690001 -0.36199999 -0.85600001 55 16 0
2.2609999 -0.36199999 -0.86000001 52 16 0
2.2590001 -0.36399999 -0.86699998 52 16 0
2.2539999 -0.36500001 -0.87199998 47 16 0
2.2490001 -0.366 -0.87800002 48 16 0
2.2449999 -0.36700001 -0.884 50 16 0
2.2420001 -0.368 -0.88999999 54 16 0
2.2390001 -0.36899999 -0.89600003 50 16 0
2.233 -0.37 -0.90100002 51 16 0
2.2279999 -0.37 -0.90700001 51 16 0
2.2260001 -0.37200001 -0.91299999 53 16 0
2.223 -0.373 -0.91900003 55 16 0
2.217 -0.373 -0.92500001 37 16 0
2.2149999 -0.37400001 -0.93099999 52 16 0
2.2060001 -0.37400001 -0.935 55 16 0
2.2030001 -0.375 -0.94 56 16 0
2.2 -0.37599999 -0.94700003 57 16 0
2.198 -0.377 -0.95300001 57 16 0
2.191 -0.377 -0.95700002 59 16 0
2.1860001 -0.377 -0.96200001 84 16 0
2.1860001 -0.37900001 -0.97000003 86 16 0
2.181 -0.37900001 -0.97399998 84 16 0
2.178 -0.38 -0.98000002 81 16 0
2.174 -0.38 -0.986 92 16 0
2.1689999 -0.38 -0.991 85 16 0
2.168 -0.38100001 -0.99800003 87 16 0
2.1670001 -0.382 -1.0039999 86 16 0
2.1600001 -0.382 -1.008 86 16 0
2.1570001 -0.382 -1.0140001 83 16 0
2.155 -0.38299999 -1.02 89 16 0
2.1500001 -0.38299999 -1.025 82 16 0
2.1489999 -0.38299999 -1.031 89 16 0
2.1470001 -0.384 -1.0369999 83 16 0
2.1429999 -0.384 -1.043 84 16 0
2.141 -0.384 -1.048 83 16 0
2.138 -0.384 -1.054 82 16 0
2.132 -0.384 -1.058 84 16 0
2.131 -0.384 -1.064 82 16 0
2.132 -0.38499999 -1.072 77 16 0
2.1289999 -0.38499999 -1.077 82 16 0
2.1270001 -0.38499999 -1.0829999 77 16 0
2.119 -0.384 -1.086 79 16 0
2.119 -0.38499999 -1.0930001 80 16 0
2.118 -0.38499999 -1.099 77 16 0
2.118 -0.38499999 -1.105 77 16 0
2.1140001 -0.38499999 -1.11 75 16 0
2.1129999 -0.38499999 -1.1160001 73 16 0
2.108 -0.384 -1.12 76 16 0
2.1070001 -0.384 -1.126 70 16 0
2.105 -0.384 -1.132 69 16 0
2.1029999 -0.384 -1.137 72 16 0
2.1029999 -0.384 -1.1440001 67 16 0
2.0999999 -0.38299999 -1.149 64 16 0
2.1040001 -0.384 -1.1569999 63 16 0
2.096 -0.382 -1.159 61 16 0
2.0969999 -0.38299999 -1.166 63 16 0
2.096 -0.382 -1.1720001 63 16 0
2.0969999 -0.382 -1.179 68 16 0
2.095 -0.382 -1.184 65 16 0
2.092 -0.38100001 -1.189 61 16 0
2.092 -0.38100001 -1.1950001 73 16 0
2.0899999 -0.38 -1.199 87 16 0
2.086 -0.37900001 -1.2029999 68 16 0
2.0910001 -0.37900001 -1.212 89 16 0
2.0880001 -0.37799999 -1.217 87 16 0
2.0840001 -0.377 -1.22 88 16 0
2.082 -0.37599999 -1.225 82 16 0
2.0840001 -0.37599999 -1.232 82 16 0
2.089 -0.37599999 -1.24 89 16 0
2.086 -0.375 -1.245 82 16 0
2.082 -0.373 -1.248 77 16 0
2.0840001 -0.373 -1.255 81 16 0
2.0829999 -0.37200001 -1.2589999 77 16 0
2.0840001 -0.37099999 -1.266 80 16 0
2.0880001 -0.37099999 -1.274 83 16 0
2.0840001 -0.36899999 -1.276 77 16 0
2.0810001 -0.368 -1.28 80 16 0
2.085 -0.36700001 -1.288 75 16 0
2.0829999 -0.366 -1.2920001 74 16 0
2.0829999 -0.36500001 -1.2970001 72 16 0
2.0869999 -0.36399999 -1.3049999 71 16 0
2.082 -0.36199999 -1.306 69 16 0
2.0829999 -0.361 -1.312 70 16 0
2.086 -0.36000001 -1.319 68 16 0
2.0840001 -0.359 -1.322 60 16 0
2.0869999 -0.35800001 -1.329 60 16 0
2.0880001 -0.35600001 -1.334 67 16 0
2.089 -0.35499999 -1.34 65 16 0
2.089 -0.354 -1.344 63 16 0
2.0910001 -0.352 -1.349 58 16 0
2.089 -0.34999999 -1.353 54 16 0
2.095 -0.34999999 -1.3609999 81 16 0
2.0929999 -0.34799999 -1.364 83 16 0
2.0940001 -0.34599999 -1.368 71 16 0
2.0929999 -0.34400001 -1.372 64 16 0
2.096 -0.34299999 -1.378 70 16 0
2.098 -0.34099999 -1.383 69 16 0
2.0969999 -0.33899999 -1.386 58 16 0
2.1029999 -0.338 -1.3940001 66 16 0
2.1029999 -0.336 -1.397 62 16 0
2.105 -0.33399999 -1.402 66 16 0
2.109 -0.333 -1.408 68 16 0
2.108 -0.331 -1.411 61 16 0
2.1140001 -0.329 -1.418 61 16 0
2.1129999 -0.32699999 -1.421 64 16 0
2.115 -0.32499999 -1.425 55 16 0
2.122 -0.324 -1.432 55 16 0
2.122 -0.32100001 -1.4349999 56 16 0
2.122 -0.31900001 -1.438 50 16 0
2.1259999 -0.317 -1.443 61 16 0
2.128 -0.315 -1.447 53 16 0
2.132 -0.31299999 -1.452 51 16 0
2.132 -0.31 -1.454 45 16 0
2.1400001 -0.30899999 -1.462 53 19 0
2.1389999 -0.30599999 -1.464 53 16 0
2.145 -0.30500001 -1.47 48 19 0
2.1470001 -0.30199999 -1.473 49 16 0
2.1500001 -0.30000001 -1.477 44 16 0
2.1570001 -0.29800001 -1.483 43 16 0
2.1559999 -0.29499999 -1.484 48 16 0
2.161 -0.29300001 -1.489 45 16 0
2.165 -0.29100001 -1.493 38 16 0
2.1670001 -0.28799999 -1.4960001 43 16 0
2.168 -0.285 -1.498 35 16 0
2.178 -0.28400001 -1.505 43 19 0
2.1860001 -0.28200001 -1.512 38 16 0
