# .PCD v0.7 - Point Cloud Data file format
VERSION 0.7
FIELDS x y z intensity tag line
SIZE 4 4 4 4 1 1
TYPE F F F F U U
COUNT 1 1 1 1 1 1
WIDTH 1356
HEIGHT 1
VIEWPOINT 0 0 0 1 0 0 0
POINTS 1356
DATA ascii
2.3859999 -0.26899999 -1.086 85 16 0
2.3900001 -0.266 -1.081 75 16 0
2.402 -0.264 -1.079 87 16 0
2.4070001 -0.26100001 -1.074 77 16 0
2.415 -0.25799999 -1.0700001 78 16 0
2.424 -0.25600001 -1.066 82 16 0
2.4330001 -0.25400001 -1.063 80 16 0
2.4400001 -0.25099999 -1.058 80 16 0
2.4400001 -0.248 -1.051 75 16 0
2.451 -0.245 -1.048 81 16 0
2.4560001 -0.243 -1.0420001 71 16 0
2.4719999 -0.241 -1.041 80 16 0
2.48 -0.23800001 -1.0369999 73 16 0
2.484 -0.235 -1.031 70 16 0
2.493 -0.233 -1.027 74 16 0
2.5009999 -0.23100001 -1.022 78 16 0
2.5120001 -0.228 -1.018 55 16 0
2.516 -0.226 -1.012 48 16 0
2.5280001 -0.223 -1.0089999 45 16 0
2.533 -0.221 -1.003 41 16 0
2.54 -0.21799999 -0.99699998 48 16 0
2.5450001 -0.215 -0.991 37 16 0
2.552 -0.213 -0.986 40 16 0
2.5580001 -0.20999999 -0.98000002 43 16 0
2.5639999 -0.208 -0.97399998 43 16 0
2.5739999 -0.206 -0.97000003 44 16 0
2.5769999 -0.20299999 -0.963 46 16 0
2.5810001 -0.2 -0.95599997 40 16 0
2.5929999 -0.198 -0.95200002 42 16 0
2.6029999 -0.19599999 -0.94700003 39 16 0
2.6070001 -0.193 -0.94099998 42 16 0
2.618 -0.191 -0.93599999 42 16 0
2.6240001 -0.189 -0.93000001 40 16 0
2.6270001 -0.186 -0.92199999 38 16 0
2.642 -0.184 -0.91900003 41 16 0
2.6429999 -0.18099999 -0.91100001 36 16 0
2.6530001 -0.17900001 -0.90600002 37 16 0
2.6619999 -0.177 -0.89999998 37 16 0
2.668 -0.175 -0.89399999 38 16 0
2.6730001 -0.17200001 -0.88700002 39 16 0
2.6800001 -0.17 -0.88 34 16 0
2.6860001 -0.167 -0.87300003 35 16 0
2.7 -0.16599999 -0.86900002 33 16 0
2.707 -0.163 -0.86299998 34 16 0
2.7179999 -0.161 -0.85699999 33 16 0
2.7219999 -0.15899999 -0.85000002 34 16 0
2.7290001 -0.15700001 -0.84299999 33 16 0
2.734 -0.154 -0.83600003 35 16 0
2.7449999 -0.152 -0.82999998 34 16 0
2.7539999 -0.15000001 -0.824 33 16 0
2.7579999 -0.148 -0.81599998 35 16 0
2.763 -0.146 -0.80900002 34 16 0
2.777 -0.14399999 -0.80400002 34 16 0
2.783 -0.142 -0.79699999 36 16 0
2.7880001 -0.139 -0.78899997 34 16 0
2.7980001 -0.13699999 -0.78299999 35 16 0
2.803 -0.13500001 -0.77499998 35 16 0
2.8110001 -0.133 -0.76800001 36 16 0
2.819 -0.131 -0.76099998 34 16 0
2.823 -0.12899999 -0.75300002 34 16 0
2.8280001 -0.127 -0.745 34 16 0
2.842 -0.125 -0.74000001 35 16 0
2.848 -0.123 -0.73199999 35 16 0
2.855 -0.121 -0.72500002 34 16 0
2.865 -0.119 -0.71799999 35 16 0
2.8740001 -0.117 -0.71100003 34 16 0
2.878 -0.115 -0.70200002 33 16 0
2.8870001 -0.113 -0.69499999 34 16 0
2.895 -0.111 -0.68800002 34 16 0
2.901 -0.109 -0.68000001 35 16 0
2.908 -0.107 -0.67199999 35 16 0
2.9170001 -0.105 -0.66500002 34 16 0
2.925 -0.103 -0.65700001 33 16 0
2.9300001 -0.101 -0.648 35 16 0
2.937 -0.098999999 -0.63999999 36 16 0
2.941 -0.097000003 -0.63200003 36 16 0
2.9579999 -0.096000001 -0.62599999 35 16 0
2.9690001 -0.093999997 -0.61900002 36 16 0
2.973 -0.092 -0.61000001 36 16 0
2.9760001 -0.090000004 -0.60100001 36 16 0
2.99 -0.088 -0.59399998 37 16 0
2.9979999 -0.086999997 -0.58600003 37 16 0
3.003 -0.085000001 -0.57700002 39 16 0
3.0120001 -0.082999997 -0.56900001 44 16 0
3.017 -0.081 -0.56 76 16 0
3.026 -0.079000004 -0.55199999 124 16 0
3.03 -0.078000002 -0.54299998 148 16 0
3.03 -0.075999998 -0.53299999 150 16 0
3.0350001 -0.074000001 -0.52399999 150 16 0
3.039 -0.071999997 -0.51499999 150 16 0
3.0409999 -0.07 -0.505 150 16 0
3.0450001 -0.068000004 -0.49599999 150 16 0
3.053 -0.067000002 -0.48800001 150 16 0
3.0580001 -0.064999998 -0.479 150 16 0
3.0580001 -0.063000001 -0.46900001 150 16 0
3.0610001 -0.061999999 -0.45899999 150 16 0
3.0650001 -0.059999999 -0.44999999 150 16 0
3.0650001 -0.057999998 -0.44 150 16 0
3.0699999 -0.056000002 -0.43099999 150 16 0
3.0680001 -0.055 -0.421 150 16 0
3.0739999 -0.052999999 -0.41100001 150 16 0
3.079 -0.052000001 -0.40200001 150 16 0
3.0799999 -0.050000001 -0.39199999 150 16 0
3.0869999 -0.048 -0.38299999 150 16 0
3.0929999 -0.046999998 -0.37400001 150 16 0
3.0999999 -0.045000002 -0.36500001 150 16 0
3.1010001 -0.044 -0.35499999 150 16 0
3.102 -0.041999999 -0.345 150 16 0
3.1059999 -0.041000001 -0.336 150 16 0
3.1099999 -0.039000001 -0.32600001 150 16 0
3.1140001 -0.037999999 -0.317 150 16 0
3.118 -0.035999998 -0.30700001 150 16 0
3.1229999 -0.035 -0.29699999 150 16 0
3.125 -0.034000002 -0.28799999 150 16 0
3.132 -0.032000002 -0.278 150 16 0
3.1340001 -0.030999999 -0.26800001 150 16 0
3.1359999 -0.028999999 -0.25799999 150 16 0
3.1389999 -0.028000001 -0.248 150 16 0
3.141 -0.027000001 -0.23800001 150 16 0
3.1459999 -0.025 -0.229 150 16 0
3.1470001 -0.024 -0.219 150 16 0
3.155 -0.023 -0.20900001 130 16 0
3.161 -0.022 -0.199 106 16 0
3.1630001 -0.02 -0.189 83 16 0
3.1659999 -0.018999999 -0.17900001 51 16 0
3.1730001 -0.017999999 -0.169 45 16 0
3.181 -0.017000001 -0.15899999 37 16 0
3.1800001 -0.015 -0.149 35 16 0
3.1919999 -0.014 -0.139 29 16 0
3.1919999 -0.013 -0.12899999 27 16 0
3.1960001 -0.012 -0.119 25 16 0
3.201 -0.011 -0.109 23 16 0
3.2090001 -0.0099999998 -0.098999999 22 16 0
3.22 -0.0089999996 -0.089000002 20 16 0
3.227 -0.0070000002 -0.079000004 20 16 0
3.2309999 -0.0060000001 -0.068000004 19 16 0
3.2349999 -0.0049999999 -0.057999998 19 16 0
3.2490001 -0.0040000002 -0.048 19 16 0
3.2509999 -0.003 -0.037 18 16 0
3.2609999 -0.0020000001 -0.027000001 18 16 0
3.2650001 -0.001 -0.016000001 18 16 0
3.2709999 0 -0.0060000001 19 16 0
3.277 0 0.0040000002 19 16 0
3.289 0.001 0.014 19 16 0
3.2920001 0.0020000001 0.025 19 16 0
3.296 0.003 0.035999998 19 16 0
3.303 0.0040000002 0.046 19 16 0
3.3099999 0.0049999999 0.057 20 16 0
3.3180001 0.0060000001 0.068000004 20 16 0
3.326 0.0060000001 0.079000004 20 16 0
3.325 0.0070000002 0.090000004 28 16 0
3.3139999 0.0080000004 0.1 39 16 0
3.2920001 0.0089999996 0.11 52 16 0
3.283 0.0099999998 0.12 150 16 0
3.289 0.0099999998 0.131 150 16 0
3.293 0.011 0.142 150 16 0
3.296 0.012 0.153 150 16 0
3.3039999 0.013 0.164 150 16 0
3.3039999 0.013 0.17399999 150 16 0
3.3099999 0.014 0.186 150 16 0
3.313 0.015 0.19599999 150 16 0
3.322 0.015 0.208 150 16 0
3.323 0.016000001 0.219 150 16 0
3.3299999 0.017000001 0.23 150 16 0
3.332 0.017000001 0.241 150 16 0
3.336 0.017999999 0.252 150 16 0
3.3399999 0.017999999 0.26300001 150 16 0
3.349 0.018999999 0.27500001 150 16 0
3.3469999 0.02 0.285 150 16 0
3.3540001 0.02 0.29699999 150 16 0
3.3599999 0.021 0.308 150 16 0
3.365 0.021 0.31999999 150 16 0
3.3659999 0.022 0.331 150 16 0
3.369 0.022 0.34200001 150 16 0
3.3570001 0.022 0.352 45 16 0
3.342 0.023 0.361 38 16 0
3.3199999 0.023 0.36899999 37 16 0
3.3039999 0.023 0.37799999 42 16 0
3.283 0.023 0.38699999 43 16 0
3.26 0.023 0.39500001 41 16 0
3.243 0.024 0.403 43 16 0
3.2249999 0.024 0.41100001 43 16 0
3.2060001 0.024 0.41999999 45 16 0
3.1860001 0.024 0.42699999 45 16 0
3.174 0.024 0.43599999 45 16 0
3.1500001 0.024 0.44299999 42 16 0
3.128 0.024 0.44999999 46 16 0
3.1110001 0.024 0.458 42 16 0
3.089 0.024 0.465 44 16 0
3.0699999 0.024 0.472 45 16 0
3.059 0.024 0.47999999 45 16 0
3.04 0.024 0.48800001 46 16 0
3.0220001 0.023 0.495 45 16 0
3.0109999 0.023 0.50300002 43 16 0
2.997 0.023 0.50999999 42 16 0
2.9809999 0.023 0.51700002 38 16 0
2.9690001 0.023 0.52499998 41 16 0
2.9449999 0.023 0.52999997 41 16 0
2.9330001 0.023 0.53799999 39 16 0
2.915 0.022 0.54400003 42 16 0
2.8959999 0.022 0.55000001 49 16 0
2.8829999 0.022 0.55699998 47 16 0
2.865 0.021 0.56300002 65 16 0
2.849 0.021 0.56999999 68 16 0
2.8380001 0.021 0.57700002 76 16 0
2.832 0.021 0.58499998 49 16 0
2.816 0.02 0.59100002 60 16 0
2.8010001 0.02 0.597 52 16 0
2.79 0.018999999 0.60399997 44 16 0
2.7720001 0.018999999 0.60900003 52 16 0
2.7609999 0.018999999 0.616 50 16 0
2.7509999 0.017999999 0.62300003 55 16 0
2.73 0.017999999 0.62699997 51 16 0
2.714 0.017000001 0.63300002 66 16 0
2.6989999 0.017000001 0.63800001 63 16 0
2.694 0.016000001 0.64600003 71 16 0
2.674 0.016000001 0.64999998 86 16 0
2.6619999 0.015 0.65600002 76 16 0
2.654 0.015 0.66299999 67 16 0
2.642 0.014 0.66900003 57 16 0
2.631 0.014 0.67500001 68 16 0
2.625 0.013 0.68199998 65 16 0
2.6070001 0.012 0.68599999 73 16 0
2.595 0.012 0.69199997 101 16 0
2.5810001 0.011 0.69700003 105 16 0
2.5650001 0.0099999998 0.70099998 111 16 0
2.553 0.0099999998 0.70599997 113 16 0
2.54 0.0089999996 0.71100003 117 16 0
2.5280001 0.0080000004 0.71600002 118 16 0
2.516 0.0080000004 0.72100002 126 16 0
2.503 0.0070000002 0.72600001 150 16 0
2.4920001 0.0060000001 0.73100001 150 16 0
2.484 0.0049999999 0.73699999 150 16 0
2.473 0.0049999999 0.74199998 150 16 0
2.4619999 0.0040000002 0.74699998 150 16 0
2.4460001 0.003 0.75 150 16 0
2.4389999 0.0020000001 0.75599998 150 16 0
2.4300001 0.001 0.76200002 150 16 0
2.4200001 0 0.76700002 150 16 0
2.408 0 0.77100003 150 16 0
2.3989999 0 0.77600002 150 16 0
2.392 -0.001 0.78200001 150 16 0
2.3840001 -0.0020000001 0.787 150 16 0
2.372 -0.003 0.79100001 150 16 0
2.3629999 -0.0040000002 0.796 150 16 0
2.3529999 -0.0049999999 0.801 150 16 0
2.3440001 -0.0060000001 0.80599999 150 16 0
2.336 -0.0070000002 0.81099999 150 16 0
2.3269999 -0.0080000004 0.81599998 150 16 0
2.3099999 -0.0089999996 0.81800002 150 16 0
2.302 -0.0099999998 0.82300001 150 16 0
2.2969999 -0.011 0.82800001 150 16 0
2.286 -0.012 0.83200002 150 16 0
2.277 -0.013 0.83600003 150 16 0
2.2609999 -0.014 0.838 150 16 0
2.256 -0.016000001 0.84399998 150 16 0
2.247 -0.017000001 0.84799999 150 16 0
2.2360001 -0.017999999 0.852 150 16 0
2.2290001 -0.018999999 0.85699999 150 16 0
2.2190001 -0.02 0.86000001 150 16 0
2.214 -0.021 0.866 150 16 0
2.198 -0.023 0.86699998 150 16 0
2.191 -0.024 0.87199998 150 16 0
2.1830001 -0.025 0.87599999 150 16 0
2.1719999 -0.026000001 0.87800002 150 16 0
2.165 -0.027000001 0.88300002 150 16 0
2.1630001 -0.028999999 0.889 150 16 0
2.1459999 -0.029999999 0.889 150 16 0
2.1440001 -0.030999999 0.89600003 150 16 0
2.1340001 -0.033 0.89899999 150 16 0
2.122 -0.034000002 0.90100002 150 16 0
2.1170001 -0.035 0.90499997 150 16 0
2.1059999 -0.037 0.90799999 150 16 0
2.102 -0.037999999 0.91299999 150 16 0
2.0929999 -0.039999999 0.91600001 150 16 0
2.082 -0.041000001 0.91799998 150 16 0
2.0769999 -0.041999999 0.92299998 150 16 0
2.069 -0.044 0.926 150 16 0
2.066 -0.045000002 0.93099999 150 16 0
2.0539999 -0.046999998 0.93300003 150 16 0
2.0480001 -0.048 0.93699998 150 16 0
2.0380001 -0.050000001 0.93900001 150 16 0
2.027 -0.050999999 0.94099998 150 16 0
2.0239999 -0.052999999 0.94599998 150 16 0
2.0120001 -0.054000001 0.94700003 150 16 0
2.0090001 -0.056000002 0.95200002 150 16 0
2.006 -0.057999998 0.95700002 150 16 0
1.993 -0.059 0.95700002 150 16 0
1.984 -0.061000001 0.95899999 150 16 0
1.978 -0.061999999 0.963 150 16 0
1.9680001 -0.064000003 0.96399999 150 16 0
1.965 -0.066 0.96899998 150 16 0
1.9579999 -0.067000002 0.972 150 16 0
1.949 -0.068999998 0.97399998 150 16 0
1.942 -0.07 0.97600001 150 16 0
1.936 -0.071999997 0.98000002 150 16 0
1.927 -0.074000001 0.98100001 150 16 0
1.925 -0.075999998 0.986 150 16 0
1.9119999 -0.077 0.98500001 150 16 0
1.909 -0.079000004 0.99000001 150 16 0
1.902 -0.081 0.99199998 150 16 0
1.897 -0.082999997 0.99599999 150 16 0
1.891 -0.083999999 0.99800003 150 16 0
1.885 -0.086000003 1 150 16 0
1.874 -0.088 1.001 150 16 0
1.872 -0.090000004 1.005 150 16 0
1.862 -0.090999998 1.005 150 16 0
1.8559999 -0.093000002 1.008 150 16 0
1.852 -0.094999999 1.011 150 16 0
1.849 -0.097000003 1.015 150 16 0
1.842 -0.098999999 1.017 150 16 0
1.837 -0.101 1.0190001 150 16 0
1.835 -0.103 1.023 150 16 0
1.825 -0.105 1.023 150 16 0
1.822 -0.107 1.027 150 16 0
1.818 -0.109 1.03 150 16 0
1.808 -0.111 1.029 150 16 0
1.803 -0.113 1.031 150 16 0
1.8 -0.115 1.035 150 16 0
1.794 -0.117 1.036 150 16 0
1.79 -0.119 1.038 150 16 0
1.771 -0.12 1.0319999 150 18 0
1.7690001 -0.122 1.036 150 16 0
1.766 -0.124 1.039 150 16 0
1.762 -0.126 1.041 150 16 0
1.76 -0.12899999 1.045 150 16 0
1.757 -0.131 1.0470001 150 16 0
1.751 -0.133 1.049 150 16 0
1.749 -0.13500001 1.052 150 16 0
1.745 -0.13699999 1.054 150 16 0
1.742 -0.139 1.056 150 16 0
1.738 -0.142 1.058 150 16 0
1.734 -0.14399999 1.0599999 150 16 0
1.73 -0.146 1.062 150 16 0
1.73 -0.148 1.066 150 16 0
1.72 -0.15000001 1.064 150 16 0
1.7180001 -0.153 1.067 150 16 0
1.716 -0.155 1.069 150 16 0
1.715 -0.15700001 1.072 150 16 0
1.707 -0.15899999 1.071 150 16 0
1.701 -0.161 1.071 150 16 0
1.699 -0.163 1.073 150 16 0
1.697 -0.16599999 1.076 150 16 0
1.691 -0.168 1.075 150 16 0
1.6900001 -0.17 1.0779999 150 16 0
1.687 -0.17299999 1.079 150 16 0
1.686 -0.175 1.082 150 16 0
1.683 -0.177 1.0829999 150 16 0
1.687 -0.18000001 1.089 150 16 0
1.687 -0.183 1.092 150 16 0
1.681 -0.185 1.091 150 16 0
1.673 -0.18700001 1.089 150 16 0
1.671 -0.189 1.091 150 16 0
1.664 -0.191 1.089 150 16 0
1.6619999 -0.193 1.09 150 16 0
1.66 -0.19599999 1.091 150 16 0
1.6569999 -0.198 1.092 150 16 0
1.6569999 -0.20100001 1.095 150 16 0
1.654 -0.20299999 1.095 150 16 0
1.651 -0.205 1.096 150 16 0
1.65 -0.208 1.097 150 16 0
1.649 -0.20999999 1.098 150 16 0
1.648 -0.213 1.1 150 16 0
1.647 -0.215 1.101 150 16 0
1.647 -0.21799999 1.103 150 16 0
1.6440001 -0.22 1.103 150 16 0
1.6390001 -0.222 1.101 150 16 0
1.632 -0.22400001 1.099 150 16 0
1.6289999 -0.226 1.098 150 16 0
1.63 -0.228 1.1 150 16 0
1.627 -0.23100001 1.099 150 16 0
1.626 -0.233 1.1 150 16 0
1.625 -0.235 1.101 150 16 0
1.625 -0.23800001 1.102 150 16 0
1.626 -0.241 1.103 150 16 0
1.623 -0.243 1.103 150 16 0
1.623 -0.245 1.103 150 16 0
1.628 -0.248 1.108 150 19 0
1.62 -0.25 1.103 150 16 0
1.6210001 -0.252 1.104 150 16 0
1.619 -0.25400001 1.104 150 16 0
1.62 -0.257 1.104 150 16 0
1.619 -0.259 1.105 150 16 0
1.619 -0.26199999 1.105 150 16 0
1.619 -0.264 1.105 150 16 0
1.62 -0.26699999 1.1059999 150 16 0
1.62 -0.26899999 1.105 150 16 0
1.618 -0.271 1.104 150 16 0
1.617 -0.273 1.104 150 16 0
1.627 -0.27700001 1.11 150 18 0
1.6289999 -0.28 1.112 150 16 0
1.6289999 -0.28200001 1.1109999 150 16 0
1.6289999 -0.28400001 1.11 150 16 0
1.6289999 -0.28600001 1.109 150 16 0
1.6289999 -0.289 1.109 150 16 0
1.6289999 -0.29100001 1.109 150 16 0
1.63 -0.29300001 1.108 150 16 0
1.6289999 -0.29499999 1.107 150 16 0
1.6289999 -0.29699999 1.1059999 150 16 0
1.631 -0.30000001 1.1059999 150 16 0
1.631 -0.30199999 1.105 150 16 0
1.632 -0.30399999 1.104 150 16 0
1.633 -0.30599999 1.103 150 16 0
1.635 -0.30899999 1.103 150 16 0
1.6390001 -0.31099999 1.104 150 16 0
1.637 -0.31299999 1.102 150 16 0
1.64 -0.315 1.102 150 16 0
1.641 -0.31799999 1.101 150 16 0
1.6440001 -0.31999999 1.101 150 16 0
1.645 -0.322 1.099 150 16 0
1.645 -0.324 1.098 150 16 0
1.648 -0.32600001 1.097 150 16 0
1.649 -0.32800001 1.096 150 16 0
1.649 -0.33000001 1.094 150 16 0
1.652 -0.33199999 1.0930001 150 16 0
1.659 -0.33500001 1.096 150 19 0
1.66 -0.33700001 1.094 150 16 0
1.659 -0.338 1.091 150 16 0
1.664 -0.34099999 1.091 150 16 0
1.666 -0.34299999 1.09 150 16 0
1.668 -0.34400001 1.0880001 150 16 0
1.677 -0.34799999 1.091 150 19 0
1.676 -0.34900001 1.087 150 16 0
1.679 -0.35100001 1.086 150 16 0
1.686 -0.354 1.0880001 150 16 0
1.686 -0.35499999 1.084 150 16 0
1.687 -0.35600001 1.082 150 16 0
1.691 -0.359 1.081 150 16 0
1.693 -0.36000001 1.079 150 16 0
1.697 -0.36199999 1.0779999 150 16 0
1.699 -0.36399999 1.075 150 16 0
1.7 -0.36500001 1.073 150 16 0
1.7029999 -0.36700001 1.071 150 16 0
1.7079999 -0.36899999 1.0700001 150 16 0
1.712 -0.37 1.068 150 16 0
1.712 -0.37099999 1.0650001 150 16 0
1.716 -0.373 1.063 150 16 0
1.72 -0.375 1.062 150 16 0
1.722 -0.37599999 1.059 150 16 0
1.737 -0.38 1.064 150 18 0
1.739 -0.38100001 1.061 150 16 0
1.743 -0.38299999 1.059 150 16 0
1.747 -0.384 1.057 150 16 0
1.75 -0.38499999 1.054 150 16 0
1.76 -0.38800001 1.056 150 16 0
1.768 -0.391 1.056 150 16 0
1.774 -0.39199999 1.054 132 16 0
1.779 -0.39399999 1.053 103 16 0
1.7819999 -0.39500001 1.05 121 16 0
1.784 -0.396 1.0470001 150 16 0
1.786 -0.39700001 1.043 150 16 0
1.793 -0.398 1.0420001 150 16 0
1.798 -0.40000001 1.04 150 16 0
1.802 -0.40099999 1.0369999 150 16 0
1.808 -0.40200001 1.035 150 16 0
1.8150001 -0.40400001 1.034 150 16 0
1.819 -0.405 1.031 150 16 0
1.821 -0.405 1.027 150 16 0
1.831 -0.40700001 1.028 150 16 0
1.834 -0.40799999 1.024 150 16 0
1.845 -0.41 1.025 150 16 0
1.848 -0.41100001 1.02 150 16 0
1.852 -0.412 1.018 150 16 0
1.862 -0.414 1.017 150 16 0
1.864 -0.414 1.013 150 16 0
1.8710001 -0.41499999 1.011 150 16 0
1.878 -0.41600001 1.0089999 150 16 0
1.88 -0.41600001 1.0039999 150 16 0
1.891 -0.41800001 1.0039999 150 16 0
1.898 -0.41999999 1.002 150 16 0
1.902 -0.41999999 0.99800003 150 16 0
1.9069999 -0.421 0.995 150 16 0
1.9119999 -0.421 0.99199998 150 16 0
1.921 -0.42199999 0.991 150 16 0
1.929 -0.42399999 0.98799998 150 16 0
1.934 -0.42399999 0.98500001 150 16 0
1.939 -0.42399999 0.98199999 150 16 0
1.943 -0.42399999 0.977 150 16 0
1.957 -0.42699999 0.97799999 150 16 0
1.967 -0.428 0.977 150 16 0
1.969 -0.428 0.972 150 16 0
1.98 -0.42899999 0.97100002 150 16 0
1.99 -0.43000001 0.96899998 150 16 0
1.994 -0.43000001 0.96499997 150 16 0
1.998 -0.43000001 0.95999998 150 16 0
2.0039999 -0.43000001 0.95700002 150 16 0
2.0120001 -0.43099999 0.954 150 16 0
2.023 -0.43200001 0.95300001 150 16 0
2.03 -0.43200001 0.949 150 16 0
2.0369999 -0.43200001 0.94599998 150 16 0
2.0420001 -0.43200001 0.94199997 150 16 0
2.0510001 -0.433 0.93900001 150 16 0
2.0580001 -0.433 0.93599999 150 16 0
2.0639999 -0.43200001 0.93199998 150 16 0
2.072 -0.433 0.92900002 146 16 0
2.0829999 -0.433 0.92699999 149 16 0
2.0910001 -0.43399999 0.92299998 150 16 0
2.0999999 -0.43399999 0.92000002 110 16 0
2.105 -0.433 0.91600001 118 16 0
2.1140001 -0.43399999 0.91299999 122 16 0
2.118 -0.433 0.90799999 116 16 0
2.128 -0.433 0.90499997 116 16 0
2.142 -0.43399999 0.90399998 115 16 0
2.151 -0.43399999 0.90100002 114 16 0
2.155 -0.433 0.89499998 114 16 0
2.164 -0.433 0.89200002 120 16 0
2.175 -0.433 0.889 114 16 0
2.1800001 -0.433 0.88499999 105 16 0
2.184 -0.43099999 0.87900001 94 16 0
2.1949999 -0.43099999 0.87599999 98 16 0
2.2090001 -0.43200001 0.87400001 110 16 0
2.2190001 -0.43200001 0.87099999 118 16 0
2.224 -0.43099999 0.866 109 16 0
2.234 -0.43099999 0.86299998 105 16 0
2.244 -0.43000001 0.85900003 116 16 0
2.2509999 -0.42899999 0.85399997 114 16 0
2.263 -0.42899999 0.85100001 78 16 0
2.2720001 -0.42899999 0.847 78 16 0
2.2809999 -0.428 0.84299999 73 16 0
2.286 -0.42699999 0.838 72 16 0
2.2980001 -0.42699999 0.83499998 76 16 0
2.309 -0.426 0.83099997 85 16 0
2.319 -0.42500001 0.82700002 74 16 0
2.3239999 -0.42399999 0.82200003 81 16 0
2.3329999 -0.42300001 0.81699997 79 16 0
2.3440001 -0.42199999 0.81400001 71 16 0
2.3499999 -0.421 0.80800003 73 16 0
2.3610001 -0.41999999 0.80400002 70 16 0
2.372 -0.419 0.80000001 75 16 0
2.3800001 -0.41800001 0.796 71 16 0
2.3989999 -0.419 0.79400003 68 16 0
2.398 -0.41600001 0.78600001 61 16 0
2.411 -0.41499999 0.78299999 72 16 0
2.4189999 -0.414 0.778 68 16 0
2.4300001 -0.41299999 0.773 66 16 0
2.441 -0.412 0.76899999 64 16 0
2.4579999 -0.41100001 0.76700002 67 16 0
2.4649999 -0.41 0.76099998 59 16 0
2.47 -0.40700001 0.755 59 16 0
2.4820001 -0.40599999 0.75 54 16 0
2.49 -0.40400001 0.745 51 16 0
2.507 -0.40400001 0.74199998 57 16 0
2.5150001 -0.40200001 0.73699999 64 16 0
2.5179999 -0.40000001 0.73000002 35 16 0
2.533 -0.39899999 0.72600001 34 16 0
2.5469999 -0.398 0.722 35 16 0
2.556 -0.396 0.71700001 35 16 0
2.575 -0.39500001 0.71399999 39 16 0
2.5810001 -0.39300001 0.708 35 16 0
2.5910001 -0.391 0.70200002 34 16 0
2.605 -0.389 0.69800001 36 16 0
2.618 -0.38800001 0.69300002 38 16 0
2.625 -0.38499999 0.68699998 34 16 0
2.6329999 -0.38299999 0.68099999 35 16 0
2.645 -0.38100001 0.676 34 16 0
2.654 -0.37900001 0.67000002 33 16 0
2.6700001 -0.377 0.66600001 34 16 0
2.6830001 -0.375 0.66100001 35 16 0
2.6900001 -0.373 0.65399998 32 16 0
2.7049999 -0.37099999 0.64999998 33 16 0
2.7160001 -0.36899999 0.64399999 33 16 0
2.724 -0.366 0.63800001 31 16 0
2.7390001 -0.36399999 0.63300002 32 16 0
2.7539999 -0.36199999 0.62800002 33 16 0
2.7650001 -0.359 0.62199998 31 16 0
2.7750001 -0.35699999 0.616 32 16 0
2.7880001 -0.35499999 0.61000001 31 16 0
2.799 -0.352 0.60399997 32 16 0
2.8139999 -0.34999999 0.59899998 31 16 0
2.823 -0.347 0.59200001 33 16 0
2.8369999 -0.34400001 0.58700001 33 16 0
2.858 -0.34200001 0.583 36 16 0
2.865 -0.33899999 0.57499999 39 16 0
2.8729999 -0.336 0.56900001 43 16 0
2.8829999 -0.333 0.56199998 41 16 0
2.9000001 -0.33000001 0.55699998 37 16 0
2.904 -0.32600001 0.54900002 31 16 0
2.9100001 -0.32300001 0.54100001 27 16 0
2.9159999 -0.31900001 0.53399998 26 16 0
2.9189999 -0.315 0.52600002 26 16 0
2.9230001 -0.31099999 0.51800001 26 16 0
2.9360001 -0.308 0.51200002 26 16 0
2.938 -0.303 0.50300002 26 16 0
2.947 -0.30000001 0.49599999 26 16 0
2.9530001 -0.296 0.48899999 26 16 0
2.957 -0.29100001 0.48100001 26 16 0
2.96 -0.287 0.47299999 26 16 0
2.967 -0.28299999 0.465 25 16 0
2.971 -0.27900001 0.45699999 21 16 0
2.98 -0.27500001 0.44999999 21 16 0
2.9860001 -0.271 0.442 22 16 0
2.9949999 -0.26699999 0.435 22 16 0
3.0039999 -0.26300001 0.42699999 22 16 0
3.0050001 -0.25799999 0.419 22 16 0
3.0150001 -0.25400001 0.41100001 22 16 0
3.0220001 -0.25 0.40400001 22 16 0
3.03 -0.24600001 0.396 22 16 0
3.0350001 -0.241 0.38800001 22 16 0
3.0450001 -0.237 0.38100001 21 16 0
3.0539999 -0.233 0.373 22 16 0
3.0580001 -0.228 0.36500001 22 16 0
3.0669999 -0.22400001 0.35699999 22 16 0
3.0710001 -0.219 0.34900001 22 16 0
3.079 -0.215 0.34099999 21 16 0
3.086 -0.20999999 0.333 21 16 0
3.098 -0.206 0.32600001 22 16 0
3.1029999 -0.20100001 0.31799999 22 16 0
3.112 -0.197 0.31 22 16 0
3.1140001 -0.192 0.301 22 16 0
3.1210001 -0.18700001 0.29300001 22 16 0
3.1340001 -0.182 0.28600001 23 16 0
3.1359999 -0.177 0.27700001 22 16 0
3.1429999 -0.17200001 0.26899999 22 16 0
3.1559999 -0.168 0.26100001 22 16 0
3.165 -0.163 0.25299999 23 16 0
3.1760001 -0.15800001 0.245 22 16 0
3.1819999 -0.153 0.237 23 16 0
3.1889999 -0.148 0.228 23 16 0
3.2 -0.14300001 0.22 23 16 0
3.204 -0.138 0.212 22 16 0
3.2160001 -0.133 0.204 23 16 0
3.2179999 -0.127 0.19499999 22 16 0
3.2309999 -0.122 0.18700001 24 16 0
3.24 -0.117 0.178 23 16 0
3.2490001 -0.112 0.17 24 16 0
3.253 -0.106 0.161 23 16 0
3.267 -0.101 0.153 23 16 0
3.273 -0.094999999 0.14399999 23 16 0
3.2850001 -0.090000004 0.13600001 24 16 0
3.2920001 -0.083999999 0.127 24 16 0
3.2980001 -0.079000004 0.119 24 16 0
3.313 -0.072999999 0.11 30 16 0
3.3169999 -0.067000002 0.101 54 16 0
3.3050001 -0.061000001 0.092 108 16 0
3.3010001 -0.055 0.082999997 74 16 0
3.2939999 -0.048999999 0.074000001 71 16 0
3.283 -0.043000001 0.064999998 70 16 0
3.279 -0.037 0.056000002 78 16 0
3.273 -0.030999999 0.046999998 83 16 0
3.2650001 -0.025 0.037999999 75 16 0
3.2579999 -0.018999999 0.028999999 37 16 0
3.257 -0.014 0.02 21 16 0
3.2690001 -0.0080000004 0.012 15 16 0
3.277 -0.0020000001 0.003 15 16 0
3.2909999 0.003 -0.0049999999 16 16 0
3.299 0.0089999996 -0.014 16 16 0
3.3039999 0.015 -0.023 18 16 0
3.3199999 0.022 -0.032000002 27 16 0
3.3110001 0.028000001 -0.039999999 42 16 0
3.296 0.034000002 -0.048999999 44 16 0
3.293 0.039999999 -0.057999998 47 16 0
3.286 0.046 -0.066 41 16 0
3.283 0.052000001 -0.075000003 36 16 0
3.2809999 0.057999998 -0.083999999 36 16 0
3.27 0.064000003 -0.092 44 16 0
3.2620001 0.07 -0.1 48 16 0
3.253 0.075000003 -0.109 47 16 0
3.2490001 0.082000002 -0.117 48 16 0
3.2420001 0.088 -0.125 46 16 0
3.2379999 0.093999997 -0.134 52 16 0
3.233 0.1 -0.142 50 16 0
3.2279999 0.106 -0.15000001 59 16 0
3.2160001 0.111 -0.15800001 53 16 0
3.2019999 0.117 -0.16599999 52 16 0
3.2019999 0.123 -0.17399999 59 16 0
3.194 0.12899999 -0.182 50 16 0
3.187 0.13500001 -0.19 49 16 0
3.181 0.141 -0.198 52 16 0
3.1760001 0.147 -0.206 59 16 0
3.1670001 0.152 -0.214 51 16 0
3.1589999 0.15800001 -0.221 48 16 0
3.1559999 0.164 -0.229 54 16 0
3.148 0.17 -0.237 49 16 0
3.1429999 0.176 -0.245 50 16 0
3.1340001 0.18099999 -0.252 51 16 0
3.1199999 0.18700001 -0.259 53 16 0
3.1159999 0.193 -0.26699999 53 16 0
3.112 0.199 -0.27500001 51 16 0
3.108 0.205 -0.28200001 49 16 0
3.1040001 0.211 -0.28999999 50 16 0
3.0929999 0.21600001 -0.29699999 73 16 0
3.085 0.222 -0.30399999 74 16 0
3.0810001 0.228 -0.31200001 70 16 0
3.076 0.234 -0.31900001 82 16 0
3.0669999 0.23899999 -0.32600001 87 16 0
3.062 0.245 -0.333 89 16 0
3.052 0.25 -0.34 94 16 0
3.049 0.25600001 -0.347 77 16 0
3.046 0.26199999 -0.35499999 80 16 0
3.0380001 0.26800001 -0.36199999 71 16 0
3.029 0.273 -0.368 70 16 0
3.0250001 0.27900001 -0.37599999 89 16 0
3.0150001 0.285 -0.382 74 16 0
3.0079999 0.28999999 -0.389 72 16 0
3.006 0.296 -0.396 95 16 0
3.003 0.30199999 -0.403 78 16 0
2.9949999 0.308 -0.41 61 16 0
2.984 0.31299999 -0.41600001 69 16 0
2.987 0.31999999 -0.42399999 89 16 0
2.9749999 0.32499999 -0.43000001 83 16 0
2.9679999 0.33000001 -0.43599999 91 16 0
2.9619999 0.336 -0.44299999 105 16 0
2.9549999 0.34099999 -0.449 96 16 0
2.9530001 0.34799999 -0.456 90 16 0
2.9460001 0.35299999 -0.463 91 16 0
2.9419999 0.359 -0.46900001 101 16 0
2.9360001 0.36399999 -0.47600001 96 16 0
2.9260001 0.37 -0.48199999 106 16 0
2.9260001 0.37599999 -0.48899999 107 16 0
2.914 0.38100001 -0.49399999 99 16 0
2.905 0.38600001 -0.5 101 16 0
2.9000001 0.39199999 -0.50599998 106 16 0
2.8959999 0.398 -0.51300001 87 16 0
2.892 0.403 -0.51899999 104 16 0
2.8840001 0.40900001 -0.52499998 111 16 0
2.882 0.41499999 -0.53200001 111 16 0
2.869 0.419 -0.53600001 110 16 0
2.865 0.42500001 -0.54299998 100 16 0
2.862 0.43099999 -0.54900002 111 16 0
2.8529999 0.43599999 -0.55500001 103 16 0
2.848 0.442 -0.56 111 16 0
2.8440001 0.44800001 -0.56699997 111 16 0
2.835 0.45300001 -0.57200003 102 16 0
2.8329999 0.45899999 -0.57800001 111 16 0
2.8269999 0.465 -0.58399999 99 16 0
2.8180001 0.47 -0.58899999 105 16 0
2.816 0.47600001 -0.59500003 133 16 0
2.812 0.48199999 -0.60100001 129 16 0
2.8069999 0.48699999 -0.60699999 145 16 0
2.803 0.493 -0.61299998 137 16 0
2.7980001 0.49900001 -0.61900002 150 16 0
2.7950001 0.505 -0.625 150 16 0
2.7850001 0.50999999 -0.62900001 150 16 0
2.776 0.514 -0.634 150 16 0
2.766 0.51899999 -0.63800001 150 16 0
2.763 0.52499998 -0.64399999 150 16 0
2.76 0.53100002 -0.64999998 150 16 0
2.756 0.537 -0.65600002 150 16 0
2.7490001 0.542 -0.66100001 150 16 0
2.7449999 0.54799998 -0.66600001 150 16 0
2.7390001 0.55400002 -0.671 150 16 0
2.7360001 0.55900002 -0.67699999 150 16 0
2.7309999 0.565 -0.68199998 150 16 0
2.721 0.56999999 -0.68599999 150 16 0
2.7179999 0.57599998 -0.69199997 150 16 0
2.7119999 0.58099997 -0.69599998 150 16 0
2.7060001 0.58700001 -0.70099998 150 16 0
2.6989999 0.59200001 -0.70599997 150 16 0
2.697 0.59799999 -0.71100003 150 16 0
2.6919999 0.60399997 -0.71600002 150 16 0
2.6889999 0.61000001 -0.722 150 16 0
2.6860001 0.616 -0.727 150 16 0
2.681 0.62099999 -0.73199999 150 16 0
2.671 0.62599999 -0.73500001 150 16 0
2.671 0.63200003 -0.74199998 150 16 0
2.661 0.63700002 -0.745 150 16 0
2.658 0.64300001 -0.75 150 16 0
2.652 0.648 -0.75400001 150 16 0
2.652 0.65499997 -0.75999999 150 16 0
2.6429999 0.65899998 -0.764 150 16 0
2.6370001 0.66500002 -0.76800001 150 16 0
2.632 0.67000002 -0.77200001 150 16 0
2.6289999 0.676 -0.77700001 150 16 0
2.6229999 0.68199998 -0.78100002 150 16 0
2.6159999 0.68699998 -0.78500003 150 16 0
2.6129999 0.69300002 -0.79000002 150 16 0
2.6070001 0.69800001 -0.79400003 150 16 0
2.6040001 0.704 -0.79799998 150 16 0
2.5999999 0.70999998 -0.80299997 150 16 0
2.598 0.71600002 -0.80800003 150 16 0
2.595 0.722 -0.81199998 150 16 0
2.585 0.72600001 -0.815 150 16 0
2.5840001 0.73299998 -0.81999999 150 16 0
2.579 0.73799998 -0.824 150 16 0
2.5680001 0.74199998 -0.82599998 150 16 0
2.563 0.74699998 -0.829 150 16 0
2.5580001 0.75300002 -0.833 150 16 0
2.552 0.75800002 -0.83600003 150 16 0
2.5510001 0.764 -0.84200001 150 16 0
2.5450001 0.76999998 -0.84500003 150 16 0
2.54 0.77499998 -0.84799999 150 16 0
2.5369999 0.78100002 -0.852 150 16 0
2.5339999 0.787 -0.85699999 150 16 0
2.527 0.792 -0.85900003 150 16 0
2.527 0.79799998 -0.86400002 150 16 0
2.523 0.80400002 -0.86799997 150 16 0
2.5179999 0.80900002 -0.87099999 150 16 0
2.5120001 0.81400001 -0.87400001 150 16 0
2.5090001 0.81999999 -0.87800002 150 16 0
2.506 0.82599998 -0.88200003 150 16 0
2.4990001 0.83099997 -0.884 150 16 0
2.4960001 0.83700001 -0.88700002 150 16 0
2.493 0.84299999 -0.89099997 150 16 0
2.4860001 0.847 -0.89300001 150 16 0
2.483 0.85299999 -0.89700001 150 16 0
2.4760001 0.85799998 -0.89899999 86 16 0
2.47 0.86199999 -0.90100002 12 16 0
2.428 0.85399997 -0.88999999 8 17 0
2.411 0.85500002 -0.88800001 25 16 0
2.408 0.861 -0.89099997 24 16 0
2.404 0.866 -0.89399999 20 16 0
2.4360001 0.884 -0.91000003 151 18 0
2.415 0.88300002 -0.90600002 157 16 0
2.4059999 0.88700002 -0.90700001 159 16 0
2.421 0.89899999 -0.917 154 19 0
2.441 0.91399997 -0.92799997 150 16 0
2.437 0.91900003 -0.93099999 150 16 0
2.4349999 0.92500001 -0.93400002 150 16 0
2.4319999 0.93099999 -0.93699998 150 16 0
2.4300001 0.93599999 -0.94 150 16 0
2.418 0.93900001 -0.93900001 150 16 0
2.4200001 0.94599998 -0.94300002 150 16 0
2.4330001 0.958 -0.95200002 151 16 0
2.4300001 0.96399999 -0.95499998 151 16 0
2.415 0.96499997 -0.95200002 151 16 0
2.402 0.96600002 -0.95099998 150 16 0
2.401 0.972 -0.95300001 150 16 0
2.392 0.97500002 -0.95300001 150 16 0
2.3889999 0.98100001 -0.95499998 150 16 0
2.388 0.98699999 -0.958 150 16 0
2.3829999 0.991 -0.95899999 150 16 0
2.378 0.99599999 -0.95999998 150 16 0
2.3770001 1.002 -0.963 150 16 0
2.3699999 1.006 -0.963 150 16 0
2.369 1.012 -0.96600002 150 16 0
2.3629999 1.016 -0.96600002 150 16 0
2.3629999 1.022 -0.96899998 150 16 0
2.359 1.027 -0.97000003 150 16 0
2.358 1.033 -0.972 151 16 0
2.348 1.035 -0.97100002 150 16 0
2.3469999 1.041 -0.97299999 151 16 0
2.348 1.048 -0.97600001 151 16 0
2.3410001 1.051 -0.97500002 150 16 0
2.339 1.056 -0.97600001 151 16 0
2.3340001 1.0599999 -0.977 151 16 0
2.3329999 1.066 -0.97799999 151 16 0
2.3299999 1.0700001 -0.97899997 151 16 0
2.325 1.074 -0.97899997 151 16 0
2.325 1.08 -0.98100001 151 16 0
2.323 1.085 -0.98199999 151 16 0
2.3199999 1.09 -0.98299998 151 16 0
2.316 1.094 -0.98299998 151 16 0
2.3150001 1.099 -0.98400003 151 16 0
2.313 1.104 -0.98400003 151 16 0
2.3110001 1.109 -0.98500001 151 16 0
2.306 1.112 -0.98400003 151 16 0
2.3039999 1.117 -0.98500001 151 16 0
2.302 1.122 -0.98500001 151 16 0
2.3 1.126 -0.986 151 16 0
2.2969999 1.13 -0.98500001 151 16 0
2.2969999 1.136 -0.986 151 16 0
2.2939999 1.14 -0.986 151 16 0
2.2920001 1.1440001 -0.986 151 16 0
2.289 1.148 -0.986 151 16 0
2.2880001 1.153 -0.986 151 16 0
2.283 1.155 -0.98400003 151 16 0
2.279 1.159 -0.98299998 151 16 0
2.2809999 1.165 -0.98500001 151 16 0
2.279 1.168 -0.98400003 151 16 0
2.2780001 1.173 -0.98400003 151 16 0
2.2739999 1.176 -0.98199999 151 16 0
2.2750001 1.181 -0.98299998 151 16 0
2.273 1.1849999 -0.98199999 151 16 0
2.2650001 1.1849999 -0.97899997 151 16 0
2.2679999 1.192 -0.98000002 151 16 0
2.2679999 1.196 -0.97899997 151 16 0
2.267 1.2 -0.97899997 151 16 0
2.2650001 1.2029999 -0.977 151 16 0
2.263 1.206 -0.97600001 151 16 0
2.263 1.21 -0.97600001 151 16 0
2.26 1.2130001 -0.97399998 151 16 0
2.2590001 1.217 -0.97299999 151 16 0
2.2590001 1.22 -0.972 151 16 0
2.2509999 1.22 -0.96799999 151 16 0
2.2550001 1.226 -0.96899998 151 16 0
2.2539999 1.229 -0.96700001 151 16 0
2.2509999 1.2309999 -0.96499997 151 16 0
2.253 1.2359999 -0.96499997 151 16 0
2.2520001 1.239 -0.963 151 16 0
2.2479999 1.24 -0.95999998 151 16 0
2.2520001 1.245 -0.95999998 151 16 0
2.2479999 1.247 -0.95700002 151 16 0
2.2460001 1.248 -0.954 151 16 0
2.247 1.252 -0.95300001 151 16 0
2.2449999 1.2539999 -0.94999999 151 16 0
2.2460001 1.257 -0.949 151 16 0
2.244 1.2589999 -0.94599998 151 16 0
2.2449999 1.262 -0.94499999 151 16 0
2.244 1.2640001 -0.94199997 151 16 0
2.244 1.267 -0.94 151 16 0
2.244 1.2690001 -0.93800002 151 16 0
2.243 1.27 -0.935 151 16 0
2.244 1.273 -0.93300003 151 16 0
2.2449999 1.276 -0.93099999 151 16 0
2.244 1.277 -0.92799997 151 16 0
2.2449999 1.28 -0.926 150 16 0
2.244 1.281 -0.92299998 150 16 0
2.2409999 1.281 -0.91900003 150 16 0
2.247 1.286 -0.91900003 150 16 0
2.2460001 1.286 -0.91500002 150 16 0
2.2479999 1.289 -0.91299999 150 16 0
2.2479999 1.29 -0.91000003 150 16 0
2.2479999 1.2920001 -0.90700001 150 16 0
2.2490001 1.293 -0.90399998 150 16 0
2.2509999 1.295 -0.90200001 150 16 0
2.253 1.2970001 -0.89999998 151 16 0
2.25 1.296 -0.89499998 150 16 0
2.2539999 1.299 -0.89300001 150 16 0
2.2590001 1.302 -0.89200002 112 16 0
2.263 1.3049999 -0.88999999 26 16 0
2.263 1.3049999 -0.88599998 12 16 0
2.266 1.307 -0.884 3 16 0
2.2620001 1.3049999 -0.87800002 1 16 0
2.26 1.304 -0.87400001 1 16 0
2.266 1.307 -0.87199998 1 16 0
2.267 1.307 -0.86900002 1 16 0
2.2750001 1.312 -0.86799997 1 16 0
2.286 1.318 -0.86799997 1 16 0
2.29 1.319 -0.86500001 2 16 0
2.2880001 1.318 -0.861 2 16 0
2.2850001 1.3150001 -0.85500002 2 16 0
2.29 1.317 -0.85299999 3 16 0
2.2909999 1.316 -0.84899998 2 16 0
2.2920001 1.316 -0.84500003 2 16 0
2.2909999 1.3150001 -0.83999997 2 16 0
2.2950001 1.3150001 -0.83700001 2 16 0
2.299 1.316 -0.83399999 2 16 0
2.296 1.313 -0.829 1 16 0
2.3010001 1.314 -0.82599998 1 16 0
2.2969999 1.311 -0.81999999 1 16 0
2.29 1.3049999 -0.81300002 1 16 0
2.2809999 1.298 -0.80500001 1 16 0
2.3139999 1.314 -0.81199998 1 16 0
2.3 1.304 -0.80199999 5 16 0
2.3050001 1.3049999 -0.79900002 22 16 0
2.306 1.303 -0.79400003 135 16 0
2.302 1.299 -0.78799999 150 16 0
2.3039999 1.298 -0.78399998 150 16 0
2.3080001 1.2970001 -0.78100002 150 16 0
2.3110001 1.296 -0.77700001 150 16 0
2.309 1.2920001 -0.77100003 150 16 0
2.316 1.294 -0.76899999 150 16 0
2.312 1.288 -0.76200002 150 16 0
2.3139999 1.2869999 -0.75800002 150 16 0
2.319 1.286 -0.755 150 16 0
2.325 1.286 -0.75099999 150 16 0
2.329 1.285 -0.74800003 150 16 0
2.332 1.283 -0.74299997 150 16 0
2.3340001 1.281 -0.73900002 150 16 0
2.3369999 1.279 -0.73500001 150 16 0
2.339 1.277 -0.73000002 150 16 0
2.3410001 1.274 -0.72600001 150 16 0
2.345 1.273 -0.722 150 16 0
2.3499999 1.271 -0.71799999 150 16 0
2.3510001 1.268 -0.713 150 16 0
2.3540001 1.266 -0.70899999 150 16 0
2.359 1.2640001 -0.70499998 150 16 0
2.3599999 1.26 -0.69999999 150 16 0
2.3640001 1.2589999 -0.69599998 150 16 0
2.368 1.256 -0.69199997 150 16 0
2.3710001 1.253 -0.68699998 150 16 0
2.3729999 1.25 -0.68300003 150 16 0
2.378 1.248 -0.67900002 150 16 0
2.378 1.243 -0.67299998 150 16 0
2.3859999 1.243 -0.671 150 16 0
2.3870001 1.239 -0.66600001 150 16 0
2.3859999 1.233 -0.66000003 110 16 0
2.395 1.233 -0.65700001 71 16 0
2.398 1.229 -0.65200001 73 16 0
2.3970001 1.224 -0.64700001 93 16 0
2.4089999 1.225 -0.64499998 73 16 0
2.411 1.221 -0.63999999 56 16 0
2.4170001 1.2180001 -0.63599998 67 16 0
2.4200001 1.215 -0.63200003 68 16 0
2.4200001 1.21 -0.62599999 50 16 0
2.4230001 1.206 -0.62199998 81 16 0
2.424 1.2 -0.61699998 150 16 0
2.4300001 1.198 -0.61299998 150 16 0
2.4349999 1.194 -0.60900003 150 16 0
2.437 1.1900001 -0.60399997 150 16 0
2.4419999 1.187 -0.60000002 150 16 0
2.444 1.182 -0.59500003 150 16 0
2.447 1.178 -0.59100002 150 16 0
2.4519999 1.174 -0.58600003 150 16 0
2.4579999 1.171 -0.583 150 16 0
2.461 1.166 -0.57800001 150 16 0
2.464 1.1619999 -0.574 150 16 0
2.471 1.159 -0.56999999 150 16 0
2.474 1.154 -0.565 150 16 0
2.4779999 1.149 -0.56099999 150 16 0
2.4809999 1.145 -0.55599999 150 16 0
2.484 1.14 -0.55199999 150 16 0
2.4909999 1.137 -0.54799998 150 16 0
2.4949999 1.132 -0.54400003 150 16 0
2.497 1.127 -0.53899997 150 16 0
2.5039999 1.123 -0.53500003 150 16 0
2.5050001 1.117 -0.52999997 150 16 0
2.5079999 1.112 -0.52600002 150 16 0
2.5139999 1.108 -0.52200001 150 16 0
2.5179999 1.103 -0.51800001 150 16 0
2.5209999 1.098 -0.51300001 150 16 0
2.5339999 1.096 -0.51099998 150 16 0
2.529 1.087 -0.50400001 150 16 0
2.539 1.085 -0.50099999 150 16 0
2.5439999 1.08 -0.49700001 150 16 0
2.5469999 1.074 -0.493 150 16 0
2.5569999 1.071 -0.49000001 150 16 0
2.5610001 1.066 -0.48500001 150 16 0
2.5639999 1.0599999 -0.48100001 150 16 0
2.5680001 1.0549999 -0.47600001 150 16 0
2.573 1.049 -0.472 150 16 0
2.576 1.044 -0.46799999 150 16 0
2.582 1.039 -0.46399999 150 16 0
2.585 1.033 -0.46000001 150 16 0
2.5910001 1.028 -0.456 150 16 0
2.5940001 1.022 -0.45100001 150 16 0
2.599 1.016 -0.44800001 150 16 0
2.602 1.01 -0.44299999 150 16 0
2.6070001 1.005 -0.43900001 150 16 0
2.612 0.99900001 -0.435 150 16 0
2.6170001 0.99299997 -0.43099999 150 16 0
2.6259999 0.98900002 -0.428 150 16 0
2.6300001 0.98299998 -0.42399999 150 16 0
2.6340001 0.977 -0.419 150 16 0
2.652 0.97600001 -0.417 150 16 0
2.658 0.97100002 -0.414 132 16 0
2.648 0.95899999 -0.40700001 150 16 0
2.654 0.954 -0.40400001 150 16 0
2.654 0.94599998 -0.39899999 150 16 0
2.661 0.94099998 -0.39500001 150 16 0
2.664 0.93400002 -0.391 150 16 0
2.6700001 0.92799997 -0.38699999 150 16 0
2.6800001 0.92400002 -0.384 150 16 0
2.677 0.91500002 -0.37900001 150 16 0
2.691 0.912 -0.37599999 150 16 0
2.688 0.903 -0.37200001 150 16 0
2.697 0.898 -0.368 150 16 0
2.7 0.89099997 -0.36399999 150 16 0
2.7030001 0.884 -0.36000001 150 16 0
2.71 0.87800002 -0.35600001 150 16 0
2.7130001 0.87099999 -0.352 150 16 0
2.7160001 0.86400002 -0.34799999 150 16 0
2.7279999 0.86000001 -0.345 150 16 0
2.733 0.85299999 -0.34099999 150 16 0
2.7360001 0.84600002 -0.33700001 150 16 0
2.7490001 0.84100002 -0.33399999 150 16 0
2.753 0.83399999 -0.331 150 16 0
2.7550001 0.82700002 -0.32699999 150 16 0
2.76 0.81999999 -0.32300001 150 16 0
2.7609999 0.81199998 -0.31799999 150 16 0
2.766 0.80500001 -0.315 150 16 0
2.773 0.79900002 -0.31099999 150 16 0
2.7809999 0.79299998 -0.308 150 16 0
2.7809999 0.78399998 -0.30399999 150 16 0
2.79 0.77899998 -0.30000001 150 16 0
2.7950001 0.77100003 -0.296 150 16 0
2.802 0.76499999 -0.29300001 150 16 0
2.806 0.75800002 -0.289 150 16 0
2.8099999 0.75 -0.28600001 150 16 0
2.8150001 0.74299997 -0.28200001 150 16 0
2.8180001 0.73500001 -0.278 150 16 0
2.8280001 0.72899997 -0.27500001 150 16 0
2.8310001 0.722 -0.271 150 16 0
2.839 0.71499997 -0.26800001 150 16 0
2.846 0.708 -0.264 150 16 0
2.8469999 0.69999999 -0.25999999 150 16 0
2.852 0.69199997 -0.257 150 16 0
2.8610001 0.68599999 -0.25400001 150 16 0
2.8640001 0.67799997 -0.25 150 16 0
2.868 0.67000002 -0.24600001 150 16 0
2.872 0.662 -0.242 150 16 0
2.8800001 0.65499997 -0.23899999 150 16 0
2.882 0.64700001 -0.235 150 16 0
2.8940001 0.64099997 -0.23199999 150 16 0
2.8970001 0.63300002 -0.229 150 16 0
2.905 0.62599999 -0.22499999 150 16 0
2.911 0.61799997 -0.222 150 16 0
2.915 0.61000001 -0.21799999 150 16 0
2.9260001 0.60299999 -0.215 150 16 0
2.928 0.59500003 -0.212 150 16 0
2.9319999 0.58700001 -0.208 150 16 0
2.941 0.57999998 -0.205 150 16 0
2.9460001 0.57200003 -0.20100001 150 16 0
2.9489999 0.56300002 -0.198 150 16 0
2.954 0.55500001 -0.19400001 150 16 0
2.961 0.54699999 -0.191 150 16 0
2.9660001 0.53899997 -0.18799999 150 16 0
2.9719999 0.53100002 -0.184 150 16 0
2.9790001 0.523 -0.18099999 150 16 0
2.984 0.51499999 -0.177 150 16 0
2.9909999 0.50700003 -0.17399999 150 16 0
2.9960001 0.49900001 -0.171 150 16 0
2.9979999 0.49000001 -0.167 133 16 0
3.0079999 0.48199999 -0.164 140 16 0
3.01 0.47299999 -0.161 150 16 0
3.0150001 0.465 -0.15700001 146 16 0
3.0309999 0.458 -0.154 139 16 0
3.036 0.44999999 -0.15099999 137 16 0
3.0339999 0.44 -0.147 129 16 0
3.043 0.43200001 -0.14399999 136 16 0
3.0450001 0.42300001 -0.141 138 16 0
3.0510001 0.414 -0.138 150 16 0
3.0610001 0.40599999 -0.134 135 16 0
3.0639999 0.39700001 -0.131 143 16 0
3.0680001 0.389 -0.12800001 131 16 0
3.076 0.38 -0.125 138 16 0
3.0829999 0.37200001 -0.121 137 16 0
3.0929999 0.36300001 -0.118 132 16 0
3.0999999 0.35499999 -0.115 140 16 0
3.1040001 0.345 -0.112 130 16 0
3.1110001 0.33700001 -0.109 110 16 0
3.118 0.32800001 -0.105 115 16 0
3.1240001 0.31900001 -0.102 119 16 0
3.128 0.31 -0.098999999 117 16 0
3.141 0.301 -0.096000001 133 16 0
3.1429999 0.292 -0.093000002 130 16 0
3.152 0.28299999 -0.090000004 125 16 0
3.158 0.27399999 -0.086000003 111 16 0
3.1619999 0.264 -0.082999997 106 16 0
3.1689999 0.255 -0.079999998 96 16 0
3.177 0.24600001 -0.077 102 16 0
3.1819999 0.237 -0.074000001 109 16 0
3.194 0.228 -0.071000002 102 16 0
3.197 0.21799999 -0.068000004 107 16 0
3.2079999 0.20900001 -0.064000003 100 16 0
3.2030001 0.199 -0.061000001 99 16 0
3.2149999 0.189 -0.057999998 97 16 0
3.2309999 0.18000001 -0.055 110 16 0
3.2360001 0.171 -0.052000001 103 16 0
3.2390001 0.161 -0.048999999 90 16 0
3.247 0.15099999 -0.046 95 16 0
3.25 0.141 -0.043000001 95 16 0
3.2550001 0.131 -0.039000001 90 16 0
3.267 0.122 -0.035999998 88 16 0
3.2720001 0.112 -0.033 89 16 0
3.277 0.102 -0.029999999 84 16 0
3.286 0.092 -0.027000001 86 16 0
3.2920001 0.082000002 -0.024 79 16 0
3.293 0.071999997 -0.021 78 16 0
3.3039999 0.061999999 -0.017999999 48 16 0
3.3110001 0.052000001 -0.015 49 16 0
3.313 0.041999999 -0.012 69 16 0
3.3239999 0.030999999 -0.0089999996 55 16 0
3.319 0.021 -0.0060000001 24 16 0
3.299 0.0099999998 -0.003 19 16 0
3.2809999 0 0 19 16 0
3.247 -0.0089999996 0.0020000001 22 16 0
3.2479999 -0.018999999 0.0049999999 73 16 0
3.2579999 -0.028999999 0.0080000004 150 16 0
3.263 -0.039000001 0.011 150 16 0
3.266 -0.050000001 0.014 150 16 0
3.27 -0.059999999 0.017000001 150 16 0
3.267 -0.07 0.02 51 16 0
3.2490001 -0.079999998 0.022 31 16 0
3.2320001 -0.089000002 0.025 31 16 0
3.2090001 -0.098999999 0.027000001 29 16 0
3.1919999 -0.108 0.029999999 30 16 0
3.1719999 -0.118 0.032000002 30 16 0
3.151 -0.127 0.035 29 16 0
3.1329999 -0.13600001 0.037 31 16 0
3.1140001 -0.145 0.039999999 30 16 0
3.0929999 -0.153 0.041999999 29 16 0
3.075 -0.162 0.044 30 16 0
3.049 -0.17 0.046 30 16 0
3.036 -0.17900001 0.048 32 16 0
3.0150001 -0.18700001 0.050999999 31 16 0
3 -0.19599999 0.052999999 31 16 0
2.9790001 -0.204 0.055 30 16 0
2.9630001 -0.212 0.057 31 16 0
2.951 -0.221 0.059 32 16 0
2.9260001 -0.228 0.059999999 31 16 0
2.9130001 -0.236 0.061999999 32 16 0
2.892 -0.243 0.064000003 32 16 0
2.8770001 -0.25099999 0.066 33 16 0
2.8629999 -0.259 0.068000004 33 16 0
2.8440001 -0.26699999 0.07 32 16 0
2.8310001 -0.27399999 0.071000002 32 16 0
2.8110001 -0.28099999 0.072999999 33 16 0
2.8 -0.289 0.075000003 34 16 0
2.783 -0.296 0.075999998 33 16 0
2.77 -0.30399999 0.078000002 35 16 0
2.7539999 -0.31099999 0.079000004 34 16 0
2.737 -0.317 0.081 36 16 0
2.7260001 -0.32499999 0.082000002 36 16 0
2.7149999 -0.33199999 0.083999999 35 16 0
2.6989999 -0.33899999 0.085000001 37 16 0
2.6800001 -0.345 0.086000003 36 16 0
2.674 -0.35299999 0.088 42 16 0
2.651 -0.35800001 0.089000002 37 16 0
2.6359999 -0.36500001 0.090000004 38 16 0
2.625 -0.37200001 0.092 41 16 0
2.612 -0.37799999 0.093000002 49 16 0
2.5940001 -0.384 0.093999997 48 16 0
2.5799999 -0.38999999 0.094999999 49 16 0
2.573 -0.39700001 0.097000003 51 16 0
2.559 -0.40400001 0.097999997 53 16 0
2.5369999 -0.40799999 0.097999997 60 16 0
2.529 -0.41499999 0.1 52 16 0
2.5120001 -0.421 0.1 59 16 0
2.503 -0.42699999 0.102 63 16 0
2.4909999 -0.433 0.103 65 16 0
2.4779999 -0.43900001 0.104 60 16 0
2.4660001 -0.44499999 0.105 70 16 0
2.4560001 -0.45100001 0.106 72 16 0
2.447 -0.45699999 0.107 70 16 0
2.4319999 -0.46200001 0.107 69 16 0
2.4130001 -0.46700001 0.108 60 16 0
2.4059999 -0.47299999 0.109 67 16 0
2.3929999 -0.47799999 0.109 68 16 0
2.3770001 -0.48300001 0.11 64 16 0
2.368 -0.48899999 0.111 75 16 0
2.359 -0.495 0.112 89 16 0
2.3429999 -0.49900001 0.112 66 16 0
2.3280001 -0.50400001 0.113 73 16 0
2.3210001 -0.50999999 0.114 84 16 0
2.3110001 -0.51499999 0.114 81 16 0
2.299 -0.51999998 0.115 87 16 0
2.286 -0.52499998 0.115 81 16 0
2.273 -0.52899998 0.116 84 16 0
2.2620001 -0.53399998 0.116 78 16 0
2.25 -0.53899997 0.117 85 16 0
2.2390001 -0.54400003 0.117 84 16 0
2.23 -0.54900002 0.118 82 16 0
2.2190001 -0.55299997 0.118 89 16 0
2.2030001 -0.55699998 0.118 83 16 0
2.2030001 -0.56400001 0.119 89 16 0
2.1889999 -0.56800002 0.119 89 16 0
2.175 -0.57099998 0.119 85 16 0
2.1689999 -0.57700002 0.12 107 16 0
2.154 -0.57999998 0.12 110 16 0
2.1489999 -0.58600003 0.12 112 16 0
2.1329999 -0.58899999 0.12 143 16 0
2.1289999 -0.59399998 0.121 142 16 0
2.1159999 -0.59799999 0.121 140 16 0
2.105 -0.602 0.121 138 16 0
2.0940001 -0.60600001 0.121 150 16 0
2.085 -0.611 0.121 150 16 0
2.0780001 -0.61500001 0.121 150 16 0
2.073 -0.62099999 0.122 150 16 0
2.056 -0.62300003 0.121 150 16 0
2.0469999 -0.62699997 0.122 150 16 0
2.04 -0.63200003 0.122 150 16 0
2.029 -0.63499999 0.122 150 16 0
2.0179999 -0.63800001 0.122 150 16 0
2.01 -0.64200002 0.122 150 16 0
2.0039999 -0.64700001 0.122 150 16 0
1.994 -0.65100002 0.122 150 16 0
1.989 -0.65600002 0.122 150 16 0
1.976 -0.65799999 0.121 150 16 0
1.969 -0.66299999 0.121 150 16 0
1.959 -0.66600001 0.121 150 16 0
1.954 -0.671 0.121 150 16 0
1.933 -0.67000002 0.12 150 19 0
1.928 -0.67500001 0.12 150 16 0
1.919 -0.67900002 0.12 150 16 0
1.9170001 -0.68400002 0.12 150 16 0
1.909 -0.68800002 0.12 150 16 0
1.902 -0.69199997 0.12 150 16 0
1.893 -0.69499999 0.12 150 16 0
1.886 -0.699 0.119 150 16 0
1.8789999 -0.70300001 0.119 150 16 0
1.869 -0.70499998 0.119 150 16 0
1.862 -0.70899999 0.118 150 16 0
1.855 -0.713 0.118 150 16 0
1.847 -0.71600002 0.118 150 16 0
1.844 -0.72100002 0.118 150 16 0
1.83 -0.722 0.117 150 16 0
1.825 -0.72600001 0.116 150 16 0
1.817 -0.72899997 0.116 5 0 0
1.8099999 -0.73299998 0.116 150 16 0
1.801 -0.73500001 0.115 150 16 0
1.796 -0.73900002 0.115 150 16 0
1.789 -0.74199998 0.114 150 16 0
1.783 -0.74599999 0.114 150 16 0
1.776 -0.74900001 0.113 150 16 0
1.7640001 -0.75 0.112 150 16 0
1.761 -0.755 0.112 150 16 0
1.751 -0.75599998 0.111 150 16 0
1.748 -0.76099998 0.111 150 16 0
1.7359999 -0.76200002 0.11 150 16 0
1.733 -0.76599997 0.109 150 16 0
1.726 -0.76899999 0.108 150 16 0
1.719 -0.77200001 0.108 85 0 0
1.717 -0.77700001 0.107 99 0 0
1.706 -0.778 0.106 75 0 0
1.697 -0.77899998 0.105 106 0 0
1.694 -0.78299999 0.105 71 0 0
1.684 -0.78399998 0.104 103 0 0
1.679 -0.78799999 0.103 106 0 0
1.674 -0.79100001 0.102 104 0 0
1.669 -0.79400003 0.102 122 0 0
1.658 -0.79400003 0.101 114 0 0
1.653 -0.79799998 0.1 96 0 0
1.6440001 -0.79900002 0.098999999 101 0 0
1.642 -0.80299997 0.097999997 122 0 0
1.632 -0.80400002 0.097000003 112 0 0
1.628 -0.80699998 0.096000001 83 0 0
1.623 -0.81 0.094999999 118 0 0
1.617 -0.81300002 0.093999997 90 0 0
1.612 -0.815 0.093000002 135 0 0
1.604 -0.81599998 0.092 113 0 0
1.594 -0.81699997 0.090999998 133 0 0
1.59 -0.81999999 0.090000004 120 0 0
1.585 -0.82200003 0.089000002 112 0 0
1.582 -0.82599998 0.088 129 0 0
1.577 -0.82800001 0.086999997 110 0 0
1.575 -0.83200002 0.086000003 88 0 0
1.571 -0.83499998 0.085000001 117 0 0
1.5650001 -0.83700001 0.083999999 95 0 0
1.558 -0.838 0.082999997 132 0 0
1.551 -0.83899999 0.081 150 0 0
1.548 -0.84299999 0.079999998 143 0 0
1.543 -0.84500003 0.079000004 147 0 0
1.5369999 -0.84600002 0.078000002 117 0 0
1.529 -0.847 0.077 86 0 0
1.524 -0.84899998 0.075000003 111 0 0
1.524 -0.85299999 0.074000001 141 0 0
1.517 -0.85399997 0.072999999 134 0 0
1.515 -0.85799998 0.071999997 96 0 0
1.506 -0.85699999 0.07 150 0 0
1.5039999 -0.861 0.068999998 150 0 0
1.494 -0.85900003 0.068000004 145 0 0
1.4910001 -0.86199999 0.066 146 0 0
1.479 -0.86000001 0.064999998 150 0 0
1.482 -0.86500001 0.064000003 150 0 0
1.478 -0.86699998 0.061999999 141 0 0
1.476 -0.87 0.061000001 140 0 0
1.471 -0.87199998 0.059999999 150 0 0
1.466 -0.87300003 0.057999998 142 0 0
1.464 -0.87599999 0.057 132 0 0
1.455 -0.87400001 0.055 139 0 0
1.448 -0.87400001 0.054000001 150 0 0
1.45 -0.87900001 0.052999999 127 0 0
1.447 -0.88200003 0.050999999 98 0 0
1.446 -0.88499999 0.050000001 150 0 0
1.439 -0.884 0.048 132 0 0
1.434 -0.88499999 0.046999998 126 0 0
1.428 -0.88499999 0.045000002 131 0 0
1.426 -0.88800001 0.044 147 0 0
1.419 -0.88700002 0.041999999 150 0 0
1.415 -0.88800001 0.039999999 150 0 0
1.414 -0.89099997 0.039000001 120 0 0
1.4119999 -0.89300001 0.037 150 0 0
1.41 -0.89499998 0.035999998 126 0 0
1.4069999 -0.89700001 0.034000002 122 0 0
1.402 -0.89700001 0.032000002 134 0 0
1.4 -0.89899999 0.030999999 148 0 0
1.398 -0.90100002 0.028999999 132 0 0
1.392 -0.89999998 0.028000001 106 0 0
1.386 -0.89899999 0.026000001 143 0 0
1.387 -0.903 0.024 130 0 0
1.383 -0.90399998 0.023 134 0 0
1.3789999 -0.90399998 0.021 132 0 0
1.376 -0.90499997 0.018999999 130 0 0
1.376 -0.90700001 0.017999999 150 0 0
1.374 -0.90899998 0.016000001 150 0 0
