# .PCD v0.7 - Point Cloud Data file format
VERSION 0.7
FIELDS x y z intensity tag line
SIZE 4 4 4 4 1 1
TYPE F F F F U U
COUNT 1 1 1 1 1 1
WIDTH 1346
HEIGHT 1
VIEWPOINT 0 0 0 1 0 0 0
POINTS 1346
DATA ascii
2.994 0.055 -0.72500002 121 16 0
2.994 0.055 -0.71499997 123 16 0
3.0020001 0.055 -0.70700002 121 16 0
3.0050001 0.055 -0.69800001 138 16 0
3.006 0.055 -0.68800002 129 16 0
3.0079999 0.055 -0.67799997 128 16 0
3.016 0.055 -0.67000002 127 16 0
3.0179999 0.055 -0.66100001 133 16 0
3.026 0.055 -0.65200001 124 16 0
3.029 0.055 -0.64300001 127 16 0
3.0309999 0.055 -0.63300002 108 16 0
3.0380001 0.054000001 -0.625 102 16 0
3.0420001 0.054000001 -0.61500001 113 16 0
3.0450001 0.054000001 -0.60600001 103 16 0
3.0469999 0.054000001 -0.59600002 100 16 0
3.0580001 0.054000001 -0.588 102 16 0
3.0539999 0.052999999 -0.57700002 97 16 0
3.062 0.052999999 -0.56900001 80 16 0
3.0650001 0.052999999 -0.55900002 91 16 0
3.073 0.052000001 -0.55000001 79 16 0
3.079 0.052000001 -0.54100001 78 16 0
3.0829999 0.052000001 -0.53200001 76 16 0
3.086 0.050999999 -0.52200001 78 16 0
3.0899999 0.050999999 -0.51300001 75 16 0
3.092 0.050000001 -0.50300002 81 16 0
3.096 0.050000001 -0.493 85 16 0
3.099 0.048999999 -0.484 86 16 0
3.112 0.048999999 -0.47600001 81 16 0
3.1110001 0.048 -0.465 86 16 0
3.115 0.046999998 -0.456 89 16 0
3.118 0.046999998 -0.44600001 101 16 0
3.125 0.046 -0.43700001 88 16 0
3.1329999 0.046 -0.42699999 96 16 0
3.1370001 0.045000002 -0.41800001 125 16 0
3.1389999 0.044 -0.40799999 121 16 0
3.142 0.044 -0.398 124 16 0
3.1459999 0.043000001 -0.38800001 148 16 0
3.151 0.041999999 -0.37900001 147 16 0
3.1600001 0.041000001 -0.36899999 150 16 0
3.161 0.041000001 -0.359 147 16 0
3.1619999 0.039999999 -0.34900001 136 16 0
3.168 0.039000001 -0.33899999 150 16 0
3.171 0.037999999 -0.329 123 16 0
3.181 0.037 -0.31999999 128 16 0
3.184 0.035999998 -0.31 121 16 0
3.1930001 0.035999998 -0.301 150 16 0
3.1949999 0.035 -0.28999999 150 16 0
3.2079999 0.034000002 -0.28099999 137 16 0
3.21 0.033 -0.271 146 16 0
3.22 0.032000002 -0.26100001 132 16 0
3.221 0.030999999 -0.25099999 111 16 0
3.2260001 0.029999999 -0.241 117 16 0
3.2290001 0.028999999 -0.23100001 107 16 0
3.24 0.028000001 -0.221 72 16 0
3.2390001 0.026000001 -0.20999999 55 16 0
3.2420001 0.025 -0.2 50 16 0
3.2490001 0.024 -0.19 42 16 0
3.2550001 0.023 -0.18000001 39 16 0
3.26 0.022 -0.17 32 16 0
3.2539999 0.021 -0.15899999 27 16 0
3.2609999 0.018999999 -0.149 25 16 0
3.2579999 0.017999999 -0.138 23 16 0
3.257 0.017000001 -0.12800001 22 16 0
3.26 0.015 -0.117 21 16 0
3.2590001 0.014 -0.107 21 16 0
3.2609999 0.013 -0.096000001 20 16 0
3.266 0.011 -0.086000003 21 16 0
3.266 0.0099999998 -0.075999998 20 16 0
3.2650001 0.0089999996 -0.064999998 20 16 0
3.2690001 0.0070000002 -0.055 19 16 0
3.2720001 0.0060000001 -0.044 19 16 0
3.2690001 0.0040000002 -0.034000002 18 16 0
3.2690001 0.003 -0.023 19 16 0
3.2709999 0.001 -0.013 19 16 0
3.2720001 0 -0.0020000001 18 16 0
3.2720001 -0.001 0.0070000002 19 16 0
3.2720001 -0.0020000001 0.017999999 19 16 0
3.276 -0.0040000002 0.028000001 19 16 0
3.2739999 -0.0049999999 0.039000001 21 16 0
3.277 -0.0070000002 0.048999999 24 16 0
3.273 -0.0089999996 0.059 27 16 0
3.28 -0.0099999998 0.07 32 16 0
3.279 -0.012 0.081 41 16 0
3.2869999 -0.014 0.090999998 54 16 0
3.2880001 -0.015 0.102 98 16 0
3.2969999 -0.017000001 0.113 150 16 0
3.3 -0.018999999 0.123 150 16 0
3.3050001 -0.021 0.134 150 16 0
3.312 -0.022 0.145 150 16 0
3.316 -0.024 0.156 150 16 0
3.3280001 -0.026000001 0.167 150 16 0
3.3329999 -0.028000001 0.178 150 16 0
3.332 -0.029999999 0.189 150 16 0
3.3429999 -0.032000002 0.2 150 16 0
3.346 -0.034000002 0.211 150 16 0
3.359 -0.035999998 0.222 143 16 0
3.362 -0.037999999 0.233 150 16 0
3.3670001 -0.039999999 0.244 150 16 0
3.3759999 -0.041999999 0.25600001 149 16 0
3.378 -0.044 0.26699999 150 16 0
3.381 -0.046 0.278 148 16 0
3.391 -0.048999999 0.289 148 16 0
3.3959999 -0.050999999 0.301 150 16 0
3.4030001 -0.052999999 0.31200001 150 16 0
3.4070001 -0.055 0.32300001 150 16 0
3.4030001 -0.057 0.33399999 134 16 0
3.385 -0.059 0.34299999 38 16 0
3.3670001 -0.061000001 0.352 36 16 0
3.349 -0.063000001 0.361 35 16 0
3.323 -0.064999998 0.36899999 35 16 0
3.3110001 -0.067000002 0.37799999 35 16 0
3.2920001 -0.068999998 0.38600001 35 16 0
3.2679999 -0.07 0.39399999 35 16 0
3.2520001 -0.071999997 0.40200001 35 16 0
3.2379999 -0.074000001 0.41100001 36 16 0
3.211 -0.075999998 0.417 35 16 0
3.2 -0.078000002 0.426 37 16 0
3.181 -0.079000004 0.43399999 36 16 0
3.1630001 -0.081 0.442 35 16 0
3.145 -0.082999997 0.449 34 16 0
3.128 -0.085000001 0.45699999 33 16 0
3.109 -0.086999997 0.46399999 33 16 0
3.089 -0.089000002 0.47099999 33 16 0
3.0769999 -0.090999998 0.479 34 16 0
3.0569999 -0.092 0.48500001 38 16 0
3.0409999 -0.093999997 0.493 40 16 0
3.027 -0.096000001 0.5 38 16 0
3.0079999 -0.097999997 0.50700003 37 16 0
2.9960001 -0.1 0.514 38 16 0
2.9790001 -0.102 0.52100003 37 16 0
2.967 -0.104 0.528 37 16 0
2.947 -0.105 0.53399998 36 16 0
2.9319999 -0.107 0.54100001 37 16 0
2.921 -0.109 0.54799998 37 16 0
2.9070001 -0.111 0.55500001 39 16 0
2.8870001 -0.113 0.56 38 16 0
2.875 -0.115 0.56699997 39 16 0
2.8599999 -0.116 0.57300001 39 16 0
2.848 -0.118 0.57999998 40 16 0
2.835 -0.12 0.58600003 39 16 0
2.8210001 -0.122 0.59200001 60 16 0
2.8080001 -0.124 0.59899998 62 16 0
2.793 -0.126 0.60399997 68 16 0
2.779 -0.12800001 0.61000001 67 16 0
2.766 -0.13 0.616 69 16 0
2.756 -0.132 0.62300003 73 16 0
2.7449999 -0.134 0.62900001 74 16 0
2.7249999 -0.13500001 0.63300002 70 16 0
2.717 -0.13699999 0.63999999 70 16 0
2.7060001 -0.139 0.64600003 60 16 0
2.687 -0.141 0.64999998 43 16 0
2.6730001 -0.14300001 0.65600002 37 16 0
2.6619999 -0.145 0.66100001 55 16 0
2.6489999 -0.147 0.667 86 16 0
2.6329999 -0.148 0.671 106 16 0
2.6240001 -0.15099999 0.67699999 111 16 0
2.609 -0.152 0.68099999 120 16 0
2.5969999 -0.154 0.68699998 125 16 0
2.586 -0.156 0.69199997 121 16 0
2.5739999 -0.15800001 0.69700003 139 16 0
2.562 -0.16 0.70200002 115 16 0
2.5550001 -0.162 0.708 112 16 0
2.5439999 -0.164 0.713 122 16 0
2.53 -0.16599999 0.71799999 89 16 0
2.52 -0.168 0.72299999 121 16 0
2.5120001 -0.17 0.72899997 110 16 0
2.5020001 -0.17200001 0.73400003 118 16 0
2.4890001 -0.17399999 0.73799998 104 16 0
2.4820001 -0.176 0.74400002 134 16 0
2.4719999 -0.17900001 0.74900001 108 16 0
2.4630001 -0.18099999 0.75400001 123 16 0
2.4519999 -0.183 0.75800002 129 16 0
2.4419999 -0.185 0.76300001 128 16 0
2.431 -0.18700001 0.76700002 123 16 0
2.4230001 -0.189 0.77200001 123 16 0
2.414 -0.191 0.77700001 127 16 0
2.402 -0.193 0.78100002 124 16 0
2.395 -0.19499999 0.78600001 147 16 0
2.3870001 -0.197 0.79100001 133 16 0
2.3759999 -0.199 0.79500002 136 16 0
2.3640001 -0.20100001 0.79900002 128 16 0
2.359 -0.204 0.80400002 141 16 0
2.3499999 -0.206 0.80900002 126 16 0
2.3399999 -0.208 0.81300002 140 16 0
2.3269999 -0.20999999 0.815 136 16 0
2.3180001 -0.212 0.81999999 133 16 0
2.3139999 -0.214 0.82599998 146 16 0
2.3 -0.21600001 0.82800001 138 16 0
2.293 -0.21799999 0.833 140 16 0
2.2850001 -0.221 0.83700001 140 16 0
2.273 -0.222 0.83999997 140 16 0
2.2690001 -0.22499999 0.84500003 149 16 0
2.2550001 -0.227 0.847 150 16 0
2.2479999 -0.229 0.85100001 150 16 0
2.234 -0.23100001 0.85299999 139 16 0
2.2279999 -0.233 0.85799998 150 16 0
2.2179999 -0.235 0.861 143 16 0
2.2160001 -0.23800001 0.86699998 149 16 0
2.2060001 -0.23999999 0.87 145 16 0
2.198 -0.242 0.87300003 144 16 0
2.188 -0.244 0.87599999 150 16 0
2.1800001 -0.24699999 0.88 150 16 0
2.1670001 -0.248 0.88099998 150 16 0
2.164 -0.25099999 0.88700002 150 16 0
2.155 -0.25299999 0.88999999 150 16 0
2.148 -0.25600001 0.89300001 150 16 0
2.1370001 -0.25799999 0.89499998 150 16 0
2.132 -0.25999999 0.89999998 150 16 0
2.1240001 -0.26199999 0.903 150 16 0
2.115 -0.264 0.90499997 150 16 0
2.1110001 -0.26699999 0.91000003 150 16 0
2.105 -0.27000001 0.91399997 150 16 0
2.098 -0.27200001 0.917 150 16 0
2.089 -0.27399999 0.91900003 150 16 0
2.076 -0.27599999 0.92000002 150 16 0
2.0710001 -0.27900001 0.92400002 150 16 0
2.0669999 -0.28099999 0.92799997 150 16 0
2.0580001 -0.28299999 0.93000001 150 16 0
2.0550001 -0.28600001 0.935 150 16 0
2.0450001 -0.28799999 0.93599999 150 16 0
2.0409999 -0.29100001 0.94099998 150 16 0
2.0369999 -0.294 0.94499999 150 16 0
2.027 -0.296 0.94599998 150 16 0
2.0190001 -0.29800001 0.94800001 150 16 0
2.016 -0.301 0.95300001 150 16 0
2.0090001 -0.303 0.95499998 150 16 0
1.998 -0.30500001 0.95499998 150 16 0
1.993 -0.30700001 0.95899999 150 16 0
1.993 -0.31099999 0.96399999 150 16 0
1.984 -0.31299999 0.96499997 150 16 0
1.974 -0.315 0.96600002 150 16 0
1.974 -0.31799999 0.972 150 16 0
1.957 -0.31900001 0.96899998 150 16 0
1.9529999 -0.322 0.972 150 16 0
1.9450001 -0.324 0.97399998 150 16 0
1.943 -0.32699999 0.97799999 150 16 0
1.937 -0.329 0.98000002 150 16 0
1.934 -0.333 0.98400003 150 16 0
1.928 -0.33500001 0.986 150 16 0
1.923 -0.338 0.98799998 150 16 0
1.915 -0.34 0.99000001 150 16 0
1.913 -0.34299999 0.99299997 150 16 0
1.908 -0.345 0.99599999 150 16 0
1.896 -0.347 0.995 150 16 0
1.893 -0.34999999 0.99800003 150 16 0
1.891 -0.35299999 1.002 150 16 0
1.8890001 -0.35600001 1.005 150 16 0
1.876 -0.35699999 1.003 150 16 0
1.872 -0.36000001 1.005 150 16 0
1.87 -0.36300001 1.0089999 150 16 0
1.865 -0.366 1.011 150 16 0
1.862 -0.36899999 1.013 150 16 0
1.8559999 -0.37099999 1.015 150 16 0
1.854 -0.37400001 1.018 150 16 0
1.844 -0.37599999 1.017 150 16 0
1.842 -0.37900001 1.02 150 16 0
1.84 -0.382 1.023 150 16 0
1.837 -0.38499999 1.026 150 16 0
1.8329999 -0.38800001 1.028 150 16 0
1.822 -0.389 1.025 150 16 0
1.8200001 -0.39199999 1.028 150 16 0
1.817 -0.39500001 1.03 150 16 0
1.814 -0.398 1.0319999 150 16 0
1.811 -0.40099999 1.034 150 16 0
1.804 -0.403 1.034 150 16 0
1.802 -0.40599999 1.0369999 150 16 0
1.7970001 -0.40799999 1.0369999 150 16 0
1.798 -0.412 1.041 150 16 0
1.795 -0.41499999 1.043 150 16 0
1.791 -0.41800001 1.044 150 16 0
1.795 -0.42199999 1.05 150 16 0
1.786 -0.42300001 1.048 150 16 0
1.786 -0.42699999 1.051 150 16 0
1.779 -0.42899999 1.05 150 16 0
1.775 -0.43099999 1.051 150 16 0
1.772 -0.43399999 1.051 150 16 0
1.767 -0.43599999 1.052 150 16 0
1.767 -0.44 1.054 150 16 0
1.76 -0.44100001 1.053 150 16 0
1.762 -0.44499999 1.057 150 16 0
1.756 -0.447 1.056 150 16 0
1.755 -0.44999999 1.058 150 16 0
1.753 -0.45300001 1.059 150 16 0
1.75 -0.456 1.0599999 150 16 0
1.749 -0.45899999 1.062 150 16 0
1.747 -0.46200001 1.062 150 16 0
1.7410001 -0.46399999 1.061 150 16 0
1.745 -0.46799999 1.0650001 150 16 0
1.738 -0.46900001 1.063 150 16 0
1.734 -0.472 1.063 150 16 0
1.7359999 -0.47600001 1.066 150 16 0
1.738 -0.479 1.069 150 16 0
1.734 -0.48100001 1.068 150 16 0
1.729 -0.48300001 1.066 150 16 0
1.7309999 -0.48699999 1.069 150 16 0
1.727 -0.48899999 1.068 150 16 0
1.73 -0.493 1.072 150 16 0
1.724 -0.495 1.069 150 16 0
1.726 -0.498 1.072 150 16 0
1.727 -0.50199997 1.073 150 16 0
1.728 -0.505 1.075 150 16 0
1.727 -0.50800002 1.075 150 16 0
1.726 -0.50999999 1.075 150 16 0
1.73 -0.51499999 1.079 147 16 0
1.734 -0.51899999 1.082 116 16 0
1.738 -0.523 1.085 88 16 0
1.742 -0.52700001 1.0880001 84 16 0
1.743 -0.52999997 1.089 70 16 0
1.749 -0.53500003 1.0930001 66 19 0
1.75 -0.53799999 1.094 65 16 0
1.755 -0.54299998 1.098 59 16 0
1.757 -0.546 1.099 60 16 0
1.7589999 -0.54900002 1.1 60 16 0
1.762 -0.55299997 1.102 60 16 0
1.7640001 -0.55599999 1.103 60 16 0
1.766 -0.55900002 1.104 60 16 0
1.77 -0.56300002 1.1059999 60 16 0
1.771 -0.56599998 1.1059999 60 16 0
1.773 -0.56999999 1.107 63 16 0
1.773 -0.57200003 1.107 58 16 0
1.78 -0.57700002 1.11 56 19 0
1.7819999 -0.57999998 1.1109999 54 16 0
1.7819999 -0.58200002 1.11 54 16 0
1.7819999 -0.58499998 1.109 51 16 0
1.7819999 -0.58700001 1.108 48 16 0
1.783 -0.58999997 1.107 49 16 0
1.786 -0.59299999 1.108 51 16 0
1.7869999 -0.59500003 1.107 47 16 0
1.79 -0.59799999 1.108 45 16 0
1.791 -0.60100001 1.107 45 16 0
1.793 -0.60299999 1.1059999 46 16 0
1.793 -0.60500002 1.105 45 16 0
1.793 -0.60699999 1.103 47 16 0
1.7920001 -0.60900003 1.101 45 16 0
1.794 -0.611 1.1 45 16 0
1.794 -0.61299998 1.098 46 16 0
1.789 -0.61299998 1.0930001 45 16 0
1.786 -0.61400002 1.089 43 16 0
1.7920001 -0.61799997 1.091 47 16 0
1.791 -0.61900002 1.087 49 16 0
1.7869999 -0.61900002 1.0829999 48 16 0
1.788 -0.62099999 1.081 51 16 0
1.788 -0.62199998 1.0779999 52 16 0
1.788 -0.62400001 1.076 54 16 0
1.7869999 -0.62400001 1.072 59 16 0
1.7869999 -0.625 1.069 68 16 0
1.784 -0.62599999 1.064 79 16 0
1.78 -0.62599999 1.0599999 99 16 0
1.7819999 -0.62699997 1.058 126 16 0
1.783 -0.62900001 1.0549999 150 16 0
1.7869999 -0.63099998 1.054 150 16 0
1.788 -0.63200003 1.052 150 16 0
1.79 -0.634 1.05 150 16 0
1.794 -0.63599998 1.049 150 16 0
1.788 -0.634 1.0420001 150 16 0
1.7970001 -0.63800001 1.044 150 16 0
1.803 -0.64099997 1.043 150 16 0
1.809 -0.64399999 1.043 150 16 0
1.8099999 -0.64499998 1.04 150 16 0
1.8150001 -0.64700001 1.039 150 16 0
1.818 -0.648 1.0369999 150 16 0
1.8200001 -0.64999998 1.034 150 16 0
1.826 -0.65200001 1.034 150 16 0
1.8279999 -0.653 1.031 150 16 0
1.835 -0.65499997 1.031 150 16 0
1.8380001 -0.65700001 1.028 150 16 0
1.84 -0.65700001 1.025 150 16 0
1.844 -0.65899998 1.023 150 16 0
1.85 -0.66100001 1.022 150 16 0
1.858 -0.66399997 1.022 150 16 0
1.863 -0.66500002 1.02 150 16 0
1.87 -0.667 1.02 150 16 0
1.872 -0.66799998 1.016 150 16 0
1.874 -0.66799998 1.012 150 16 0
1.883 -0.671 1.012 150 16 0
1.89 -0.67299998 1.011 150 16 0
1.892 -0.67299998 1.008 150 16 0
1.904 -0.67699999 1.0089999 142 16 0
1.9119999 -0.67900002 1.008 99 16 0
1.9170001 -0.68000001 1.006 97 16 0
1.919 -0.68000001 1.002 128 16 0
1.923 -0.68099999 0.99900001 150 16 0
1.927 -0.68099999 0.99599999 150 16 0
1.933 -0.68199998 0.99400002 150 16 0
1.9400001 -0.68400002 0.99199998 150 16 0
1.944 -0.68400002 0.98799998 150 16 0
1.949 -0.685 0.986 150 16 0
1.954 -0.685 0.98299998 150 16 0
1.962 -0.68699998 0.98199999 150 16 0
1.965 -0.68699998 0.977 150 16 0
1.971 -0.68800002 0.97500002 150 16 0
1.976 -0.68800002 0.972 150 16 0
1.9859999 -0.69 0.97100002 150 16 0
1.992 -0.69099998 0.96799999 150 16 0
1.997 -0.69099998 0.96499997 150 16 0
2.0050001 -0.69199997 0.963 150 16 0
2.0120001 -0.69300002 0.96100003 150 16 0
2.0179999 -0.69300002 0.958 150 16 0
2.023 -0.69300002 0.95499998 150 16 0
2.027 -0.69300002 0.94999999 142 16 0
2.0420001 -0.69599998 0.95099998 144 16 0
2.0469999 -0.69599998 0.94800001 145 16 0
2.05 -0.69499999 0.94300002 139 16 0
2.0550001 -0.69400001 0.93900001 132 16 0
2.0650001 -0.69599998 0.93800002 135 16 0
2.073 -0.69599998 0.935 124 16 0
2.0810001 -0.69700003 0.93300003 137 16 0
2.089 -0.69700003 0.93000001 126 16 0
2.0940001 -0.69599998 0.926 127 16 0
2.0999999 -0.69599998 0.92299998 118 16 0
2.1059999 -0.69599998 0.91900003 123 16 0
2.119 -0.69700003 0.91799998 120 16 0
2.128 -0.69800001 0.91600001 132 16 0
2.131 -0.69700003 0.91100001 130 16 0
2.142 -0.69700003 0.90899998 125 16 0
2.145 -0.69599998 0.90399998 124 16 0
2.1570001 -0.69700003 0.90200001 135 16 0
2.164 -0.69599998 0.89899999 138 16 0
2.1670001 -0.69400001 0.89300001 125 16 0
2.1789999 -0.69599998 0.89200002 136 16 0
2.184 -0.69400001 0.88700002 145 16 0
2.1900001 -0.69300002 0.88300002 150 16 0
2.204 -0.69400001 0.88200003 150 16 0
2.2079999 -0.69300002 0.87699997 150 16 0
2.214 -0.69099998 0.87300003 150 16 0
2.2179999 -0.68900001 0.86799997 148 16 0
2.223 -0.68800002 0.86299998 104 16 0
2.223 -0.685 0.85600001 77 16 0
2.2320001 -0.68400002 0.85299999 67 16 0
2.2390001 -0.68300003 0.84899998 68 16 0
2.237 -0.67900002 0.84100002 57 16 0
2.2390001 -0.676 0.83499998 63 16 0
2.2420001 -0.67400002 0.82999998 63 16 0
2.2449999 -0.671 0.824 62 16 0
2.2479999 -0.66900003 0.81900001 59 16 0
2.256 -0.667 0.815 66 16 0
2.257 -0.66399997 0.80900002 57 16 0
2.26 -0.66100001 0.80299997 62 16 0
2.2650001 -0.65899998 0.79799998 63 16 0
2.2679999 -0.65600002 0.792 59 16 0
2.2720001 -0.65399998 0.787 60 16 0
2.277 -0.65100002 0.78200001 57 16 0
2.277 -0.648 0.77499998 57 16 0
2.283 -0.64499998 0.76999998 57 16 0
2.2869999 -0.64300001 0.76499999 41 16 0
2.2909999 -0.63999999 0.75999999 41 16 0
2.2939999 -0.63700002 0.75400001 41 16 0
2.2980001 -0.634 0.74800003 44 16 0
2.3 -0.63 0.74199998 39 16 0
2.312 -0.63 0.73900002 39 16 0
2.3110001 -0.625 0.73199999 36 16 0
2.3139999 -0.62199998 0.727 39 16 0
2.3169999 -0.61900002 0.72100002 37 16 0
2.3280001 -0.61799997 0.71700001 37 16 0
2.3280001 -0.61299998 0.71100003 39 16 0
2.335 -0.611 0.70599997 34 16 0
2.3410001 -0.60799998 0.70099998 37 16 0
2.342 -0.60399997 0.69499999 32 16 0
2.3499999 -0.602 0.69 32 16 0
2.3510001 -0.59799999 0.68400002 38 16 0
2.3559999 -0.59500003 0.67900002 32 16 0
2.365 -0.59299999 0.67400002 33 16 0
2.369 -0.58899999 0.66900003 36 16 0
2.3699999 -0.58499998 0.662 35 16 0
2.378 -0.583 0.65799999 34 16 0
2.381 -0.579 0.65200001 33 16 0
2.388 -0.57599998 0.64700001 32 16 0
2.392 -0.57200003 0.64099997 32 16 0
2.395 -0.56800002 0.63599998 32 16 0
2.4059999 -0.56599998 0.63200003 31 16 0
2.411 -0.56300002 0.62599999 32 16 0
2.4159999 -0.55900002 0.62099999 33 16 0
2.418 -0.55500001 0.61500001 32 16 0
2.428 -0.55199999 0.61000001 31 16 0
2.434 -0.54900002 0.60500002 33 16 0
2.4419999 -0.546 0.60000002 32 16 0
2.444 -0.542 0.59399998 32 16 0
2.4519999 -0.53799999 0.58899999 32 16 0
2.457 -0.53500003 0.58399999 29 16 0
2.4630001 -0.53100002 0.579 31 16 0
2.4660001 -0.52700001 0.57300001 32 16 0
2.4749999 -0.52399999 0.56800002 33 16 0
2.483 -0.51999998 0.56300002 31 16 0
2.49 -0.51700002 0.55800003 32 16 0
2.484 -0.51099998 0.55000001 30 16 0
2.5009999 -0.509 0.54699999 31 16 0
2.5090001 -0.505 0.542 32 16 0
2.5139999 -0.50099999 0.53600001 31 16 0
2.5179999 -0.49700001 0.52999997 31 16 0
2.5280001 -0.49399999 0.52600002 32 16 0
2.536 -0.49000001 0.52100003 28 16 0
2.543 -0.486 0.51499999 28 16 0
2.5480001 -0.48199999 0.50999999 28 16 0
2.553 -0.477 0.50400001 27 16 0
2.562 -0.47299999 0.49900001 28 16 0
2.5669999 -0.46900001 0.493 28 16 0
2.5739999 -0.465 0.48800001 28 16 0
2.579 -0.46000001 0.48199999 25 16 0
2.5899999 -0.45699999 0.477 25 16 0
2.599 -0.45300001 0.472 23 16 0
2.608 -0.449 0.46700001 24 16 0
2.618 -0.44499999 0.46200001 24 16 0
2.6170001 -0.43900001 0.45500001 23 16 0
2.6289999 -0.43599999 0.45100001 25 16 0
2.642 -0.43200001 0.44600001 24 16 0
2.645 -0.42699999 0.44 24 16 0
2.6489999 -0.42199999 0.43399999 25 16 0
2.6589999 -0.41800001 0.42899999 24 16 0
2.6689999 -0.414 0.42399999 24 16 0
2.674 -0.40900001 0.41800001 24 16 0
2.6830001 -0.40400001 0.412 24 16 0
2.688 -0.39899999 0.40599999 23 16 0
2.6949999 -0.39399999 0.40099999 23 16 0
2.7019999 -0.38999999 0.39500001 24 16 0
2.717 -0.38600001 0.38999999 24 16 0
2.723 -0.38100001 0.384 24 16 0
2.73 -0.37599999 0.37799999 24 16 0
2.737 -0.37099999 0.373 23 16 0
2.7479999 -0.366 0.36700001 24 16 0
2.756 -0.361 0.36199999 24 16 0
2.7620001 -0.35600001 0.35600001 23 16 0
2.7750001 -0.35100001 0.35100001 23 16 0
2.783 -0.34599999 0.345 24 16 0
2.7850001 -0.34 0.338 23 16 0
2.8 -0.336 0.333 24 16 0
2.809 -0.331 0.32800001 24 16 0
2.8169999 -0.32499999 0.322 24 16 0
2.829 -0.31999999 0.31600001 25 16 0
2.832 -0.31400001 0.31 24 16 0
2.849 -0.31 0.30500001 24 16 0
2.855 -0.30399999 0.29899999 23 16 0
2.865 -0.29899999 0.29300001 25 16 0
2.875 -0.29300001 0.287 23 16 0
2.8829999 -0.28799999 0.28099999 24 16 0
2.8940001 -0.28200001 0.27500001 24 16 0
2.902 -0.27700001 0.26899999 24 16 0
2.9189999 -0.27200001 0.264 24 16 0
2.9289999 -0.266 0.257 23 16 0
2.937 -0.25999999 0.25099999 23 16 0
2.948 -0.25400001 0.245 23 16 0
2.9579999 -0.248 0.23899999 23 16 0
2.967 -0.242 0.233 23 16 0
2.9790001 -0.236 0.227 23 16 0
2.99 -0.23100001 0.221 23 16 0
2.997 -0.22400001 0.214 24 16 0
3.0190001 -0.219 0.20900001 23 16 0
3.0239999 -0.212 0.20200001 24 16 0
3.04 -0.206 0.19599999 23 16 0
3.052 -0.2 0.19 23 16 0
3.066 -0.19400001 0.184 23 16 0
3.079 -0.18799999 0.178 23 16 0
3.0880001 -0.18099999 0.171 24 16 0
3.102 -0.175 0.16500001 23 16 0
3.1129999 -0.168 0.15800001 23 16 0
3.1259999 -0.162 0.152 24 16 0
3.1389999 -0.155 0.146 24 16 0
3.1530001 -0.148 0.139 24 16 0
3.168 -0.142 0.132 24 16 0
3.1830001 -0.13500001 0.126 24 16 0
3.191 -0.12800001 0.119 24 16 0
3.207 -0.121 0.113 25 16 0
3.217 -0.114 0.106 23 16 0
3.23 -0.107 0.098999999 24 16 0
3.244 -0.1 0.092 25 16 0
3.2550001 -0.092 0.085000001 25 16 0
3.2709999 -0.085000001 0.078000002 25 16 0
3.283 -0.077 0.071000002 25 16 0
3.293 -0.07 0.064000003 45 16 0
3.2880001 -0.061999999 0.057 128 16 0
3.2920001 -0.054000001 0.050000001 84 16 0
3.2780001 -0.046 0.041999999 54 16 0
3.2690001 -0.037999999 0.035 68 16 0
3.2609999 -0.029999999 0.028000001 72 16 0
3.2550001 -0.023 0.021 47 16 0
3.2509999 -0.015 0.013 23 16 0
3.267 -0.0070000002 0.0060000001 15 16 0
3.2780001 0 0 15 16 0
3.2939999 0.0080000004 -0.0070000002 15 16 0
3.313 0.016000001 -0.014 17 16 0
3.329 0.024 -0.021 29 16 0
3.316 0.032000002 -0.028999999 44 16 0
3.3010001 0.039999999 -0.035999998 47 16 0
3.3010001 0.048 -0.043000001 42 16 0
3.2950001 0.056000002 -0.050000001 37 16 0
3.286 0.063000001 -0.057 46 16 0
3.279 0.071000002 -0.063000001 48 16 0
3.2720001 0.079000004 -0.07 48 16 0
3.263 0.086999997 -0.077 50 16 0
3.2590001 0.094999999 -0.083999999 51 16 0
3.2509999 0.102 -0.090000004 52 16 0
3.2449999 0.11 -0.097000003 52 16 0
3.2390001 0.118 -0.104 51 16 0
3.233 0.126 -0.111 52 16 0
3.2260001 0.133 -0.117 51 16 0
3.2149999 0.141 -0.123 61 16 0
3.2079999 0.148 -0.13 55 16 0
3.1989999 0.156 -0.13600001 59 16 0
3.194 0.164 -0.14300001 60 16 0
3.187 0.171 -0.149 53 16 0
3.1800001 0.17900001 -0.155 51 16 0
3.174 0.186 -0.162 50 16 0
3.1659999 0.19400001 -0.168 58 16 0
3.1600001 0.20100001 -0.17399999 51 16 0
3.158 0.20900001 -0.18000001 67 16 0
3.1459999 0.21600001 -0.186 51 16 0
3.141 0.22400001 -0.192 52 16 0
3.132 0.23100001 -0.198 61 16 0
3.1210001 0.23800001 -0.204 62 16 0
3.119 0.24600001 -0.20999999 65 16 0
3.1129999 0.25299999 -0.21600001 56 16 0
3.108 0.26100001 -0.222 64 16 0
3.1059999 0.26899999 -0.228 62 16 0
3.0929999 0.27500001 -0.234 68 16 0
3.0880001 0.28299999 -0.23999999 70 16 0
3.079 0.28999999 -0.245 66 16 0
3.0769999 0.29800001 -0.25099999 71 16 0
3.0680001 0.30500001 -0.257 70 16 0
3.056 0.31099999 -0.26199999 70 16 0
3.053 0.31900001 -0.26800001 75 16 0
3.0469999 0.32600001 -0.273 61 16 0
3.0420001 0.33399999 -0.27900001 73 16 0
3.0309999 0.34 -0.28400001 75 16 0
3.03 0.34799999 -0.28999999 75 16 0
3.0220001 0.35499999 -0.29499999 59 16 0
3.016 0.36199999 -0.301 75 16 0
3.0109999 0.36899999 -0.30599999 71 16 0
3.006 0.377 -0.31200001 84 16 0
2.9949999 0.38299999 -0.31600001 89 16 0
2.9920001 0.391 -0.322 82 16 0
2.9849999 0.398 -0.32699999 82 16 0
2.9790001 0.405 -0.33199999 86 16 0
2.973 0.412 -0.33700001 83 16 0
2.9660001 0.419 -0.34200001 95 16 0
2.961 0.426 -0.34799999 80 16 0
2.9549999 0.433 -0.35299999 99 16 0
2.948 0.44 -0.35800001 101 16 0
2.9430001 0.447 -0.36199999 91 16 0
2.9400001 0.454 -0.368 93 16 0
2.931 0.461 -0.37200001 98 16 0
2.925 0.46799999 -0.377 106 16 0
2.9130001 0.47400001 -0.38100001 128 16 0
2.905 0.47999999 -0.38600001 115 16 0
2.9030001 0.48800001 -0.391 122 16 0
2.8989999 0.495 -0.396 130 16 0
2.895 0.50199997 -0.40099999 126 16 0
2.8870001 0.509 -0.405 126 16 0
2.8829999 0.51599997 -0.41 138 16 0
2.872 0.52200001 -0.414 121 16 0
2.8699999 0.52999997 -0.419 136 16 0
2.8610001 0.53600001 -0.42300001 135 16 0
2.855 0.542 -0.428 136 16 0
2.8469999 0.54900002 -0.43200001 126 16 0
2.845 0.55599999 -0.43700001 122 16 0
2.839 0.56300002 -0.44100001 124 16 0
2.835 0.56999999 -0.44600001 135 16 0
2.8239999 0.57599998 -0.449 128 16 0
2.8269999 0.58399999 -0.45500001 131 16 0
2.822 0.59100002 -0.45899999 144 16 0
2.813 0.597 -0.463 149 16 0
2.809 0.60500002 -0.46700001 149 16 0
2.8039999 0.611 -0.472 137 16 0
2.802 0.61900002 -0.47600001 147 16 0
2.789 0.62400001 -0.479 145 16 0
2.789 0.63200003 -0.484 150 16 0
2.78 0.63800001 -0.48800001 150 16 0
2.7709999 0.64399999 -0.491 134 16 0
2.767 0.65100002 -0.495 150 16 0
2.7650001 0.65799999 -0.5 144 16 0
2.7620001 0.66500002 -0.50400001 150 16 0
2.7520001 0.671 -0.50700003 150 16 0
2.7460001 0.67699999 -0.51099998 150 16 0
2.744 0.685 -0.51499999 150 16 0
2.7390001 0.69099998 -0.51899999 150 16 0
2.727 0.69599998 -0.52200001 150 16 0
2.7279999 0.70499998 -0.52600002 150 16 0
2.7219999 0.71100003 -0.52999997 150 16 0
2.7160001 0.71700001 -0.53299999 150 16 0
2.707 0.72299999 -0.53600001 150 16 0
2.7079999 0.73100001 -0.54100001 150 16 0
2.701 0.73699999 -0.54400003 150 16 0
2.6960001 0.74400002 -0.54799998 150 16 0
2.694 0.75099999 -0.55199999 150 16 0
2.687 0.75700003 -0.55500001 150 16 0
2.6789999 0.76300001 -0.55800003 150 16 0
2.6760001 0.76999998 -0.56099999 150 16 0
2.6719999 0.77700001 -0.565 150 16 0
2.665 0.78299999 -0.56800002 150 16 0
2.6619999 0.79000002 -0.57200003 150 16 0
2.6570001 0.796 -0.57499999 150 16 0
2.654 0.80299997 -0.57800001 150 16 0
2.645 0.80900002 -0.58099997 150 16 0
2.6389999 0.815 -0.58399999 150 16 0
2.6359999 0.82200003 -0.58700001 150 16 0
2.632 0.829 -0.58999997 150 16 0
2.6259999 0.83499998 -0.59299999 150 16 0
2.6210001 0.84100002 -0.59600002 150 16 0
2.618 0.84799999 -0.59899998 150 16 0
2.6140001 0.85500002 -0.602 150 16 0
2.608 0.861 -0.60500002 150 16 0
2.6059999 0.86799997 -0.60799998 150 16 0
2.602 0.875 -0.611 150 16 0
2.596 0.88099998 -0.61400002 150 16 0
2.592 0.88700002 -0.61699998 150 16 0
2.5899999 0.89499998 -0.62 150 16 0
2.5869999 0.90200001 -0.62300003 150 16 0
2.579 0.90700001 -0.625 150 16 0
2.5710001 0.912 -0.62599999 150 16 0
2.5710001 0.92000002 -0.63 150 16 0
2.559 0.92299998 -0.63099998 150 16 0
2.5550001 0.93000001 -0.63300002 150 16 0
2.552 0.93699998 -0.63599998 150 16 0
2.5469999 0.94300002 -0.63800001 150 16 0
2.5510001 0.95300001 -0.64300001 139 16 0
2.566 0.96600002 -0.64999998 150 16 0
2.55 0.96799999 -0.64899999 150 16 0
2.533 0.96899998 -0.648 150 16 0
2.53 0.97600001 -0.65100002 150 16 0
2.5250001 0.98199999 -0.653 150 16 0
2.52 0.98799998 -0.65399998 150 16 0
2.5190001 0.995 -0.65700001 150 16 0
2.516 1.002 -0.66000003 150 16 0
2.5079999 1.007 -0.66100001 150 16 0
2.5050001 1.013 -0.66299999 150 16 0
2.5020001 1.02 -0.66500002 150 16 0
2.4920001 1.024 -0.66600001 150 16 0
2.4949999 1.033 -0.66900003 150 16 0
2.4879999 1.038 -0.67000002 150 16 0
2.4849999 1.044 -0.67199999 150 16 0
2.48 1.05 -0.67400002 150 16 0
2.4790001 1.057 -0.676 150 16 0
2.4719999 1.062 -0.67699999 150 16 0
2.471 1.069 -0.67900002 150 16 0
2.4660001 1.075 -0.68000001 150 16 0
2.461 1.081 -0.68199998 150 16 0
2.4590001 1.087 -0.68300003 150 16 0
2.4519999 1.092 -0.68400002 150 16 0
2.4530001 1.1 -0.68699998 150 16 0
2.4489999 1.1059999 -0.68800002 150 16 0
2.4430001 1.1109999 -0.68800002 150 16 0
2.4430001 1.118 -0.69099998 150 16 0
2.437 1.123 -0.69099998 150 16 0
2.4330001 1.1289999 -0.69199997 150 16 0
2.428 1.1339999 -0.69300002 150 16 0
2.427 1.141 -0.69499999 150 16 0
2.4219999 1.146 -0.69499999 150 16 0
2.418 1.151 -0.69599998 150 16 0
2.4159999 1.158 -0.69700003 150 16 0
2.4119999 1.163 -0.69800001 150 16 0
2.4070001 1.168 -0.69800001 150 16 0
2.408 1.176 -0.69999999 139 16 0
2.404 1.181 -0.70099998 150 16 0
2.3989999 1.186 -0.70099998 150 16 0
2.3929999 1.1900001 -0.70099998 150 16 0
2.392 1.197 -0.70200002 150 16 0
2.388 1.202 -0.70200002 150 16 0
2.388 1.209 -0.70300001 139 16 0
2.3859999 1.215 -0.704 136 16 0
2.382 1.22 -0.704 144 16 0
2.3759999 1.224 -0.704 117 16 0
2.3710001 1.229 -0.70300001 150 16 0
2.3699999 1.235 -0.704 150 16 0
2.3699999 1.242 -0.70499998 150 16 0
2.3659999 1.2460001 -0.70499998 150 16 0
2.3640001 1.253 -0.70599997 150 16 0
2.3599999 1.257 -0.70499998 150 16 0
2.3540001 1.26 -0.704 150 16 0
2.3529999 1.266 -0.70499998 150 16 0
2.3529999 1.273 -0.70499998 150 16 0
2.349 1.277 -0.70499998 150 16 0
2.3429999 1.281 -0.70300001 150 16 0
2.3440001 1.2869999 -0.704 150 16 0
2.3410001 1.2920001 -0.704 150 16 0
2.336 1.296 -0.70300001 107 16 0
2.335 1.302 -0.70300001 32 16 0
2.3340001 1.307 -0.70300001 35 16 0
2.3310001 1.312 -0.70200002 139 16 0
2.329 1.316 -0.70099998 150 16 0
2.3269999 1.321 -0.70099998 123 16 0
2.323 1.325 -0.69999999 33 16 0
2.3210001 1.329 -0.699 32 16 0
2.3210001 1.335 -0.699 111 16 0
2.3169999 1.339 -0.69800001 150 16 0
2.3169999 1.345 -0.69700003 150 16 0
2.3150001 1.349 -0.69599998 150 16 0
2.313 1.353 -0.69499999 150 16 0
2.312 1.358 -0.69499999 150 16 0
2.3080001 1.3609999 -0.69300002 150 16 0
2.3069999 1.3660001 -0.69199997 150 16 0
2.303 1.369 -0.69 150 16 0
2.3010001 1.373 -0.68900001 133 16 0
2.3010001 1.378 -0.68800002 37 16 0
2.299 1.381 -0.68699998 27 16 0
2.302 1.388 -0.68699998 26 16 0
2.2969999 1.39 -0.68400002 23 16 0
2.2980001 1.395 -0.68400002 23 16 0
2.293 1.397 -0.68099999 28 16 0
2.2920001 1.401 -0.68000001 38 16 0
2.296 1.4069999 -0.67900002 68 16 0
2.2939999 1.411 -0.67799997 73 16 0
2.2880001 1.411 -0.67400002 71 16 0
2.2839999 1.413 -0.67199999 91 16 0
2.283 1.4170001 -0.67000002 108 16 0
2.283 1.42 -0.66799998 127 16 0
2.2839999 1.425 -0.667 144 16 0
2.2839999 1.429 -0.66600001 150 16 0
2.28 1.4299999 -0.66299999 150 16 0
2.2780001 1.433 -0.66000003 150 16 0
2.279 1.436 -0.65899998 150 16 0
2.277 1.438 -0.65600002 147 16 0
2.279 1.443 -0.65499997 150 16 0
2.279 1.446 -0.653 150 16 0
2.277 1.448 -0.64999998 150 16 0
2.276 1.45 -0.648 150 16 0
2.277 1.4529999 -0.64600003 150 16 0
2.273 1.454 -0.64300001 145 16 0
2.273 1.456 -0.63999999 120 16 0
2.276 1.461 -0.63800001 115 16 0
2.276 1.4630001 -0.63599998 108 16 0
2.2709999 1.4630001 -0.63200003 122 16 0
2.277 1.469 -0.63099998 122 16 0
2.276 1.47 -0.62800002 127 16 0
2.276 1.472 -0.62599999 117 16 0
2.279 1.475 -0.62400001 88 16 0
2.2739999 1.474 -0.62 38 16 0
2.277 1.478 -0.61799997 29 16 0
2.279 1.48 -0.61500001 24 16 0
2.283 1.484 -0.61299998 24 16 0
2.283 1.4859999 -0.61000001 31 16 0
2.2809999 1.4859999 -0.60699999 35 16 0
2.28 1.4859999 -0.60399997 34 16 0
2.283 1.489 -0.60100001 34 16 0
2.2839999 1.49 -0.59799999 31 16 0
2.2850001 1.492 -0.59500003 29 16 0
2.2880001 1.494 -0.59299999 29 16 0
2.2850001 1.493 -0.58899999 31 16 0
2.2869999 1.494 -0.58600003 35 16 0
2.29 1.497 -0.583 39 16 0
2.2909999 1.497 -0.57999998 49 16 0
2.2850001 1.494 -0.57599998 48 16 0
2.289 1.495 -0.57300001 63 16 0
2.289 1.4960001 -0.56900001 61 16 0
2.29 1.4960001 -0.56599998 64 16 0
2.2920001 1.4960001 -0.56300002 58 16 0
2.2920001 1.4960001 -0.55900002 58 16 0
2.293 1.4960001 -0.55599999 80 16 0
2.2980001 1.498 -0.55299997 114 16 0
2.3 1.499 -0.55000001 127 16 0
2.2969999 1.495 -0.546 132 16 0
2.303 1.498 -0.54299998 121 16 0
2.3010001 1.4960001 -0.53899997 139 16 0
2.303 1.495 -0.53500003 139 16 0
2.3039999 1.495 -0.53200001 141 16 0
2.3110001 1.497 -0.52999997 148 16 0
2.3069999 1.493 -0.52499998 137 16 0
2.313 1.495 -0.52200001 101 16 0
2.3150001 1.494 -0.51800001 35 16 0
2.3169999 1.493 -0.51499999 22 16 0
2.326 1.497 -0.51300001 21 16 0
2.323 1.493 -0.50800002 35 16 0
2.3239999 1.4910001 -0.50400001 76 16 0
2.3280001 1.4910001 -0.50099999 83 16 0
2.332 1.4910001 -0.498 61 16 0
2.3269999 1.485 -0.493 37 16 0
2.336 1.487 -0.49000001 38 16 0
2.3329999 1.483 -0.486 26 16 0
2.336 1.482 -0.48199999 24 16 0
2.3410001 1.4809999 -0.479 28 16 0
2.3440001 1.48 -0.47499999 54 16 0
2.342 1.475 -0.47099999 136 16 0
2.3469999 1.475 -0.46799999 150 16 0
2.3559999 1.477 -0.465 150 16 0
2.3529999 1.471 -0.461 150 16 0
2.355 1.469 -0.45699999 150 16 0
2.359 1.4680001 -0.45300001 150 16 0
2.362 1.465 -0.449 150 16 0
2.3659999 1.4630001 -0.44600001 150 16 0
2.3659999 1.46 -0.442 150 16 0
2.3710001 1.4579999 -0.43799999 150 16 0
2.3729999 1.455 -0.43399999 150 16 0
2.378 1.4529999 -0.43099999 150 16 0
2.3759999 1.447 -0.426 150 16 0
2.3829999 1.447 -0.42399999 150 16 0
2.385 1.444 -0.41999999 150 16 0
2.3859999 1.439 -0.41499999 150 16 0
2.3900001 1.437 -0.412 150 16 0
2.3940001 1.434 -0.40799999 150 16 0
2.3970001 1.431 -0.405 150 16 0
2.4000001 1.428 -0.40099999 150 16 0
2.4030001 1.424 -0.39700001 150 16 0
2.405 1.42 -0.39300001 150 16 0
2.4089999 1.4170001 -0.38999999 150 16 0
2.4159999 1.415 -0.38699999 150 16 0
2.414 1.409 -0.382 150 16 0
2.424 1.409 -0.38 150 16 0
2.428 1.405 -0.37599999 150 16 0
2.4300001 1.401 -0.37200001 150 16 0
2.434 1.397 -0.368 150 16 0
2.438 1.3940001 -0.36500001 150 16 0
2.4419999 1.3890001 -0.361 150 16 0
2.4449999 1.385 -0.35800001 150 16 0
2.45 1.382 -0.354 150 16 0
2.451 1.376 -0.34999999 150 16 0
2.454 1.3710001 -0.347 150 16 0
2.46 1.368 -0.34299999 150 16 0
2.4660001 1.365 -0.34 150 16 0
2.4690001 1.36 -0.33700001 150 16 0
2.473 1.3559999 -0.333 150 16 0
2.4760001 1.351 -0.33000001 150 16 0
2.48 1.346 -0.32600001 150 16 0
2.4849999 1.342 -0.32300001 150 16 0
2.4879999 1.337 -0.31900001 150 16 0
2.4909999 1.332 -0.31600001 150 16 0
2.4960001 1.327 -0.31200001 150 16 0
2.4990001 1.322 -0.30899999 150 16 0
2.5009999 1.316 -0.30500001 150 16 0
2.5079999 1.313 -0.30199999 150 16 0
2.5120001 1.307 -0.29899999 150 16 0
2.5179999 1.303 -0.296 150 16 0
2.5209999 1.298 -0.292 150 16 0
2.526 1.293 -0.289 150 16 0
2.527 1.286 -0.28600001 150 16 0
2.5339999 1.2819999 -0.28299999 150 16 0
2.539 1.277 -0.27900001 150 16 0
2.543 1.271 -0.27599999 150 16 0
2.546 1.266 -0.273 150 16 0
2.549 1.26 -0.26899999 150 16 0
2.5550001 1.255 -0.266 150 16 0
2.556 1.247 -0.26300001 150 16 0
2.559 1.2410001 -0.25999999 150 16 0
2.5650001 1.2359999 -0.257 150 16 0
2.5699999 1.2309999 -0.25400001 150 16 0
2.5739999 1.225 -0.25099999 150 16 0
2.5799999 1.22 -0.248 150 16 0
2.585 1.214 -0.245 150 16 0
2.5880001 1.2079999 -0.242 150 16 0
2.5899999 1.2 -0.23800001 150 16 0
2.596 1.1950001 -0.235 150 16 0
2.602 1.1900001 -0.233 150 16 0
2.6070001 1.184 -0.23 150 16 0
2.6159999 1.1799999 -0.227 150 16 0
2.612 1.17 -0.22400001 150 16 0
2.619 1.165 -0.221 150 16 0
2.625 1.159 -0.21799999 150 16 0
2.6289999 1.153 -0.215 150 16 0
2.632 1.146 -0.212 150 16 0
2.638 1.14 -0.20999999 150 16 0
2.641 1.133 -0.207 150 16 0
2.6500001 1.128 -0.204 150 16 0
2.651 1.12 -0.20100001 150 16 0
2.6589999 1.115 -0.199 150 16 0
2.6619999 1.108 -0.19599999 150 16 0
2.6659999 1.101 -0.193 150 16 0
2.675 1.096 -0.191 150 16 0
2.6800001 1.089 -0.18799999 150 16 0
2.678 1.08 -0.185 150 16 0
2.681 1.073 -0.182 150 16 0
2.6900001 1.067 -0.18000001 150 16 0
2.6949999 1.061 -0.177 150 16 0
2.6989999 1.053 -0.175 150 16 0
2.701 1.045 -0.17200001 150 16 0
2.711 1.04 -0.17 150 16 0
2.7130001 1.0319999 -0.167 150 16 0
2.7190001 1.026 -0.16500001 150 16 0
2.7219999 1.018 -0.162 150 16 0
2.727 1.011 -0.16 150 16 0
2.734 1.005 -0.15800001 150 16 0
2.737 0.99699998 -0.155 150 16 0
2.7420001 0.99000001 -0.153 150 16 0
2.7449999 0.98199999 -0.15000001 150 16 0
2.76 0.97799999 -0.149 120 16 0
2.773 0.97399998 -0.147 37 16 0
2.7620001 0.96100003 -0.14399999 144 16 0
2.7679999 0.954 -0.141 150 16 0
2.7690001 0.94499999 -0.139 150 16 0
2.7750001 0.93800002 -0.13699999 150 16 0
2.783 0.93199998 -0.13500001 150 16 0
2.786 0.92400002 -0.132 150 16 0
2.789 0.91500002 -0.13 150 16 0
2.7969999 0.90899998 -0.12800001 150 16 0
2.8010001 0.90100002 -0.126 150 16 0
2.8099999 0.89399999 -0.124 150 16 0
2.813 0.88599998 -0.122 150 16 0
2.816 0.87800002 -0.12 150 16 0
2.8180001 0.86900002 -0.117 150 16 0
2.826 0.86199999 -0.116 150 16 0
2.829 0.85399997 -0.113 150 16 0
2.8369999 0.847 -0.112 150 16 0
2.839 0.838 -0.109 150 16 0
2.842 0.82999998 -0.107 150 16 0
2.849 0.82300001 -0.106 150 16 0
2.8570001 0.81599998 -0.104 150 16 0
2.855 0.80599999 -0.102 150 16 0
2.865 0.79900002 -0.1 150 16 0
2.8729999 0.792 -0.097999997 150 16 0
2.878 0.78399998 -0.096000001 150 16 0
2.881 0.77499998 -0.093999997 150 16 0
2.8889999 0.76700002 -0.093000002 150 16 0
2.8959999 0.75999999 -0.090999998 150 16 0
2.9000001 0.75199997 -0.089000002 150 16 0
2.9070001 0.74400002 -0.086999997 150 16 0
2.908 0.73400003 -0.085000001 146 16 0
2.914 0.72600001 -0.083999999 150 16 0
2.9200001 0.71799999 -0.082000002 150 16 0
2.9219999 0.70899999 -0.079999998 142 16 0
2.924 0.69999999 -0.078000002 146 16 0
2.9360001 0.69300002 -0.077 130 16 0
2.938 0.68400002 -0.075000003 143 16 0
2.947 0.67699999 -0.074000001 137 16 0
2.9519999 0.66799998 -0.071999997 137 16 0
2.9530001 0.65899998 -0.07 137 16 0
2.96 0.64999998 -0.068999998 139 16 0
2.9619999 0.64099997 -0.067000002 150 16 0
2.971 0.63300002 -0.066 139 16 0
2.974 0.62400001 -0.064000003 132 16 0
2.9790001 0.61500001 -0.063000001 144 16 0
2.9809999 0.60600001 -0.061000001 148 16 0
2.9920001 0.59899998 -0.059999999 126 16 0
3 0.58999997 -0.057999998 137 16 0
2.9979999 0.57999998 -0.057 121 16 0
3.006 0.57200003 -0.055 130 16 0
3.017 0.56400001 -0.054000001 122 16 0
3.0179999 0.55500001 -0.052999999 111 16 0
3.0209999 0.54500002 -0.050999999 126 16 0
3.03 0.537 -0.050000001 120 16 0
3.033 0.528 -0.048999999 123 16 0
3.0380001 0.51899999 -0.046999998 128 16 0
3.046 0.50999999 -0.046 139 16 0
3.049 0.50099999 -0.045000002 135 16 0
3.052 0.491 -0.043000001 114 16 0
3.063 0.48300001 -0.041999999 122 16 0
3.063 0.47299999 -0.041000001 117 16 0
3.0710001 0.46399999 -0.039999999 123 16 0
3.085 0.456 -0.037999999 120 16 0
3.0840001 0.44600001 -0.037 113 16 0
3.0910001 0.43700001 -0.035999998 130 16 0
3.0940001 0.42699999 -0.035 126 16 0
3.1029999 0.419 -0.034000002 120 16 0
3.1099999 0.40900001 -0.033 111 16 0
3.1129999 0.39899999 -0.030999999 106 16 0
3.1170001 0.38999999 -0.029999999 92 16 0
3.1259999 0.38100001 -0.028999999 99 16 0
3.1300001 0.37099999 -0.028000001 92 16 0
3.132 0.361 -0.027000001 87 16 0
3.1440001 0.35299999 -0.026000001 102 16 0
3.151 0.34299999 -0.025 106 16 0
3.154 0.333 -0.024 85 16 0
3.164 0.324 -0.023 92 16 0
3.165 0.31400001 -0.022 97 16 0
3.1689999 0.30399999 -0.021 90 16 0
3.1760001 0.294 -0.02 92 16 0
3.181 0.285 -0.018999999 89 16 0
3.1919999 0.27500001 -0.017999999 88 16 0
3.1919999 0.26499999 -0.017000001 85 16 0
3.201 0.255 -0.016000001 92 16 0
3.211 0.24600001 -0.016000001 94 16 0
3.2130001 0.235 -0.015 81 16 0
3.224 0.226 -0.014 91 16 0
3.224 0.215 -0.013 95 16 0
3.234 0.205 -0.012 95 16 0
3.2420001 0.19499999 -0.011 84 16 0
3.237 0.185 -0.011 83 16 0
3.2490001 0.175 -0.0099999998 73 16 0
3.2520001 0.16500001 -0.0089999996 77 16 0
3.2539999 0.154 -0.0080000004 83 16 0
3.2609999 0.14399999 -0.0080000004 83 16 0
3.27 0.134 -0.0070000002 68 16 0
3.273 0.123 -0.0060000001 76 16 0
3.2820001 0.113 -0.0060000001 71 16 0
3.289 0.103 -0.0049999999 78 16 0
3.2920001 0.092 -0.0040000002 80 16 0
3.2920001 0.081 -0.0040000002 83 16 0
3.302 0.071000002 -0.003 87 16 0
3.306 0.059999999 -0.003 46 16 0
3.3139999 0.050000001 -0.0020000001 55 16 0
3.3180001 0.039000001 -0.001 90 16 0
3.3299999 0.028000001 -0.001 47 16 0
3.313 0.017999999 0 22 16 0
3.289 0.0070000002 0 19 16 0
3.2650001 -0.003 0 18 16 0
3.2409999 -0.013 0 30 16 0
3.2479999 -0.024 0.001 150 16 0
3.253 -0.034000002 0.001 150 16 0
3.2590001 -0.045000002 0.001 150 16 0
3.266 -0.056000002 0.0020000001 150 16 0
3.2709999 -0.066 0.0020000001 144 16 0
3.2539999 -0.077 0.0020000001 32 16 0
3.2320001 -0.086000003 0.003 30 16 0
3.2079999 -0.096000001 0.003 29 16 0
3.1900001 -0.106 0.003 29 16 0
3.1670001 -0.116 0.0040000002 29 16 0
3.141 -0.125 0.0040000002 29 16 0
3.125 -0.134 0.0040000002 28 16 0
3.096 -0.14300001 0.0040000002 28 16 0
3.086 -0.153 0.0040000002 27 16 0
3.063 -0.161 0.0040000002 27 16 0
3.0409999 -0.17 0.0049999999 28 16 0
3.0120001 -0.178 0.0049999999 28 16 0
3.0009999 -0.18700001 0.0049999999 27 16 0
2.9809999 -0.19599999 0.0049999999 28 16 0
2.96 -0.204 0.0049999999 28 16 0
2.9449999 -0.212 0.0049999999 28 16 0
2.925 -0.221 0.0049999999 29 16 0
2.905 -0.228 0.0049999999 28 16 0
2.8889999 -0.237 0.0049999999 29 16 0
2.8699999 -0.244 0.0049999999 29 16 0
2.848 -0.252 0.0049999999 29 16 0
2.8369999 -0.25999999 0.0049999999 31 16 0
2.823 -0.26800001 0.0049999999 30 16 0
2.8 -0.27500001 0.0049999999 30 16 0
2.7880001 -0.28299999 0.0040000002 31 16 0
2.766 -0.28999999 0.0040000002 32 16 0
2.7550001 -0.29699999 0.0040000002 31 16 0
2.7390001 -0.30399999 0.0040000002 31 16 0
2.727 -0.31200001 0.0040000002 31 16 0
2.7090001 -0.31900001 0.0040000002 34 16 0
2.6919999 -0.32600001 0.003 32 16 0
2.678 -0.333 0.003 33 16 0
2.658 -0.33899999 0.003 32 16 0
2.6459999 -0.34599999 0.003 33 16 0
2.6289999 -0.352 0.0020000001 33 16 0
2.6159999 -0.359 0.0020000001 31 16 0
2.602 -0.366 0.0020000001 33 16 0
2.5840001 -0.37200001 0.0020000001 34 16 0
2.575 -0.37900001 0.001 32 16 0
2.5539999 -0.384 0.001 31 16 0
2.5409999 -0.38999999 0.001 37 16 0
2.526 -0.39700001 0 43 16 0
2.5120001 -0.403 0 39 16 0
2.5020001 -0.40900001 0 41 16 0
2.483 -0.414 0 40 16 0
2.4719999 -0.421 0 60 16 0
2.4649999 -0.42699999 -0.001 68 16 0
2.45 -0.433 -0.001 64 16 0
2.4330001 -0.43799999 -0.001 59 16 0
2.4219999 -0.44400001 -0.0020000001 55 16 0
2.4089999 -0.449 -0.0020000001 62 16 0
2.3989999 -0.45500001 -0.003 62 16 0
2.388 -0.461 -0.003 63 16 0
2.3759999 -0.46700001 -0.0040000002 63 16 0
2.3629999 -0.472 -0.0040000002 57 16 0
2.345 -0.47600001 -0.0049999999 56 16 0
2.3329999 -0.48199999 -0.0049999999 73 16 0
2.3199999 -0.486 -0.0060000001 82 16 0
2.3099999 -0.49200001 -0.0060000001 83 16 0
2.2939999 -0.49599999 -0.0070000002 77 16 0
2.2820001 -0.50099999 -0.0080000004 77 16 0
2.276 -0.50700003 -0.0080000004 78 16 0
2.26 -0.51099998 -0.0089999996 76 16 0
2.2479999 -0.51599997 -0.0089999996 84 16 0
2.2390001 -0.52100003 -0.0099999998 82 16 0
2.224 -0.52499998 -0.011 82 16 0
2.22 -0.53200001 -0.011 88 16 0
2.214 -0.53799999 -0.012 86 16 0
2.198 -0.54100001 -0.013 89 16 0
2.187 -0.546 -0.013 95 16 0
2.1760001 -0.55000001 -0.014 95 16 0
2.1570001 -0.55199999 -0.015 95 16 0
2.148 -0.55699998 -0.015 97 16 0
2.138 -0.56199998 -0.016000001 101 16 0
2.132 -0.56699997 -0.017000001 95 16 0
2.122 -0.57200003 -0.017999999 97 16 0
2.109 -0.57499999 -0.017999999 107 16 0
2.099 -0.57999998 -0.018999999 95 16 0
2.095 -0.58499998 -0.02 114 16 0
2.082 -0.58899999 -0.021 111 16 0
2.075 -0.59399998 -0.022 104 16 0
2.0610001 -0.59600002 -0.022 104 16 0
2.049 -0.60000002 -0.023 105 16 0
2.04 -0.60399997 -0.024 111 16 0
2.0339999 -0.60900003 -0.025 119 16 0
2.02 -0.61199999 -0.026000001 110 16 0
2.0109999 -0.616 -0.026000001 124 16 0
2.007 -0.62099999 -0.027000001 131 16 0
1.998 -0.625 -0.028000001 130 16 0
1.985 -0.62800002 -0.028999999 115 16 0
1.982 -0.63300002 -0.029999999 143 16 0
1.967 -0.63499999 -0.030999999 145 16 0
1.96 -0.63999999 -0.032000002 128 16 0
1.943 -0.64099997 -0.033 150 16 0
1.9349999 -0.64399999 -0.034000002 138 16 0
1.933 -0.64999998 -0.035 147 16 0
1.9220001 -0.653 -0.035999998 134 16 0
1.915 -0.65700001 -0.037 143 16 0
1.9069999 -0.66000003 -0.037999999 143 16 0
1.897 -0.66299999 -0.039000001 131 16 0
1.892 -0.66799998 -0.039999999 150 16 0
1.881 -0.67000002 -0.041000001 148 16 0
1.8710001 -0.67299998 -0.041999999 150 16 0
1.8660001 -0.67699999 -0.043000001 150 16 0
1.86 -0.68099999 -0.044 150 16 0
1.854 -0.68599999 -0.045000002 2 0 0
1.844 -0.68800002 -0.046 2 0 0
1.839 -0.69199997 -0.046999998 2 0 0
1.831 -0.69499999 -0.048 2 0 0
1.8200001 -0.69700003 -0.048999999 2 0 0
1.814 -0.70099998 -0.050000001 1 0 0
1.808 -0.70499998 -0.050999999 41 0 0
1.799 -0.70700002 -0.052000001 3 0 0
1.793 -0.71100003 -0.054000001 3 0 0
1.786 -0.71399999 -0.055 3 0 0
1.775 -0.71499997 -0.056000002 2 0 0
1.772 -0.72000003 -0.057 39 0 0
1.7640001 -0.72299999 -0.057999998 5 0 0
1.758 -0.72600001 -0.059999999 1 0 0
1.756 -0.73100001 -0.061000001 2 0 0
1.7460001 -0.73199999 -0.061999999 3 0 0
1.732 -0.73199999 -0.063000001 2 0 0
1.73 -0.73699999 -0.064999998 51 0 0
1.717 -0.73699999 -0.066 65 0 0
1.712 -0.741 -0.067000002 49 0 0
1.709 -0.745 -0.068000004 49 0 0
1.698 -0.74599999 -0.068999998 51 0 0
1.694 -0.75 -0.071000002 57 0 0
1.686 -0.75199997 -0.071999997 59 0 0
1.681 -0.755 -0.072999999 64 0 0
1.671 -0.75599998 -0.075000003 62 0 0
1.668 -0.75999999 -0.075999998 44 0 0
1.66 -0.76200002 -0.077 76 0 0
1.655 -0.76499999 -0.079000004 71 0 0
1.65 -0.76800001 -0.079999998 89 0 0
1.64 -0.76800001 -0.081 64 0 0
1.637 -0.77200001 -0.082999997 65 0 0
1.631 -0.77399999 -0.083999999 69 0 0
1.627 -0.778 -0.086000003 83 0 0
1.618 -0.778 -0.086999997 79 0 0
1.61 -0.77999997 -0.088 108 0 0
1.604 -0.78200001 -0.090000004 76 0 0
1.597 -0.78399998 -0.090999998 99 0 0
1.595 -0.78799999 -0.093000002 65 0 0
1.592 -0.79100001 -0.093999997 87 0 0
1.585 -0.79299998 -0.096000001 88 0 0
1.581 -0.796 -0.097000003 83 0 0
1.579 -0.79900002 -0.098999999 65 0 0
1.571 -0.80000001 -0.1 74 0 0
1.5599999 -0.80000001 -0.102 69 0 0
1.558 -0.80299997 -0.103 102 0 0
1.55 -0.80400002 -0.105 107 0 0
1.548 -0.80800003 -0.106 69 0 0
1.545 -0.81099999 -0.108 81 0 0
1.539 -0.81199998 -0.11 85 0 0
1.534 -0.81400001 -0.111 90 0 0
1.5319999 -0.81800002 -0.113 84 0 0
1.524 -0.81800002 -0.114 85 0 0
1.517 -0.81800002 -0.116 107 0 0
1.512 -0.81999999 -0.117 71 0 0
1.508 -0.82200003 -0.119 79 0 0
1.503 -0.824 -0.121 78 0 0
1.5 -0.82700002 -0.122 91 0 0
1.4960001 -0.829 -0.124 88 0 0
1.485 -0.82700002 -0.125 71 0 0
1.4859999 -0.83099997 -0.127 87 0 0
1.4809999 -0.833 -0.12899999 80 0 0
1.478 -0.83499998 -0.131 77 0 0
1.476 -0.838 -0.133 92 0 0
1.469 -0.838 -0.134 99 0 0
1.466 -0.83999997 -0.13600001 117 0 0
1.462 -0.84200001 -0.138 102 0 0
1.455 -0.84200001 -0.139 127 0 0
1.452 -0.84399998 -0.141 90 0 0
1.45 -0.847 -0.14300001 110 0 0
1.441 -0.84500003 -0.14399999 122 0 0
1.437 -0.847 -0.146 84 0 0
1.4349999 -0.84899998 -0.148 82 0 0
1.434 -0.852 -0.15000001 110 0 0
1.428 -0.852 -0.15099999 120 0 0
1.4220001 -0.852 -0.153 98 0 0
1.42 -0.85399997 -0.155 147 0 0
1.416 -0.85500002 -0.15700001 122 0 0
1.4119999 -0.85600001 -0.15800001 126 0 0
1.4119999 -0.86000001 -0.161 127 0 0
1.406 -0.85900003 -0.162 132 0 0
1.403 -0.86000001 -0.164 110 0 0
1.402 -0.86299998 -0.16599999 128 0 0
1.4 -0.86500001 -0.168 115 0 0
1.3940001 -0.86400002 -0.17 95 0 0
1.391 -0.86500001 -0.171 122 0 0
1.386 -0.86500001 -0.17299999 120 0 0
1.388 -0.86900002 -0.176 121 0 0
1.382 -0.86799997 -0.177 113 0 0
1.38 -0.87 -0.17900001 133 0 0
1.3789999 -0.87099999 -0.18099999 139 0 0
1.378 -0.87300003 -0.183 118 0 0
1.376 -0.875 -0.185 119 0 0
1.368 -0.87199998 -0.186 143 0 0
1.3710001 -0.87699997 -0.189 150 0 0
1.37 -0.87800002 -0.191 143 0 0
1.364 -0.87699997 -0.193 142 0 0
1.363 -0.87900001 -0.19499999 150 0 0
1.3609999 -0.87900001 -0.197 132 0 0
1.36 -0.88099998 -0.199 141 0 0
1.359 -0.88200003 -0.20100001 99 0 0
1.353 -0.88099998 -0.20200001 150 0 0
1.352 -0.88200003 -0.204 150 0 0
1.349 -0.88200003 -0.206 133 0 0
1.346 -0.88200003 -0.208 135 0 0
1.346 -0.88300002 -0.20999999 118 0 0
1.345 -0.884 -0.212 150 0 0
1.3430001 -0.88499999 -0.214 126 0 0
1.3380001 -0.88300002 -0.215 141 0 0
1.3380001 -0.88499999 -0.21799999 136 0 0
1.336 -0.88499999 -0.22 130 0 0
1.335 -0.88599998 -0.222 116 0 0
1.3329999 -0.88599998 -0.223 105 0 0
1.332 -0.88700002 -0.22499999 131 0 0
1.332 -0.88700002 -0.228 140 0 0
1.331 -0.88800001 -0.23 150 0 0
1.3279999 -0.88700002 -0.23100001 150 0 0
1.327 -0.88700002 -0.233 150 0 0
1.329 -0.889 -0.236 144 0 0
1.324 -0.88700002 -0.237 150 0 0
1.325 -0.889 -0.23899999 141 0 0
1.324 -0.889 -0.241 150 0 0
1.324 -0.889 -0.243 150 0 0
1.311 -0.88099998 -0.243 113 1 0
1.3099999 -0.88099998 -0.245 150 0 0
1.322 -0.88999999 -0.249 150 1 0
1.3200001 -0.889 -0.25099999 150 0 0
1.306 -0.87900001 -0.25 137 1 0
1.319 -0.88800001 -0.25400001 150 3 0
1.306 -0.88 -0.25400001 150 3 0
1.321 -0.88999999 -0.259 150 3 0
1.307 -0.88099998 -0.25799999 134 3 0
1.3049999 -0.87900001 -0.259 150 0 0
1.304 -0.87900001 -0.26100001 141 0 0
1.303 -0.87699997 -0.26300001 139 0 0
1.311 -0.88200003 -0.266 150 2 0
1.304 -0.87800002 -0.26699999 150 0 0
1.317 -0.88599998 -0.271 150 0 0
1.306 -0.87800002 -0.271 150 0 0
1.317 -0.88499999 -0.27500001 150 0 0
1.3150001 -0.88300002 -0.27599999 150 0 0
1.318 -0.884 -0.278 150 0 0
1.317 -0.88300002 -0.28 150 0 0
1.317 -0.88200003 -0.28200001 150 0 0
1.318 -0.88200003 -0.28400001 150 0 0
1.318 -0.88099998 -0.285 150 0 0
1.318 -0.88 -0.287 150 0 0
1.321 -0.88 -0.289 150 0 0
1.319 -0.87800002 -0.28999999 150 0 0
1.319 -0.87699997 -0.292 150 0 0
1.322 -0.87699997 -0.294 150 0 0
1.323 -0.87699997 -0.296 150 0 0
1.323 -0.87599999 -0.29699999 150 0 0
1.327 -0.87699997 -0.29899999 150 0 0
1.322 -0.87199998 -0.30000001 150 0 0
1.322 -0.87 -0.301 150 0 0
