# .PCD v0.7 - Point Cloud Data file format
VERSION 0.7
FIELDS x y z intensity tag line
SIZE 4 4 4 4 1 1
TYPE F F F F U U
COUNT 1 1 1 1 1 1
WIDTH 1352
HEIGHT 1
VIEWPOINT 0 0 0 1 0 0 0
POINTS 1352
DATA ascii
2.631 0.121 0.676 53 16 0
2.6389999 0.119 0.66900003 64 16 0
2.6559999 0.117 0.66500002 62 16 0
2.6670001 0.115 0.65899998 64 16 0
2.677 0.114 0.65200001 68 16 0
2.687 0.112 0.64600003 62 16 0
2.6949999 0.11 0.639 57 16 0
2.7149999 0.109 0.63499999 57 16 0
2.724 0.107 0.62900001 54 16 0
2.7409999 0.105 0.62400001 56 16 0
2.753 0.104 0.61799997 58 16 0
2.766 0.102 0.611 51 16 0
2.7780001 0.1 0.60500002 47 16 0
2.789 0.098999999 0.59899998 52 16 0
2.806 0.097000003 0.59299999 64 16 0
2.8169999 0.094999999 0.58600003 66 16 0
2.832 0.093999997 0.57999998 48 16 0
2.8469999 0.092 0.574 42 16 0
2.8529999 0.090000004 0.56599998 40 16 0
2.8740001 0.089000002 0.56099999 42 16 0
2.885 0.086999997 0.55400002 41 16 0
2.904 0.086000003 0.54799998 42 16 0
2.9230001 0.083999999 0.542 40 16 0
2.938 0.082999997 0.53500003 33 16 0
2.947 0.081 0.528 34 16 0
2.971 0.079999998 0.52200001 29 16 0
2.9849999 0.078000002 0.51499999 29 16 0
3 0.077 0.50800002 29 16 0
3.017 0.075000003 0.50099999 29 16 0
3.0320001 0.074000001 0.49399999 29 16 0
3.046 0.071999997 0.486 29 16 0
3.0639999 0.07 0.479 29 16 0
3.079 0.068999998 0.472 28 16 0
3.0999999 0.067000002 0.465 29 16 0
3.1170001 0.066 0.45699999 29 16 0
3.1370001 0.064000003 0.44999999 30 16 0
3.1489999 0.063000001 0.442 31 16 0
3.171 0.061000001 0.435 31 16 0
3.1900001 0.059999999 0.42699999 31 16 0
3.2090001 0.057999998 0.419 31 16 0
3.2249999 0.057 0.41100001 31 16 0
3.2449999 0.055 0.403 30 16 0
3.2620001 0.054000001 0.39500001 30 16 0
3.279 0.052000001 0.38600001 30 16 0
3.299 0.050999999 0.37799999 30 16 0
3.3199999 0.048999999 0.37 31 16 0
3.342 0.048 0.361 33 16 0
3.3559999 0.046 0.352 75 16 0
3.3570001 0.045000002 0.34099999 139 16 0
3.3540001 0.043000001 0.33000001 98 16 0
3.3540001 0.041000001 0.31900001 106 16 0
3.348 0.039000001 0.308 103 16 0
3.342 0.037999999 0.29699999 88 16 0
3.3399999 0.035999998 0.28600001 101 16 0
3.336 0.034000002 0.27500001 117 16 0
3.3299999 0.033 0.264 135 16 0
3.326 0.030999999 0.25299999 110 16 0
3.322 0.028999999 0.242 117 16 0
3.3199999 0.028000001 0.23100001 110 16 0
3.319 0.026000001 0.22 113 16 0
3.3069999 0.025 0.20900001 118 16 0
3.3050001 0.023 0.198 116 16 0
3.3010001 0.022 0.18700001 135 16 0
3.299 0.02 0.176 139 16 0
3.2969999 0.018999999 0.16599999 140 16 0
3.289 0.017999999 0.154 123 16 0
3.289 0.016000001 0.14399999 112 16 0
3.286 0.015 0.133 142 16 0
3.2750001 0.014 0.122 127 16 0
3.286 0.012 0.112 38 16 0
3.312 0.011 0.102 30 16 0
3.335 0.0099999998 0.092 31 16 0
3.3299999 0.0089999996 0.082000002 20 16 0
3.3280001 0.0070000002 0.071000002 18 16 0
3.3180001 0.0060000001 0.059999999 17 16 0
3.3139999 0.0049999999 0.048999999 17 16 0
3.309 0.0040000002 0.037999999 17 16 0
3.2980001 0.0020000001 0.028000001 16 16 0
3.2939999 0.001 0.017000001 16 16 0
3.293 0 0.0060000001 17 16 0
3.2739999 0 -0.003 16 16 0
3.2720001 -0.001 -0.014 15 16 0
3.2639999 -0.0020000001 -0.024 16 16 0
3.2579999 -0.003 -0.035 16 16 0
3.25 -0.0040000002 -0.045000002 16 16 0
3.2520001 -0.0049999999 -0.056000002 16 16 0
3.2390001 -0.0060000001 -0.066 15 16 0
3.2349999 -0.0070000002 -0.075999998 16 16 0
3.2290001 -0.0080000004 -0.086000003 16 16 0
3.2190001 -0.0089999996 -0.097000003 15 16 0
3.2149999 -0.0099999998 -0.107 16 16 0
3.21 -0.011 -0.117 16 16 0
3.201 -0.011 -0.127 16 16 0
3.194 -0.012 -0.13699999 16 16 0
3.188 -0.013 -0.147 17 16 0
3.1819999 -0.014 -0.15700001 18 16 0
3.1800001 -0.015 -0.167 19 16 0
3.1730001 -0.015 -0.177 19 16 0
3.168 -0.016000001 -0.18700001 21 16 0
3.1589999 -0.017000001 -0.197 21 16 0
3.155 -0.017000001 -0.207 21 16 0
3.1470001 -0.017999999 -0.21600001 22 16 0
3.1400001 -0.018999999 -0.226 23 16 0
3.142 -0.018999999 -0.236 24 16 0
3.1329999 -0.02 -0.24600001 24 16 0
3.1300001 -0.02 -0.25600001 24 16 0
3.1270001 -0.021 -0.266 26 16 0
3.118 -0.022 -0.27500001 26 16 0
3.118 -0.022 -0.285 27 16 0
3.1140001 -0.023 -0.29499999 28 16 0
3.102 -0.023 -0.30399999 29 16 0
3.1010001 -0.024 -0.31400001 29 16 0
3.096 -0.024 -0.324 31 16 0
3.092 -0.024 -0.333 33 16 0
3.0829999 -0.025 -0.34200001 32 16 0
3.086 -0.025 -0.35299999 34 16 0
3.082 -0.026000001 -0.36199999 36 16 0
3.0780001 -0.026000001 -0.37200001 38 16 0
3.073 -0.026000001 -0.38100001 38 16 0
3.072 -0.027000001 -0.391 40 16 0
3.0650001 -0.027000001 -0.40000001 41 16 0
3.0599999 -0.027000001 -0.41 41 16 0
3.0510001 -0.027000001 -0.419 41 16 0
3.049 -0.028000001 -0.428 43 16 0
3.0469999 -0.028000001 -0.43799999 43 16 0
3.04 -0.028000001 -0.447 40 16 0
3.0369999 -0.028000001 -0.45699999 41 16 0
3.0369999 -0.028000001 -0.46599999 44 16 0
3.029 -0.028999999 -0.47499999 39 16 0
3.0280001 -0.028999999 -0.48500001 40 16 0
3.023 -0.028999999 -0.49399999 39 16 0
3.0190001 -0.028999999 -0.50300002 38 16 0
3.017 -0.028999999 -0.51300001 38 16 0
3.0079999 -0.028999999 -0.52100003 37 16 0
3.0009999 -0.028999999 -0.52999997 36 16 0
3.0039999 -0.028999999 -0.54000002 35 16 0
3.0020001 -0.028999999 -0.55000001 35 16 0
2.9960001 -0.028999999 -0.55900002 33 16 0
2.9890001 -0.028999999 -0.56699997 31 16 0
2.9879999 -0.028999999 -0.57700002 31 16 0
2.9790001 -0.028999999 -0.58499998 30 16 0
2.9809999 -0.028000001 -0.59500003 29 16 0
2.9760001 -0.028000001 -0.60399997 29 16 0
2.9749999 -0.028000001 -0.61400002 28 16 0
2.9690001 -0.028000001 -0.62199998 26 16 0
2.967 -0.028000001 -0.63200003 26 16 0
2.9449999 -0.027000001 -0.63700002 24 16 0
2.948 -0.027000001 -0.64700001 23 16 0
2.948 -0.027000001 -0.65700001 22 16 0
2.944 -0.027000001 -0.66600001 21 16 0
2.9449999 -0.026000001 -0.676 21 16 0
2.9430001 -0.026000001 -0.685 20 16 0
2.9360001 -0.026000001 -0.69400001 19 16 0
2.9360001 -0.025 -0.70300001 19 16 0
2.9360001 -0.025 -0.713 18 16 0
2.9330001 -0.024 -0.722 18 16 0
2.927 -0.024 -0.73000002 16 16 0
2.925 -0.024 -0.74000001 16 16 0
2.927 -0.023 -0.75 16 16 0
2.9219999 -0.023 -0.759 15 16 0
2.9159999 -0.022 -0.76700002 15 16 0
2.914 -0.021 -0.77600002 15 16 0
2.911 -0.021 -0.78500003 17 16 0
2.915 -0.02 -0.796 18 16 0
2.904 -0.02 -0.80299997 18 16 0
2.9100001 -0.018999999 -0.81400001 18 16 0
2.9070001 -0.017999999 -0.82300001 19 16 0
2.9030001 -0.017999999 -0.83099997 19 16 0
2.9030001 -0.017000001 -0.84100002 19 16 0
2.902 -0.016000001 -0.85100001 19 16 0
2.9000001 -0.015 -0.86000001 19 16 0
2.892 -0.015 -0.86699998 18 16 0
2.895 -0.014 -0.87800002 19 16 0
2.892 -0.013 -0.88700002 19 16 0
2.8940001 -0.012 -0.89700001 19 16 0
2.891 -0.011 -0.90600002 19 16 0
2.8840001 -0.0099999998 -0.91399997 19 16 0
2.885 -0.0089999996 -0.92400002 19 16 0
2.8859999 -0.0080000004 -0.93400002 19 16 0
2.8789999 -0.0070000002 -0.94099998 19 16 0
2.881 -0.0060000001 -0.95099998 19 16 0
2.8829999 -0.0049999999 -0.96200001 19 16 0
2.8740001 -0.0040000002 -0.96799999 19 16 0
2.8710001 -0.003 -0.977 19 16 0
2.8759999 -0.0020000001 -0.98900002 20 16 0
2.8699999 -0.001 -0.99599999 20 16 0
2.869 0 -1.005 21 16 0
2.8770001 0.001 -1.018 23 16 0
2.8740001 0.0020000001 -1.027 26 16 0
2.872 0.003 -1.036 31 16 0
2.872 0.0049999999 -1.045 36 16 0
2.8710001 0.0060000001 -1.0549999 43 16 0
2.8670001 0.0070000002 -1.063 56 16 0
2.858 0.0089999996 -1.069 92 16 0
2.855 0.0099999998 -1.0779999 107 16 0
2.8499999 0.011 -1.085 107 16 0
2.8440001 0.013 -1.0930001 137 16 0
2.8399999 0.014 -1.101 112 16 0
2.836 0.016000001 -1.109 120 16 0
2.8299999 0.017000001 -1.1160001 104 16 0
2.826 0.018999999 -1.124 86 16 0
2.823 0.021 -1.132 83 16 0
2.819 0.022 -1.14 95 16 0
2.8110001 0.024 -1.146 96 16 0
2.806 0.025 -1.154 90 16 0
2.8080001 0.027000001 -1.164 107 16 0
2.8010001 0.028999999 -1.17 87 16 0
2.7950001 0.030999999 -1.177 66 16 0
2.7920001 0.032000002 -1.1849999 94 16 0
2.79 0.034000002 -1.193 84 16 0
2.7850001 0.035999998 -1.201 79 16 0
2.7820001 0.037999999 -1.209 82 16 0
2.7780001 0.039999999 -1.216 79 16 0
2.7720001 0.041999999 -1.223 90 16 0
2.77 0.044 -1.2309999 105 16 0
2.7609999 0.046 -1.2359999 126 16 0
2.757 0.048 -1.244 126 16 0
2.7520001 0.050000001 -1.251 134 16 0
2.7490001 0.052000001 -1.258 126 16 0
2.7449999 0.054000001 -1.266 126 16 0
2.7379999 0.056000002 -1.271 127 16 0
2.7360001 0.057999998 -1.279 129 16 0
2.734 0.059999999 -1.2869999 126 16 0
2.7309999 0.063000001 -1.295 120 16 0
2.727 0.064999998 -1.302 122 16 0
2.723 0.067000002 -1.309 124 16 0
2.714 0.068999998 -1.313 122 16 0
2.71 0.071000002 -1.3200001 134 16 0
2.707 0.074000001 -1.327 120 16 0
2.701 0.075999998 -1.3329999 121 16 0
2.7 0.079000004 -1.341 122 16 0
2.6960001 0.081 -1.348 121 16 0
2.691 0.082999997 -1.354 124 16 0
2.684 0.086000003 -1.359 123 16 0
2.6860001 0.089000002 -1.368 122 16 0
2.6789999 0.090999998 -1.373 142 16 0
2.6719999 0.093000002 -1.378 129 16 0
2.668 0.096000001 -1.3839999 125 16 0
2.665 0.098999999 -1.391 150 16 0
2.6600001 0.101 -1.397 150 16 0
2.6589999 0.104 -1.404 150 16 0
2.6470001 0.106 -1.406 143 16 0
2.6489999 0.109 -1.415 147 16 0
2.6489999 0.112 -1.423 148 16 0
2.6389999 0.115 -1.426 150 16 0
2.6270001 0.117 -1.427 142 16 0
2.6329999 0.12 -1.438 148 16 0
2.631 0.123 -1.4450001 149 16 0
2.6170001 0.126 -1.4450001 149 16 0
2.6159999 0.12899999 -1.4529999 139 16 0
2.6099999 0.131 -1.457 135 16 0
2.6070001 0.134 -1.4630001 136 16 0
2.6040001 0.13699999 -1.4680001 141 16 0
2.599 0.14 -1.473 137 16 0
2.595 0.14300001 -1.478 130 16 0
2.5940001 0.146 -1.485 131 16 0
2.589 0.149 -1.489 128 16 0
2.586 0.153 -1.495 128 16 0
2.582 0.156 -1.5 125 16 0
2.576 0.15899999 -1.503 111 16 0
2.576 0.162 -1.51 120 16 0
2.572 0.16500001 -1.515 126 16 0
2.5699999 0.168 -1.52 122 16 0
2.563 0.171 -1.523 114 16 0
2.5599999 0.175 -1.528 113 16 0
2.5569999 0.178 -1.533 116 16 0
2.5539999 0.18099999 -1.5369999 120 16 0
2.5510001 0.184 -1.5420001 112 16 0
2.5480001 0.18799999 -1.5470001 118 16 0
2.5420001 0.191 -1.55 108 16 0
2.539 0.19400001 -1.554 102 16 0
2.536 0.198 -1.558 102 16 0
2.533 0.20100001 -1.562 107 16 0
2.5280001 0.204 -1.5650001 101 16 0
2.5250001 0.208 -1.569 103 16 0
2.5250001 0.211 -1.575 113 16 0
2.5209999 0.215 -1.5779999 106 16 0
2.5190001 0.21799999 -1.582 109 16 0
2.5090001 0.221 -1.582 96 16 0
2.5079999 0.22499999 -1.587 95 16 0
2.5039999 0.228 -1.589 97 16 0
2.5009999 0.23199999 -1.5930001 94 16 0
2.4990001 0.235 -1.596 99 16 0
2.494 0.23800001 -1.598 99 16 0
2.4879999 0.242 -1.599 94 16 0
2.4879999 0.245 -1.604 91 16 0
2.4860001 0.249 -1.608 93 16 0
2.4809999 0.252 -1.609 91 16 0
2.4779999 0.25600001 -1.612 96 16 0
2.474 0.259 -1.613 94 16 0
2.4719999 0.26300001 -1.6160001 71 16 0
2.4719999 0.26699999 -1.62 97 16 0
2.4679999 0.27000001 -1.622 96 16 0
2.4649999 0.27399999 -1.624 82 16 0
2.4630001 0.27700001 -1.626 90 16 0
2.4619999 0.28099999 -1.6289999 89 16 0
2.451 0.28400001 -1.626 88 16 0
2.45 0.287 -1.628 85 16 0
2.447 0.29100001 -1.63 90 16 0
2.4460001 0.29499999 -1.632 98 16 0
2.447 0.29899999 -1.636 100 16 0
2.4419999 0.30199999 -1.636 103 16 0
2.437 0.30500001 -1.636 97 16 0
2.438 0.30899999 -1.6390001 100 16 0
2.434 0.31200001 -1.6390001 104 16 0
2.431 0.31600001 -1.6390001 96 16 0
2.427 0.31900001 -1.6390001 82 16 0
2.427 0.32300001 -1.642 97 16 0
2.4260001 0.32699999 -1.643 99 16 0
2.4219999 0.33000001 -1.642 133 16 0
2.4200001 0.333 -1.643 134 16 0
2.4189999 0.33700001 -1.6440001 142 16 0
2.4159999 0.34 -1.6440001 129 16 0
2.415 0.34400001 -1.6440001 139 16 0
2.414 0.34799999 -1.645 137 16 0
2.411 0.35100001 -1.6440001 143 16 0
2.4100001 0.354 -1.645 137 16 0
2.408 0.35800001 -1.645 130 16 0
2.408 0.361 -1.645 141 16 0
2.405 0.36500001 -1.6440001 136 16 0
2.4059999 0.368 -1.645 131 16 0
2.404 0.37200001 -1.6440001 125 16 0
2.4030001 0.375 -1.6440001 142 16 0
2.4000001 0.37799999 -1.642 141 16 0
2.3929999 0.38 -1.637 134 16 0
2.3970001 0.384 -1.64 139 16 0
2.392 0.38699999 -1.637 130 16 0
2.398 0.391 -1.641 134 16 0
2.392 0.39399999 -1.636 128 16 0
2.3900001 0.39700001 -1.6339999 132 16 0
2.3900001 0.40000001 -1.633 131 16 0
2.391 0.40400001 -1.633 135 16 0
2.3900001 0.40700001 -1.632 135 16 0
2.385 0.40900001 -1.627 137 16 0
2.3800001 0.41100001 -1.623 147 16 0
2.3829999 0.41499999 -1.623 139 16 0
2.3829999 0.41800001 -1.622 138 16 0
2.381 0.421 -1.619 147 16 0
2.382 0.42399999 -1.618 150 16 0
2.382 0.42699999 -1.6160001 147 16 0
2.3829999 0.43000001 -1.615 145 16 0
2.382 0.433 -1.612 148 16 0
2.381 0.43599999 -1.61 136 16 0
2.3829999 0.43900001 -1.608 143 16 0
2.3829999 0.442 -1.6059999 142 16 0
2.382 0.44400001 -1.603 135 16 0
2.3770001 0.44600001 -1.597 134 16 0
2.378 0.449 -1.595 127 16 0
2.378 0.45100001 -1.592 132 16 0
2.3840001 0.45500001 -1.5930001 133 16 0
2.381 0.45699999 -1.5880001 147 16 0
2.382 0.46000001 -1.585 137 16 0
2.3840001 0.46200001 -1.5829999 150 16 0
2.382 0.46399999 -1.5779999 141 16 0
2.3840001 0.46700001 -1.576 150 16 0
2.378 0.46799999 -1.568 143 16 0
2.3789999 0.47099999 -1.5650001 133 16 0
2.3829999 0.47400001 -1.564 146 16 0
2.3840001 0.47600001 -1.561 150 16 0
2.3840001 0.47799999 -1.556 150 16 0
2.3840001 0.47999999 -1.552 146 16 0
2.3870001 0.48300001 -1.549 150 16 0
2.385 0.484 -1.544 150 16 0
2.385 0.486 -1.539 145 16 0
2.3870001 0.48800001 -1.536 150 16 0
2.3889999 0.49000001 -1.5319999 150 16 0
2.391 0.493 -1.529 150 16 0
2.3889999 0.49399999 -1.522 150 16 0
2.391 0.49599999 -1.5190001 150 16 0
2.3929999 0.498 -1.515 150 16 0
2.3929999 0.49900001 -1.51 150 16 0
2.3929999 0.50099999 -1.505 150 16 0
2.3940001 0.50199997 -1.5 150 16 0
2.398 0.50400001 -1.497 150 16 0
2.4000001 0.50599998 -1.493 150 16 0
2.404 0.50800002 -1.489 150 16 0
2.4030001 0.509 -1.483 150 16 0
2.401 0.50999999 -1.476 150 16 0
2.408 0.51200002 -1.474 150 16 0
2.4100001 0.514 -1.47 150 16 0
2.405 0.514 -1.461 150 16 0
2.4089999 0.51599997 -1.457 150 16 0
2.414 0.51700002 -1.454 150 16 0
2.4159999 0.51899999 -1.449 150 16 0
2.4130001 0.51899999 -1.441 150 16 0
2.418 0.51999998 -1.437 150 16 0
2.421 0.52200001 -1.433 150 16 0
2.421 0.52200001 -1.426 150 16 0
2.4200001 0.523 -1.419 150 16 0
2.4230001 0.52399999 -1.413 150 16 0
2.425 0.52399999 -1.408 150 16 0
2.427 0.52499998 -1.403 150 16 0
2.431 0.52600002 -1.398 150 16 0
2.434 0.52700001 -1.393 150 16 0
2.4360001 0.528 -1.387 150 16 0
2.437 0.528 -1.381 150 16 0
2.437 0.528 -1.373 150 16 0
2.4389999 0.52899998 -1.368 150 16 0
2.4419999 0.52899998 -1.362 150 16 0
2.4489999 0.53100002 -1.359 150 16 0
2.4460001 0.52999997 -1.35 150 16 0
2.4489999 0.52999997 -1.344 150 16 0
2.454 0.53100002 -1.34 150 16 0
2.4579999 0.53200001 -1.334 150 16 0
2.461 0.53200001 -1.3279999 150 16 0
2.464 0.53200001 -1.322 150 16 0
2.4679999 0.53200001 -1.317 150 16 0
2.47 0.53200001 -1.3099999 150 16 0
2.4690001 0.53200001 -1.302 150 16 0
2.4749999 0.53299999 -1.298 150 16 0
2.4749999 0.53200001 -1.29 150 16 0
2.4820001 0.53200001 -1.286 150 16 0
2.4849999 0.53200001 -1.28 150 16 0
2.4879999 0.53200001 -1.273 150 16 0
2.4909999 0.53200001 -1.267 150 16 0
2.4920001 0.53100002 -1.26 150 16 0
2.4949999 0.53100002 -1.253 150 16 0
2.4979999 0.53100002 -1.247 150 16 0
2.5009999 0.52999997 -1.24 150 16 0
2.5050001 0.52999997 -1.234 150 16 0
2.5079999 0.52899998 -1.228 150 16 0
2.5109999 0.52899998 -1.221 150 16 0
2.51 0.52700001 -1.212 150 16 0
2.52 0.528 -1.209 150 16 0
2.5209999 0.52700001 -1.202 150 16 0
2.523 0.52600002 -1.194 150 16 0
2.5280001 0.52600002 -1.188 150 16 0
2.529 0.52499998 -1.181 150 16 0
2.533 0.52399999 -1.174 150 16 0
2.536 0.523 -1.1670001 150 16 0
2.539 0.52200001 -1.16 150 16 0
2.5439999 0.52100003 -1.154 150 16 0
2.5480001 0.51999998 -1.148 150 16 0
2.5550001 0.51999998 -1.142 150 16 0
2.5539999 0.51800001 -1.1339999 150 16 0
2.5610001 0.51800001 -1.1289999 150 16 0
2.559 0.51499999 -1.119 150 16 0
2.566 0.51499999 -1.114 150 16 0
2.569 0.514 -1.107 150 16 0
2.575 0.51300001 -1.101 150 16 0
2.5780001 0.51099998 -1.094 150 16 0
2.582 0.50999999 -1.087 150 16 0
2.5880001 0.509 -1.081 150 16 0
2.5880001 0.50700003 -1.073 150 16 0
2.598 0.50700003 -1.068 150 16 0
2.595 0.50400001 -1.058 150 16 0
2.6040001 0.50400001 -1.054 150 16 0
2.6059999 0.50199997 -1.046 150 16 0
2.6129999 0.50099999 -1.04 150 16 0
2.6159999 0.49900001 -1.033 75 16 0
2.615 0.49599999 -1.024 5 16 0
2.563 0.484 -0.995 0 17 0
2.5639999 0.48199999 -0.98699999 0 16 0
2.5599999 0.47799999 -0.977 0 16 0
2.559 0.47600001 -0.96799999 0 16 0
2.5639999 0.47400001 -0.96200001 0 16 0
2.5869999 0.47600001 -0.96200001 0 19 0
2.6029999 0.47600001 -0.95899999 0 16 0
2.5940001 0.472 -0.94800001 0 16 0
2.6370001 0.477 -0.95499998 0 18 0
2.618 0.47099999 -0.94 0 16 0
2.6700001 0.47799999 -0.94999999 4 16 0
2.675 0.47499999 -0.94199997 56 16 0
2.6730001 0.472 -0.93300003 150 16 0
2.6760001 0.47 -0.926 150 16 0
2.6800001 0.46799999 -0.91799998 150 16 0
2.681 0.465 -0.91000003 150 16 0
2.6860001 0.463 -0.903 150 16 0
2.6889999 0.46000001 -0.89499998 150 16 0
2.6919999 0.458 -0.88800001 150 16 0
2.7 0.456 -0.88200003 150 16 0
2.7060001 0.454 -0.875 150 16 0
2.7119999 0.45199999 -0.86799997 150 16 0
2.7149999 0.449 -0.861 150 16 0
2.7179999 0.44600001 -0.85299999 150 16 0
2.721 0.44400001 -0.84500003 150 16 0
2.724 0.44100001 -0.83700001 150 16 0
2.7360001 0.43900001 -0.83200002 150 16 0
2.7409999 0.43700001 -0.82499999 150 16 0
2.743 0.43399999 -0.81699997 150 16 0
2.7460001 0.43099999 -0.80900002 150 16 0
2.7539999 0.42899999 -0.80299997 150 16 0
2.757 0.426 -0.79500002 150 16 0
2.76 0.42300001 -0.787 150 16 0
2.763 0.41999999 -0.77899998 150 16 0
2.7679999 0.417 -0.77200001 150 16 0
2.7809999 0.41499999 -0.76700002 150 16 0
2.7809999 0.412 -0.75800002 150 16 0
2.7839999 0.40900001 -0.75099999 150 16 0
2.7909999 0.40599999 -0.74400002 150 16 0
2.799 0.403 -0.73699999 150 16 0
2.8010001 0.40000001 -0.72899997 150 16 0
2.806 0.39700001 -0.722 150 16 0
2.809 0.39399999 -0.71399999 150 16 0
2.8199999 0.391 -0.708 150 16 0
2.823 0.38800001 -0.69999999 150 16 0
2.8280001 0.38499999 -0.69199997 150 16 0
2.8299999 0.38100001 -0.68400002 150 16 0
2.8369999 0.37799999 -0.67699999 150 16 0
2.8429999 0.375 -0.67000002 150 16 0
2.8469999 0.37200001 -0.662 150 16 0
2.8510001 0.368 -0.65399998 150 16 0
2.8570001 0.36500001 -0.64700001 150 16 0
2.8610001 0.361 -0.639 150 16 0
2.865 0.35800001 -0.63099998 150 16 0
2.868 0.354 -0.62300003 150 16 0
2.872 0.35100001 -0.61500001 150 16 0
2.8870001 0.34799999 -0.61000001 150 16 0
2.892 0.345 -0.602 150 16 0
2.8970001 0.34099999 -0.59500003 150 16 0
2.8989999 0.33700001 -0.58600003 150 16 0
2.908 0.33399999 -0.579 150 16 0
2.911 0.33000001 -0.57099998 150 16 0
2.918 0.32699999 -0.56400001 150 16 0
2.924 0.32300001 -0.55599999 150 16 0
2.9319999 0.31999999 -0.54900002 150 16 0
2.934 0.315 -0.54100001 150 16 0
2.937 0.31099999 -0.53299999 150 16 0
2.9419999 0.30700001 -0.52499998 150 16 0
2.95 0.30399999 -0.51800001 150 16 0
2.9560001 0.30000001 -0.50999999 150 16 0
2.9649999 0.29699999 -0.50300002 150 16 0
2.967 0.292 -0.49399999 150 16 0
2.971 0.28799999 -0.486 150 16 0
2.977 0.28400001 -0.479 150 16 0
2.983 0.28 -0.47099999 150 16 0
2.987 0.27599999 -0.463 150 16 0
2.994 0.27200001 -0.45500001 150 16 0
2.9979999 0.26800001 -0.447 150 16 0
3.0079999 0.264 -0.44 150 16 0
3.0120001 0.25999999 -0.43200001 150 16 0
3.0150001 0.255 -0.42300001 150 16 0
3.017 0.25099999 -0.41499999 150 16 0
3.0280001 0.24699999 -0.40799999 150 16 0
3.03 0.242 -0.39899999 150 16 0
3.039 0.23800001 -0.39199999 150 16 0
3.04 0.233 -0.38299999 150 16 0
3.046 0.229 -0.375 150 16 0
3.0569999 0.22499999 -0.368 150 16 0
3.062 0.22 -0.359 150 16 0
3.069 0.21600001 -0.352 150 16 0
3.075 0.211 -0.34299999 150 16 0
3.082 0.207 -0.336 150 16 0
3.089 0.20200001 -0.32699999 150 16 0
3.092 0.197 -0.31900001 150 16 0
3.102 0.193 -0.31099999 150 16 0
3.105 0.18799999 -0.303 150 16 0
3.1159999 0.184 -0.29499999 150 16 0
3.1170001 0.17900001 -0.28600001 150 16 0
3.125 0.17399999 -0.278 150 16 0
3.1329999 0.169 -0.27000001 150 16 0
3.135 0.164 -0.26199999 150 16 0
3.1440001 0.15899999 -0.25299999 150 16 0
3.148 0.154 -0.245 150 16 0
3.158 0.15000001 -0.237 150 16 0
3.165 0.145 -0.229 150 16 0
3.175 0.14 -0.22 150 16 0
3.1760001 0.134 -0.212 150 16 0
3.181 0.12899999 -0.20299999 150 16 0
3.1900001 0.124 -0.19499999 143 16 0
3.1960001 0.119 -0.18700001 145 16 0
3.2030001 0.114 -0.178 142 16 0
3.2149999 0.109 -0.17 133 16 0
3.221 0.103 -0.161 142 16 0
3.224 0.097999997 -0.153 129 16 0
3.2360001 0.093000002 -0.14399999 150 16 0
3.2379999 0.086999997 -0.13500001 150 16 0
3.244 0.082000002 -0.127 150 16 0
3.253 0.077 -0.118 150 16 0
3.2590001 0.071000002 -0.11 130 16 0
3.263 0.064999998 -0.101 91 16 0
3.2720001 0.059999999 -0.092 53 16 0
3.2739999 0.054000001 -0.082999997 60 16 0
3.2820001 0.048999999 -0.074000001 117 16 0
3.2869999 0.043000001 -0.066 122 16 0
3.299 0.037 -0.057 121 16 0
3.3099999 0.030999999 -0.048 79 16 0
3.312 0.026000001 -0.039000001 36 16 0
3.303 0.02 -0.029999999 23 16 0
3.2969999 0.014 -0.021 20 16 0
3.2850001 0.0080000004 -0.012 19 16 0
3.27 0.0020000001 -0.003 19 16 0
3.2639999 -0.003 0.0049999999 19 16 0
3.2520001 -0.0089999996 0.013 26 16 0
3.257 -0.015 0.022 50 16 0
3.266 -0.021 0.030999999 150 16 0
3.27 -0.027000001 0.039999999 150 16 0
3.27 -0.032000002 0.048 150 16 0
3.2909999 -0.039000001 0.057999998 150 16 0
3.2920001 -0.045000002 0.066 150 16 0
3.2909999 -0.050999999 0.075000003 150 16 0
3.303 -0.057 0.083999999 150 16 0
3.3099999 -0.063000001 0.093000002 150 16 0
3.303 -0.068999998 0.102 44 16 0
3.3010001 -0.075000003 0.11 31 16 0
3.2880001 -0.081 0.119 30 16 0
3.279 -0.086999997 0.127 29 16 0
3.267 -0.093000002 0.13500001 30 16 0
3.263 -0.098999999 0.14399999 31 16 0
3.2479999 -0.104 0.152 31 16 0
3.2390001 -0.11 0.16 30 16 0
3.23 -0.116 0.168 31 16 0
3.2190001 -0.122 0.176 31 16 0
3.214 -0.127 0.184 31 16 0
3.204 -0.133 0.192 29 16 0
3.191 -0.139 0.2 29 16 0
3.1819999 -0.14399999 0.207 30 16 0
3.1760001 -0.15000001 0.215 30 16 0
3.1630001 -0.156 0.223 29 16 0
3.155 -0.161 0.23100001 29 16 0
3.145 -0.167 0.23800001 30 16 0
3.1340001 -0.17200001 0.245 29 16 0
3.1240001 -0.178 0.25299999 28 16 0
3.1140001 -0.184 0.25999999 29 16 0
3.109 -0.189 0.26800001 28 16 0
3.0940001 -0.19499999 0.27500001 28 16 0
3.0840001 -0.2 0.28200001 26 16 0
3.0810001 -0.206 0.289 28 16 0
3.0669999 -0.211 0.296 28 16 0
3.059 -0.21600001 0.303 30 16 0
3.0550001 -0.222 0.31099999 29 16 0
3.0350001 -0.227 0.317 29 16 0
3.029 -0.23199999 0.324 30 16 0
3.0190001 -0.23800001 0.331 31 16 0
3.0090001 -0.243 0.33700001 31 16 0
3.0020001 -0.248 0.34400001 30 16 0
2.994 -0.25400001 0.35100001 31 16 0
2.977 -0.259 0.35699999 31 16 0
2.9690001 -0.264 0.36300001 31 16 0
2.964 -0.26899999 0.37 30 16 0
2.9530001 -0.27500001 0.377 30 16 0
2.9430001 -0.28 0.38299999 30 16 0
2.9319999 -0.285 0.389 30 16 0
2.9300001 -0.28999999 0.396 30 16 0
2.9170001 -0.29499999 0.40200001 29 16 0
2.9059999 -0.30000001 0.40799999 31 16 0
2.898 -0.30500001 0.414 30 16 0
2.8870001 -0.31 0.41999999 31 16 0
2.8759999 -0.315 0.42500001 31 16 0
2.869 -0.31999999 0.43200001 31 16 0
2.8599999 -0.32499999 0.43799999 31 16 0
2.8510001 -0.331 0.44400001 31 16 0
2.8440001 -0.336 0.44999999 31 16 0
2.832 -0.34 0.45500001 31 16 0
2.8280001 -0.34599999 0.461 33 16 0
2.8169999 -0.35100001 0.46700001 31 16 0
2.809 -0.35600001 0.472 32 16 0
2.799 -0.361 0.47799999 31 16 0
2.7909999 -0.366 0.484 32 16 0
2.7839999 -0.37099999 0.48899999 32 16 0
2.776 -0.37599999 0.495 33 16 0
2.7650001 -0.38 0.5 32 16 0
2.7520001 -0.384 0.50400001 32 16 0
2.7449999 -0.38999999 0.50999999 32 16 0
2.7390001 -0.39500001 0.51599997 33 16 0
2.7320001 -0.40000001 0.52100003 35 16 0
2.727 -0.405 0.52700001 34 16 0
2.71 -0.40900001 0.52999997 34 16 0
2.707 -0.414 0.53600001 36 16 0
2.6960001 -0.419 0.54100001 33 16 0
2.687 -0.42300001 0.546 33 16 0
2.6760001 -0.428 0.55000001 34 16 0
2.665 -0.43200001 0.55400002 34 16 0
2.6619999 -0.43700001 0.56 35 16 0
2.655 -0.442 0.565 35 16 0
2.6470001 -0.447 0.56999999 42 16 0
2.6440001 -0.45300001 0.57599998 47 16 0
2.632 -0.45699999 0.57999998 51 16 0
2.625 -0.46200001 0.58499998 43 16 0
2.6210001 -0.46700001 0.58999997 52 16 0
2.6110001 -0.47099999 0.59399998 48 16 0
2.598 -0.47499999 0.59799999 48 16 0
2.5910001 -0.47999999 0.602 58 16 0
2.589 -0.48500001 0.60799998 61 16 0
2.5710001 -0.48800001 0.61000001 50 16 0
2.5599999 -0.49200001 0.61400002 54 16 0
2.5569999 -0.498 0.61900002 55 16 0
2.5450001 -0.50099999 0.62199998 50 16 0
2.54 -0.50700003 0.62699997 59 16 0
2.5309999 -0.51099998 0.63099998 60 16 0
2.5220001 -0.51499999 0.63499999 63 16 0
2.5139999 -0.51899999 0.639 62 16 0
2.51 -0.52499998 0.64399999 60 16 0
2.5 -0.52899998 0.64700001 63 16 0
2.4860001 -0.53200001 0.64899999 57 16 0
2.483 -0.537 0.65399998 64 16 0
2.473 -0.54100001 0.65799999 58 16 0
2.4630001 -0.54500002 0.66100001 64 16 0
2.4579999 -0.55000001 0.66500002 69 16 0
2.4460001 -0.55299997 0.66799998 63 16 0
2.4419999 -0.55800003 0.67199999 67 16 0
2.4319999 -0.56199998 0.67500001 70 16 0
2.4200001 -0.56599998 0.67699999 59 16 0
2.4119999 -0.56999999 0.68099999 64 16 0
2.4070001 -0.57499999 0.685 72 16 0
2.398 -0.579 0.68800002 63 16 0
2.3959999 -0.58399999 0.69199997 78 16 0
2.3870001 -0.588 0.69499999 72 16 0
2.3740001 -0.59100002 0.69700003 73 16 0
2.369 -0.59600002 0.70099998 77 16 0
2.362 -0.60000002 0.704 72 16 0
2.3529999 -0.60399997 0.70700002 73 16 0
2.3469999 -0.60799998 0.70999998 82 16 0
2.339 -0.61199999 0.713 80 16 0
2.325 -0.61500001 0.71399999 78 16 0
2.322 -0.62 0.71799999 82 16 0
2.3139999 -0.62400001 0.72000003 82 16 0
2.3069999 -0.62800002 0.72299999 78 16 0
2.302 -0.63300002 0.727 87 16 0
2.293 -0.63599998 0.72899997 83 16 0
2.2850001 -0.63999999 0.73100001 84 16 0
2.276 -0.64300001 0.73299998 111 16 0
2.27 -0.648 0.736 116 16 0
2.2609999 -0.65100002 0.73799998 110 16 0
2.2479999 -0.653 0.73900002 110 16 0
2.2449999 -0.65799999 0.74199998 114 16 0
2.234 -0.66100001 0.74299997 119 16 0
2.223 -0.66399997 0.74400002 112 16 0
2.2190001 -0.66900003 0.74800003 119 16 0
2.2079999 -0.671 0.74800003 114 16 0
2.204 -0.676 0.75199997 112 16 0
2.197 -0.68000001 0.75400001 120 16 0
2.1900001 -0.68400002 0.75599998 127 16 0
2.181 -0.68699998 0.75700003 127 16 0
2.1719999 -0.69 0.75800002 114 16 0
2.1619999 -0.69300002 0.759 106 16 0
2.1589999 -0.69800001 0.76200002 106 16 0
2.152 -0.70099998 0.764 118 16 0
2.1429999 -0.704 0.76499999 132 16 0
2.1359999 -0.708 0.76599997 117 16 0
2.128 -0.71100003 0.76800001 120 16 0
2.1229999 -0.71499997 0.76999998 120 16 0
2.1129999 -0.71700001 0.76999998 118 16 0
2.1040001 -0.72000003 0.77100003 119 16 0
2.096 -0.72399998 0.77200001 121 16 0
2.0869999 -0.72600001 0.77200001 127 16 0
2.0829999 -0.73000002 0.77399999 122 16 0
2.075 -0.73299998 0.77499998 130 16 0
2.069 -0.73699999 0.77600002 143 16 0
2.0599999 -0.73900002 0.77700001 136 16 0
2.056 -0.74400002 0.77899998 142 16 0
2.0450001 -0.745 0.778 146 16 0
2.04 -0.74900001 0.77999997 150 16 0
2.0339999 -0.75300002 0.78100002 146 16 0
2.0280001 -0.75599998 0.78200001 145 16 0
2.0239999 -0.75999999 0.78399998 150 16 0
2.0150001 -0.76200002 0.78299999 147 16 0
2.006 -0.76499999 0.78299999 146 16 0
2.0009999 -0.76800001 0.78399998 150 16 0
1.994 -0.77100003 0.78500003 150 16 0
1.9859999 -0.77399999 0.78500003 150 16 0
1.9809999 -0.77700001 0.78600001 150 16 0
1.975 -0.77999997 0.78600001 150 16 0
1.9680001 -0.78299999 0.78600001 148 16 0
1.96 -0.78500003 0.78600001 150 16 0
1.952 -0.78799999 0.78600001 150 16 0
1.95 -0.792 0.78799999 150 16 0
1.943 -0.79500002 0.78799999 150 16 0
1.936 -0.79699999 0.787 150 16 0
1.925 -0.79799998 0.78500003 150 16 0
1.918 -0.80000001 0.78500003 150 16 0
1.913 -0.80299997 0.78500003 150 16 0
1.906 -0.80599999 0.78500003 150 16 0
1.9 -0.80800003 0.78500003 150 16 0
1.896 -0.81199998 0.78600001 150 16 0
1.89 -0.815 0.78500003 150 16 0
1.885 -0.81699997 0.78500003 150 16 0
1.883 -0.82099998 0.78600001 150 16 0
1.873 -0.82200003 0.78399998 150 16 0
1.864 -0.82300001 0.78299999 150 16 0
1.8559999 -0.82499999 0.78100002 150 16 0
1.857 -0.82999998 0.78399998 150 16 0
1.848 -0.83099997 0.78100002 150 16 0
1.8430001 -0.833 0.78100002 150 16 0
1.8430001 -0.838 0.78299999 150 16 0
1.835 -0.83899999 0.78100002 150 16 0
1.8279999 -0.84100002 0.77999997 150 16 0
1.8200001 -0.84200001 0.778 150 16 0
1.812 -0.84299999 0.77600002 150 16 0
1.809 -0.84600002 0.77600002 150 16 0
1.8049999 -0.84899998 0.77600002 150 16 0
1.798 -0.85000002 0.77399999 150 16 0
1.7920001 -0.852 0.773 150 16 0
1.794 -0.85699999 0.77499998 150 16 0
1.7869999 -0.85799998 0.77200001 150 16 0
1.779 -0.85900003 0.76999998 150 16 0
1.776 -0.861 0.76999998 150 16 0
1.77 -0.86299998 0.76800001 150 16 0
1.765 -0.86500001 0.76700002 150 16 0
1.76 -0.866 0.76599997 150 16 0
1.752 -0.866 0.76300001 150 16 0
1.753 -0.87099999 0.764 150 16 0
1.749 -0.87300003 0.76200002 150 16 0
1.743 -0.87400001 0.75999999 150 16 0
1.7410001 -0.87699997 0.75999999 150 16 0
1.735 -0.87699997 0.75700003 150 16 0
1.726 -0.87699997 0.75400001 150 16 0
1.724 -0.88 0.75400001 150 16 0
1.72 -0.88099998 0.75199997 150 16 0
1.715 -0.88200003 0.75 150 16 0
1.715 -0.88599998 0.75 150 16 0
1.7079999 -0.88599998 0.74699998 150 16 0
1.707 -0.889 0.74599999 150 16 0
1.693 -0.88499999 0.74000001 150 18 0
1.691 -0.88700002 0.73900002 150 16 0
1.689 -0.889 0.73799998 150 16 0
1.684 -0.88999999 0.736 150 16 0
1.681 -0.89099997 0.73400003 150 16 0
1.681 -0.89499998 0.73400003 150 16 0
1.678 -0.89600003 0.73199999 150 16 0
1.673 -0.89600003 0.72899997 150 16 0
1.669 -0.89700001 0.727 150 16 0
1.6670001 -0.89899999 0.72500002 150 16 0
1.663 -0.89899999 0.72299999 150 16 0
1.663 -0.90200001 0.722 150 16 0
1.6619999 -0.90399998 0.72100002 150 16 0
1.658 -0.90399998 0.71799999 150 16 0
1.655 -0.90600002 0.71600002 150 16 0
1.653 -0.90700001 0.71399999 150 16 0
1.647 -0.90600002 0.70999998 150 19 0
1.643 -0.90600002 0.70700002 150 16 0
1.643 -0.90799999 0.70599997 150 16 0
1.641 -0.90899998 0.704 150 16 0
1.6339999 -0.90799999 0.69999999 150 19 0
1.6339999 -0.90899998 0.69800001 150 16 0
1.632 -0.91000003 0.69599998 150 16 0
1.632 -0.912 0.69499999 150 16 0
1.63 -0.91299999 0.69199997 150 16 0
1.624 -0.91100001 0.68800002 150 19 0
1.625 -0.91299999 0.68699998 150 16 0
1.624 -0.91399997 0.685 150 16 0
1.623 -0.91500002 0.68300003 150 16 0
1.62 -0.91500002 0.68000001 150 16 0
1.62 -0.91600001 0.67799997 150 16 0
1.619 -0.917 0.67500001 150 16 0
1.619 -0.91799998 0.67299998 150 16 0
1.608 -0.91299999 0.667 150 18 0
1.61 -0.91500002 0.66600001 150 16 0
1.608 -0.91500002 0.66299999 150 16 0
1.607 -0.91600001 0.66000003 150 16 0
1.605 -0.91500002 0.65700001 150 16 0
1.601 -0.91299999 0.653 150 16 0
1.605 -0.917 0.653 150 16 0
1.601 -0.91500002 0.64899999 150 16 0
1.602 -0.91600001 0.64700001 150 16 0
1.6 -0.91500002 0.64300001 150 16 0
1.6 -0.91600001 0.64099997 150 16 0
1.598 -0.91500002 0.63800001 150 16 0
1.597 -0.91399997 0.63499999 150 16 0
1.597 -0.91500002 0.63200003 150 16 0
1.595 -0.91399997 0.62900001 150 16 0
1.596 -0.91399997 0.62699997 150 16 0
1.597 -0.91500002 0.62400001 150 16 0
1.598 -0.91500002 0.62199998 150 16 0
1.598 -0.91500002 0.61900002 150 16 0
1.598 -0.91500002 0.616 150 16 0
1.598 -0.91500002 0.61400002 150 16 0
1.595 -0.912 0.60900003 150 16 0
1.597 -0.91299999 0.60699999 57 0 0
1.597 -0.912 0.60399997 150 16 0
1.597 -0.912 0.60100001 150 16 0
1.598 -0.91100001 0.59899998 66 0 0
1.6 -0.912 0.59600002 67 0 0
1.6 -0.91100001 0.59299999 70 0 0
1.6 -0.91000003 0.58999997 72 0 0
1.604 -0.91100001 0.588 71 0 0
1.603 -0.91000003 0.58499998 63 0 0
1.601 -0.90799999 0.58099997 64 0 0
1.598 -0.90399998 0.57599998 47 0 0
1.605 -0.90700001 0.57599998 66 0 0
1.6 -0.903 0.57099998 49 0 0
1.598 -0.90100002 0.56699997 64 0 0
1.601 -0.90100002 0.565 56 0 0
1.609 -0.90399998 0.56400001 59 0 0
1.603 -0.89899999 0.55800003 57 0 0
1.604 -0.898 0.55500001 58 0 0
1.605 -0.89700001 0.55299997 58 0 0
1.607 -0.89600003 0.55000001 56 0 0
1.609 -0.89499998 0.54699999 3 0 0
1.61 -0.89399999 0.54400003 61 0 0
1.61 -0.89200002 0.54000002 62 0 0
1.617 -0.89399999 0.53899997 53 0 0
1.615 -0.88999999 0.53500003 60 0 0
1.62 -0.89099997 0.53299999 46 0 0
1.618 -0.88800001 0.52899998 62 0 0
1.618 -0.88599998 0.52499998 54 0 0
1.622 -0.88499999 0.523 56 0 0
1.625 -0.88499999 0.51999998 48 0 0
1.625 -0.88200003 0.51700002 52 0 0
1.627 -0.88099998 0.514 50 0 0
1.6289999 -0.87900001 0.51099998 59 0 0
1.631 -0.87699997 0.50800002 59 0 0
1.633 -0.87599999 0.505 3 0 0
1.638 -0.87599999 0.50199997 45 0 0
1.645 -0.87699997 0.50099999 2 0 0
1.647 -0.875 0.498 2 0 0
1.6440001 -0.87 0.493 34 0 0
1.651 -0.87099999 0.49200001 2 0 0
1.6440001 -0.86500001 0.486 2 0 0
1.65 -0.86400002 0.484 31 0 0
1.6569999 -0.86500001 0.48199999 2 0 0
1.659 -0.86299998 0.479 2 0 0
1.6619999 -0.861 0.47600001 2 0 0
1.666 -0.86000001 0.47299999 1 0 0
1.666 -0.85699999 0.47 2 0 0
1.673 -0.85699999 0.46799999 2 0 0
1.674 -0.85399997 0.465 2 0 0
1.676 -0.852 0.461 150 16 0
1.681 -0.85100001 0.45899999 2 0 0
1.683 -0.84799999 0.456 150 16 0
1.6849999 -0.84600002 0.45300001 150 16 0
1.688 -0.84299999 0.449 150 16 0
1.692 -0.84100002 0.447 150 16 0
1.694 -0.838 0.44299999 145 16 0
1.701 -0.838 0.442 150 16 0
1.7 -0.83399999 0.43700001 150 16 0
1.709 -0.83399999 0.43599999 150 16 0
1.711 -0.83200002 0.433 150 16 0
1.715 -0.82999998 0.43000001 146 16 0
1.723 -0.829 0.428 140 16 0
1.725 -0.82599998 0.42500001 141 16 0
1.726 -0.82300001 0.421 141 16 0
1.729 -0.81999999 0.41800001 142 16 0
1.732 -0.81699997 0.41499999 150 16 0
1.737 -0.815 0.41299999 139 16 0
1.739 -0.81199998 0.40900001 150 16 0
1.747 -0.81099999 0.40799999 137 16 0
1.751 -0.80900002 0.405 137 16 0
1.757 -0.80699998 0.40200001 147 16 0
1.762 -0.80500001 0.40000001 143 16 0
1.767 -0.80299997 0.39700001 143 16 0
1.77 -0.79900002 0.39399999 137 16 0
1.772 -0.796 0.391 143 16 0
1.78 -0.79500002 0.389 147 16 0
1.783 -0.79100001 0.38600001 150 16 0
1.788 -0.78899997 0.38299999 140 16 0
1.795 -0.787 0.38100001 136 16 0
1.8 -0.78500003 0.37799999 135 16 0
1.8 -0.77999997 0.375 131 16 0
1.808 -0.77899998 0.37200001 108 16 0
1.816 -0.778 0.37 105 16 0
1.819 -0.77399999 0.36700001 104 16 0
1.826 -0.77200001 0.36500001 105 16 0
1.832 -0.76899999 0.36199999 119 16 0
1.8329999 -0.76499999 0.359 118 16 0
1.8380001 -0.76200002 0.35600001 112 16 0
1.846 -0.75999999 0.354 111 16 0
1.849 -0.75599998 0.35100001 104 16 0
1.854 -0.75300002 0.34799999 101 16 0
1.859 -0.75 0.34599999 102 16 0
1.862 -0.74599999 0.34299999 110 16 0
1.865 -0.74199998 0.34 107 16 0
1.872 -0.74000001 0.33700001 93 16 0
1.888 -0.741 0.33700001 93 16 0
1.891 -0.736 0.333 94 16 0
1.899 -0.73400003 0.331 95 16 0
1.904 -0.73100001 0.32800001 92 16 0
1.91 -0.72799999 0.32600001 94 16 0
1.919 -0.72600001 0.324 92 16 0
1.924 -0.722 0.32100001 88 16 0
1.927 -0.71799999 0.31799999 81 16 0
1.937 -0.71600002 0.31600001 87 16 0
1.939 -0.71100003 0.31299999 81 16 0
1.944 -0.70700002 0.31 84 16 0
1.955 -0.70599997 0.308 84 16 0
1.959 -0.70099998 0.30500001 78 16 0
1.965 -0.69800001 0.303 75 16 0
1.969 -0.69400001 0.30000001 82 16 0
1.982 -0.69199997 0.29800001 90 16 0
1.984 -0.68699998 0.29499999 76 16 0
1.9910001 -0.68400002 0.29300001 75 16 0
2 -0.68099999 0.28999999 70 16 0
2.0079999 -0.67799997 0.28799999 80 16 0
2.0109999 -0.67299998 0.285 77 16 0
2.02 -0.67000002 0.28299999 84 16 0
2.03 -0.66799998 0.28099999 81 16 0
2.0339999 -0.66299999 0.278 68 16 0
2.046 -0.66100001 0.27599999 72 16 0
2.0539999 -0.65700001 0.27399999 70 16 0
2.0580001 -0.653 0.271 72 16 0
2.0680001 -0.64999998 0.26899999 65 16 0
2.072 -0.64499998 0.266 66 16 0
2.079 -0.64099997 0.26300001 69 16 0
2.0899999 -0.63800001 0.26100001 62 16 0
2.096 -0.63300002 0.25799999 64 16 0
2.108 -0.63099998 0.257 60 16 0
2.1099999 -0.625 0.25299999 52 16 0
2.1229999 -0.62199998 0.25099999 65 16 0
2.1289999 -0.61799997 0.249 62 16 0
2.1370001 -0.61400002 0.24600001 66 16 0
2.154 -0.61199999 0.245 60 16 0
2.161 -0.60799998 0.242 62 16 0
2.1689999 -0.60399997 0.23999999 52 16 0
2.1760001 -0.59899998 0.237 56 16 0
2.1860001 -0.59500003 0.235 46 16 0
2.1900001 -0.58999997 0.23199999 49 16 0
2.1989999 -0.58600003 0.23 52 16 0
2.2090001 -0.58099997 0.227 42 16 0
2.22 -0.57800001 0.22499999 49 16 0
2.2320001 -0.574 0.223 49 16 0
2.237 -0.56900001 0.22 48 16 0
2.2479999 -0.565 0.21799999 45 16 0
2.2520001 -0.55900002 0.215 45 16 0
2.2679999 -0.55599999 0.213 47 16 0
2.2739999 -0.551 0.211 47 16 0
2.2850001 -0.546 0.208 48 16 0
2.293 -0.54100001 0.206 38 16 0
2.3039999 -0.537 0.20299999 38 16 0
2.309 -0.53100002 0.20100001 42 16 0
2.322 -0.52700001 0.198 41 16 0
2.3329999 -0.52200001 0.19599999 41 16 0
2.3469999 -0.51800001 0.19400001 39 16 0
2.3559999 -0.51300001 0.191 35 16 0
2.3670001 -0.509 0.189 29 16 0
2.3759999 -0.50300002 0.18700001 45 16 0
2.391 -0.49900001 0.184 39 16 0
2.395 -0.493 0.182 45 16 0
2.4059999 -0.48800001 0.17900001 47 16 0
2.4200001 -0.48300001 0.177 42 16 0
2.428 -0.477 0.17399999 38 16 0
2.4449999 -0.47299999 0.17200001 33 16 0
2.447 -0.46599999 0.169 31 16 0
2.4590001 -0.461 0.167 31 16 0
2.471 -0.456 0.164 32 16 0
2.484 -0.45100001 0.162 27 16 0
2.4960001 -0.44499999 0.15899999 27 16 0
2.5050001 -0.43900001 0.15700001 26 16 0
2.5150001 -0.433 0.154 27 16 0
2.527 -0.428 0.152 26 16 0
2.539 -0.42199999 0.149 25 16 0
2.5510001 -0.41600001 0.147 26 16 0
2.562 -0.41 0.14399999 27 16 0
2.579 -0.405 0.142 27 16 0
2.586 -0.398 0.139 26 16 0
2.6059999 -0.39300001 0.13699999 26 16 0
2.6140001 -0.38699999 0.134 27 16 0
2.628 -0.38100001 0.132 27 16 0
2.6340001 -0.373 0.12899999 26 16 0
2.658 -0.36899999 0.127 26 16 0
2.6689999 -0.36199999 0.124 27 16 0
2.6800001 -0.35499999 0.122 25 16 0
2.7 -0.34999999 0.119 28 16 0
2.7119999 -0.34299999 0.117 27 16 0
2.723 -0.336 0.114 25 16 0
2.7279999 -0.329 0.111 26 16 0
2.747 -0.322 0.109 26 16 0
2.76 -0.31600001 0.106 27 16 0
2.7739999 -0.30899999 0.103 25 16 0
2.786 -0.301 0.101 26 16 0
2.799 -0.294 0.097999997 26 16 0
2.819 -0.28799999 0.096000001 25 16 0
2.832 -0.28 0.093000002 25 16 0
2.849 -0.273 0.090000004 26 16 0
2.8629999 -0.266 0.086999997 25 16 0
2.875 -0.25799999 0.085000001 26 16 0
2.888 -0.25099999 0.082000002 26 16 0
2.9089999 -0.243 0.079000004 25 16 0
2.9200001 -0.235 0.075999998 25 16 0
2.944 -0.228 0.074000001 25 16 0
2.96 -0.221 0.071000002 25 16 0
2.974 -0.212 0.068000004 25 16 0
2.9909999 -0.204 0.066 24 16 0
3.0079999 -0.19599999 0.063000001 25 16 0
3.029 -0.18799999 0.059999999 25 16 0
3.043 -0.18000001 0.057 25 16 0
3.0650001 -0.17200001 0.054000001 26 16 0
3.086 -0.163 0.052000001 25 16 0
3.0969999 -0.154 0.048999999 25 16 0
3.1210001 -0.146 0.046 26 16 0
3.1389999 -0.13699999 0.043000001 26 16 0
3.155 -0.12800001 0.039999999 26 16 0
3.1800001 -0.119 0.037 26 16 0
3.1949999 -0.11 0.034000002 26 16 0
3.2119999 -0.101 0.030999999 26 16 0
3.2320001 -0.090999998 0.028000001 25 16 0
3.257 -0.082000002 0.025 27 16 0
3.273 -0.071999997 0.022 40 16 0
3.277 -0.061999999 0.018999999 146 16 0
3.2720001 -0.052000001 0.016000001 102 16 0
3.257 -0.041999999 0.012 107 16 0
3.257 -0.032000002 0.0089999996 104 16 0
3.2479999 -0.022 0.0060000001 51 16 0
3.2490001 -0.012 0.003 20 16 0
3.2809999 -0.001 0 17 19 0
3.3010001 0.0080000004 -0.0020000001 18 16 0
3.323 0.017999999 -0.0049999999 21 16 0
3.323 0.028000001 -0.0080000004 47 16 0
3.316 0.039000001 -0.011 51 16 0
3.3150001 0.048999999 -0.014 43 16 0
3.3110001 0.059 -0.017000001 41 16 0
3.3050001 0.068999998 -0.02 50 16 0
3.2920001 0.079000004 -0.023 52 16 0
3.2880001 0.089000002 -0.026000001 57 16 0
3.28 0.098999999 -0.028999999 52 16 0
3.2720001 0.109 -0.032000002 54 16 0
3.266 0.119 -0.034000002 59 16 0
3.2590001 0.12899999 -0.037 54 16 0
3.2579999 0.139 -0.039999999 54 16 0
3.25 0.149 -0.043000001 53 16 0
3.244 0.15899999 -0.045000002 53 16 0
3.2360001 0.169 -0.048 60 16 0
3.23 0.17900001 -0.050999999 52 16 0
3.23 0.189 -0.052999999 59 16 0
3.217 0.198 -0.056000002 50 16 0
3.21 0.208 -0.057999998 67 16 0
3.2060001 0.21799999 -0.061000001 70 16 0
3.197 0.227 -0.063000001 66 16 0
3.1930001 0.237 -0.066 55 16 0
3.1849999 0.24600001 -0.068000004 63 16 0
3.181 0.25600001 -0.071000002 57 16 0
3.1719999 0.26499999 -0.072999999 64 16 0
3.1670001 0.27500001 -0.075000003 75 16 0
3.158 0.28400001 -0.078000002 68 16 0
3.1530001 0.294 -0.079999998 58 16 0
3.151 0.303 -0.082000002 59 16 0
3.141 0.31200001 -0.083999999 62 16 0
3.138 0.322 -0.086999997 71 16 0
3.1359999 0.33199999 -0.089000002 68 16 0
3.1170001 0.34 -0.090999998 84 16 0
3.1159999 0.34900001 -0.093000002 71 16 0
3.1140001 0.359 -0.094999999 80 16 0
3.1059999 0.368 -0.097000003 66 16 0
3.102 0.377 -0.1 77 16 0
3.102 0.38699999 -0.102 80 16 0
3.089 0.396 -0.104 82 16 0
3.086 0.405 -0.106 84 16 0
3.0780001 0.414 -0.108 83 16 0
3.0710001 0.42300001 -0.109 84 16 0
3.069 0.43200001 -0.112 82 16 0
3.0599999 0.44100001 -0.113 84 16 0
3.052 0.44999999 -0.115 79 16 0
3.0469999 0.45899999 -0.117 87 16 0
3.043 0.46799999 -0.119 85 16 0
3.0369999 0.477 -0.121 93 16 0
3.0320001 0.486 -0.122 87 16 0
3.029 0.495 -0.124 87 16 0
3.023 0.50400001 -0.126 72 16 0
3.0179999 0.51300001 -0.12800001 96 16 0
3.0120001 0.52100003 -0.12899999 80 16 0
3.0039999 0.52999997 -0.131 71 16 0
2.9990001 0.53799999 -0.133 77 16 0
3 0.54799998 -0.134 101 16 0
2.9909999 0.55699998 -0.13600001 94 16 0
2.9860001 0.565 -0.13699999 88 16 0
2.9779999 0.574 -0.139 91 16 0
2.971 0.58200002 -0.14 77 16 0
2.9679999 0.59100002 -0.142 78 16 0
2.961 0.59899998 -0.14300001 90 16 0
2.9590001 0.60799998 -0.145 97 16 0
2.951 0.616 -0.146 91 16 0
2.9530001 0.62599999 -0.148 99 16 0
2.9400001 0.63300002 -0.149 90 16 0
2.938 0.64300001 -0.15000001 104 16 0
2.937 0.65200001 -0.152 102 16 0
2.9260001 0.65899998 -0.153 108 16 0
2.924 0.66799998 -0.154 110 16 0
2.9189999 0.67699999 -0.155 115 16 0
2.915 0.685 -0.15700001 97 16 0
2.9100001 0.69400001 -0.15800001 105 16 0
2.9030001 0.70200002 -0.15899999 120 16 0
2.891 0.70899999 -0.16 112 16 0
2.888 0.71799999 -0.161 104 16 0
2.881 0.72500002 -0.162 106 16 0
2.8770001 0.73400003 -0.163 106 16 0
2.8740001 0.74299997 -0.164 102 16 0
2.868 0.75099999 -0.16500001 110 16 0
2.8640001 0.759 -0.16599999 121 16 0
2.858 0.76700002 -0.167 140 16 0
2.8570001 0.77600002 -0.168 145 16 0
2.849 0.78299999 -0.169 148 16 0
2.845 0.792 -0.17 150 16 0
2.8440001 0.801 -0.171 141 16 0
2.8369999 0.80900002 -0.171 147 16 0
2.8369999 0.81800002 -0.17200001 130 16 0
2.8340001 0.82700002 -0.17299999 150 16 0
2.823 0.833 -0.17399999 150 16 0
2.8199999 0.84200001 -0.17399999 150 16 0
2.812 0.84899998 -0.175 150 16 0
2.8080001 0.85699999 -0.176 138 16 0
2.802 0.86500001 -0.176 134 16 0
2.7980001 0.87300003 -0.177 142 16 0
2.793 0.88099998 -0.177 150 16 0
2.7939999 0.88999999 -0.178 150 16 0
2.7880001 0.898 -0.17900001 150 16 0
2.7780001 0.90399998 -0.17900001 147 16 0
2.776 0.91299999 -0.17900001 150 16 0
2.773 0.921 -0.18000001 150 16 0
2.7690001 0.92900002 -0.18000001 150 16 0
2.7639999 0.93699998 -0.18099999 150 16 0
2.7609999 0.94599998 -0.18099999 150 16 0
2.757 0.95300001 -0.182 139 16 0
2.7509999 0.96100003 -0.182 47 16 0
2.7609999 0.97399998 -0.183 33 16 0
2.7460001 0.97799999 -0.183 125 16 0
2.74 0.98500001 -0.183 150 16 0
2.734 0.99199998 -0.183 150 16 0
2.7309999 1 -0.183 150 16 0
2.7279999 1.008 -0.183 150 16 0
2.723 1.016 -0.183 150 16 0
2.7160001 1.022 -0.183 150 16 0
2.7160001 1.0319999 -0.183 150 16 0
2.7130001 1.04 -0.184 150 16 0
2.707 1.0470001 -0.183 150 16 0
2.7019999 1.054 -0.183 150 16 0
2.701 1.063 -0.183 150 16 0
2.6960001 1.0700001 -0.183 150 16 0
2.687 1.076 -0.183 150 16 0
2.6900001 1.086 -0.183 150 16 0
2.6789999 1.091 -0.182 150 16 0
2.6760001 1.098 -0.182 150 16 0
2.6700001 1.105 -0.182 150 16 0
2.6719999 1.115 -0.182 150 16 0
2.6630001 1.1210001 -0.18099999 150 16 0
2.658 1.128 -0.18099999 150 16 0
2.6570001 1.136 -0.18099999 150 16 0
2.654 1.1440001 -0.18000001 150 16 0
2.6489999 1.15 -0.18000001 150 16 0
2.6389999 1.155 -0.17900001 150 16 0
2.641 1.165 -0.17900001 150 16 0
2.6389999 1.173 -0.178 150 16 0
2.632 1.179 -0.177 150 16 0
2.6300001 1.187 -0.177 150 16 0
2.6259999 1.194 -0.176 150 16 0
2.625 1.202 -0.176 150 16 0
2.622 1.21 -0.175 150 16 0
2.6159999 1.216 -0.17399999 150 16 0
2.615 1.224 -0.17399999 150 16 0
2.6059999 1.229 -0.17299999 150 16 0
2.6029999 1.2359999 -0.17200001 150 16 0
2.6059999 1.2460001 -0.171 150 16 0
2.596 1.25 -0.17 150 16 0
2.5969999 1.2589999 -0.169 150 16 0
2.589 1.2640001 -0.168 150 16 0
2.5910001 1.274 -0.167 150 16 0
2.5840001 1.279 -0.16599999 150 16 0
2.5829999 1.2869999 -0.16500001 150 16 0
2.576 1.2920001 -0.164 150 16 0
2.575 1.3 -0.163 149 16 0
2.569 1.3049999 -0.161 150 16 0
2.5680001 1.313 -0.16 150 16 0
2.5680001 1.321 -0.15899999 150 16 0
2.559 1.325 -0.15800001 150 16 0
2.562 1.335 -0.15700001 150 16 0
2.559 1.342 -0.155 150 16 0
2.5550001 1.348 -0.154 150 16 0
2.552 1.355 -0.153 150 16 0
2.5510001 1.362 -0.15099999 150 16 0
2.543 1.3660001 -0.15000001 150 16 0
2.5439999 1.375 -0.148 150 16 0
2.543 1.382 -0.147 150 16 0
2.5369999 1.387 -0.145 150 16 0
2.5339999 1.393 -0.14300001 150 16 0
2.5380001 1.403 -0.142 150 16 0
2.5280001 1.405 -0.14 150 16 0
2.529 1.414 -0.139 150 16 0
2.5309999 1.423 -0.13699999 150 16 0
2.529 1.4299999 -0.13500001 150 16 0
2.523 1.434 -0.133 150 16 0
2.523 1.441 -0.132 150 16 0
2.517 1.4450001 -0.13 150 16 0
2.51 1.449 -0.127 150 16 0
2.513 1.4579999 -0.126 150 16 0
2.5139999 1.466 -0.124 150 16 0
2.5109999 1.472 -0.122 150 16 0
2.5079999 1.477 -0.12 150 16 0
2.5050001 1.483 -0.118 150 16 0
2.503 1.489 -0.115 150 16 0
2.5 1.494 -0.113 150 16 0
2.4960001 1.499 -0.111 150 16 0
2.494 1.5039999 -0.109 150 16 0
2.4920001 1.51 -0.107 150 16 0
2.4879999 1.5140001 -0.104 150 16 0
2.49 1.522 -0.102 150 16 0
2.4849999 1.526 -0.1 150 16 0
2.484 1.5319999 -0.097000003 150 16 0
2.4809999 1.5369999 -0.094999999 150 16 0
2.48 1.543 -0.092 150 16 0
2.4779999 1.548 -0.090000004 150 16 0
2.4779999 1.554 -0.086999997 150 16 0
2.477 1.559 -0.085000001 150 16 0
2.47 1.561 -0.082000002 150 16 0
2.473 1.569 -0.079999998 150 16 0
2.4719999 1.574 -0.077 150 16 0
2.467 1.577 -0.074000001 150 16 0
2.47 1.585 -0.071999997 150 16 0
2.4649999 1.587 -0.068999998 150 16 0
2.461 1.591 -0.066 150 16 0
2.4660001 1.599 -0.063000001 150 16 0
2.467 1.605 -0.061000001 150 16 0
2.4649999 1.609 -0.057999998 150 16 0
2.4619999 1.612 -0.055 150 16 0
2.46 1.617 -0.052000001 150 16 0
2.457 1.62 -0.048999999 150 16 0
2.46 1.626 -0.046 143 16 0
2.4590001 1.63 -0.043000001 135 16 0
2.4560001 1.6339999 -0.039999999 147 16 0
2.454 1.637 -0.037 150 16 0
2.4560001 1.642 -0.034000002 145 16 0
2.45 1.643 -0.030999999 150 16 0
2.457 1.652 -0.028000001 150 16 0
2.4519999 1.653 -0.024 147 16 0
2.45 1.656 -0.021 144 16 0
2.4519999 1.661 -0.017999999 150 16 0
2.4530001 1.666 -0.015 150 16 0
2.4519999 1.669 -0.012 147 16 0
2.451 1.671 -0.0089999996 150 16 0
2.4519999 1.675 -0.0049999999 150 16 0
2.4519999 1.679 -0.0020000001 150 16 0
2.4519999 1.682 0 150 16 0
2.454 1.687 0.003 150 16 0
2.4530001 1.689 0.0070000002 150 16 0
2.4519999 1.691 0.0099999998 150 16 0
2.4519999 1.694 0.014 150 16 0
2.451 1.696 0.017000001 150 16 0
2.4519999 1.699 0.02 150 16 0
2.451 1.701 0.024 150 16 0
2.4519999 1.704 0.027000001 106 16 0
2.454 1.7079999 0.030999999 65 16 0
2.4530001 1.709 0.034000002 43 16 0
2.4549999 1.712 0.037999999 38 16 0
2.454 1.714 0.041000001 40 16 0
2.454 1.715 0.044 41 16 0
2.4519999 1.716 0.048 48 16 0
2.4530001 1.7180001 0.050999999 79 16 0
2.45 1.717 0.055 116 16 0
2.45 1.717 0.057999998 142 16 0
2.4549999 1.722 0.061999999 146 16 0
2.457 1.724 0.064999998 150 16 0
2.4560001 1.725 0.068999998 150 16 0
2.454 1.723 0.071999997 137 16 0
2.457 1.726 0.075999998 142 16 0
2.4590001 1.728 0.079000004 133 16 0
2.461 1.73 0.082999997 129 16 0
2.464 1.732 0.086999997 136 16 0
2.461 1.729 0.090000004 139 16 0
2.4660001 1.733 0.093999997 150 16 0
2.4679999 1.734 0.097000003 150 16 0
2.4660001 1.732 0.101 143 16 0
2.4679999 1.733 0.104 150 16 0
2.4719999 1.735 0.108 150 16 0
2.4719999 1.734 0.111 150 16 0
2.471 1.732 0.115 150 16 0
2.4790001 1.737 0.119 150 16 0
2.477 1.734 0.122 150 16 0
2.4779999 1.733 0.125 150 16 0
2.4820001 1.734 0.12899999 150 16 0
2.4790001 1.73 0.132 147 16 0
2.483 1.7309999 0.13600001 140 16 0
2.487 1.732 0.139 140 16 0
2.4909999 1.732 0.14300001 131 16 0
2.4879999 1.728 0.146 137 16 0
2.4909999 1.728 0.149 138 16 0
