# .PCD v0.7 - Point Cloud Data file format
VERSION 0.7
FIELDS x y z intensity tag line
SIZE 4 4 4 4 1 1
TYPE F F F F U U
COUNT 1 1 1 1 1 1
WIDTH 1359
HEIGHT 1
VIEWPOINT 0 0 0 1 0 0 0
POINTS 1359
DATA ascii
2.47 0.182 -1.723 109 16 0
2.4590001 0.185 -1.714 112 19 0
2.4690001 0.189 -1.719 121 16 0
2.461 0.191 -1.711 123 16 0
2.461 0.19499999 -1.709 118 16 0
2.4590001 0.198 -1.706 120 16 0
2.4630001 0.20100001 -1.706 123 16 0
2.4590001 0.204 -1.7 129 16 0
2.46 0.207 -1.699 114 16 0
2.461 0.20999999 -1.697 108 16 0
2.461 0.214 -1.694 127 16 0
2.4619999 0.21699999 -1.692 121 16 0
2.4619999 0.22 -1.689 125 16 0
2.4630001 0.223 -1.686 110 16 0
2.464 0.226 -1.684 119 16 0
2.461 0.228 -1.678 110 16 0
2.4619999 0.23199999 -1.675 138 16 0
2.464 0.234 -1.673 115 16 0
2.4649999 0.23800001 -1.67 114 16 0
2.464 0.23999999 -1.665 131 16 0
2.4630001 0.243 -1.661 127 16 0
2.4649999 0.24600001 -1.658 118 16 0
2.4630001 0.248 -1.652 123 16 0
2.4649999 0.25099999 -1.649 135 16 0
2.4619999 0.25299999 -1.643 133 16 0
2.464 0.25600001 -1.64 150 16 0
2.4690001 0.259 -1.638 141 16 0
2.4679999 0.26100001 -1.633 147 16 0
2.4649999 0.26300001 -1.626 144 16 0
2.467 0.266 -1.623 142 16 0
2.4719999 0.26899999 -1.6210001 150 16 0
2.4679999 0.271 -1.613 150 16 0
2.471 0.273 -1.609 150 16 0
2.47 0.27599999 -1.604 150 16 0
2.471 0.278 -1.599 150 16 0
2.473 0.28 -1.594 150 16 0
2.474 0.28200001 -1.59 150 16 0
2.477 0.285 -1.586 150 16 0
2.47 0.28600001 -1.575 150 16 0
2.4760001 0.289 -1.574 150 16 0
2.4749999 0.28999999 -1.567 150 16 0
2.4790001 0.29300001 -1.563 150 16 0
2.484 0.29499999 -1.5599999 150 16 0
2.484 0.29699999 -1.554 150 16 0
2.4849999 0.29899999 -1.548 150 16 0
2.4879999 0.301 -1.544 150 16 0
2.487 0.30199999 -1.5369999 150 16 0
2.49 0.30399999 -1.5319999 150 16 0
2.4909999 0.30599999 -1.526 150 16 0
2.4909999 0.30700001 -1.5190001 150 16 0
2.493 0.30899999 -1.513 150 16 0
2.5 0.31099999 -1.511 150 16 0
2.5020001 0.31299999 -1.505 150 16 0
2.4979999 0.31400001 -1.4960001 150 16 0
2.5009999 0.31600001 -1.49 150 16 0
2.5009999 0.317 -1.484 150 16 0
2.507 0.31900001 -1.48 150 16 0
2.5079999 0.31999999 -1.473 150 16 0
2.51 0.32100001 -1.467 150 16 0
2.5120001 0.32300001 -1.461 150 16 0
2.5139999 0.324 -1.454 150 16 0
2.516 0.32499999 -1.448 150 16 0
2.5190001 0.32600001 -1.443 150 16 0
2.5220001 0.32800001 -1.437 150 16 0
2.5250001 0.329 -1.431 150 16 0
2.529 0.33000001 -1.425 150 16 0
2.53 0.331 -1.418 150 16 0
2.533 0.33199999 -1.4119999 150 16 0
2.5369999 0.333 -1.406 150 16 0
2.5350001 0.33399999 -1.398 150 16 0
2.5369999 0.33399999 -1.391 150 16 0
2.5420001 0.336 -1.385 150 16 0
2.54 0.336 -1.376 150 16 0
2.5450001 0.33700001 -1.3710001 150 16 0
2.5450001 0.33700001 -1.363 150 16 0
2.5539999 0.33899999 -1.36 150 16 0
2.5580001 0.34 -1.354 150 16 0
2.5580001 0.34 -1.345 150 16 0
2.5569999 0.34 -1.337 150 16 0
2.5569999 0.34 -1.3279999 150 16 0
2.5599999 0.34099999 -1.322 150 16 0
2.5669999 0.34200001 -1.317 150 16 0
2.5669999 0.34200001 -1.308 150 16 0
2.5699999 0.34200001 -1.302 150 16 0
2.5799999 0.34299999 -1.298 150 16 0
2.5829999 0.34400001 -1.291 150 16 0
2.5869999 0.34400001 -1.284 150 16 0
2.5840001 0.34299999 -1.274 150 16 0
2.5929999 0.34400001 -1.271 150 16 0
2.5969999 0.345 -1.2640001 150 16 0
2.5929999 0.34400001 -1.253 150 16 0
2.596 0.34400001 -1.2460001 150 16 0
2.5999999 0.34400001 -1.239 150 16 0
2.599 0.34299999 -1.23 150 16 0
2.612 0.34400001 -1.227 150 16 0
2.615 0.34400001 -1.22 150 16 0
2.6159999 0.34400001 -1.212 150 16 0
2.612 0.34299999 -1.201 150 16 0
2.622 0.34400001 -1.197 150 16 0
2.6289999 0.34400001 -1.191 150 16 0
2.625 0.34299999 -1.181 150 16 0
2.631 0.34299999 -1.174 150 16 0
2.635 0.34200001 -1.168 150 16 0
2.6370001 0.34200001 -1.16 150 16 0
2.641 0.34099999 -1.152 150 16 0
2.6440001 0.34099999 -1.145 150 16 0
2.648 0.34099999 -1.138 150 16 0
2.652 0.34 -1.13 150 16 0
2.654 0.33899999 -1.122 150 16 0
2.6570001 0.33899999 -1.115 150 16 0
2.6600001 0.338 -1.107 150 16 0
2.668 0.338 -1.101 150 16 0
2.6670001 0.33700001 -1.092 150 16 0
2.678 0.33700001 -1.087 150 16 0
2.6800001 0.336 -1.079 150 16 0
2.684 0.33500001 -1.071 150 16 0
2.6919999 0.33500001 -1.0650001 150 16 0
2.6989999 0.33399999 -1.059 117 16 0
0 0 0 0 16 0
0 0 0 0 16 0
0 0 0 0 16 0
3.132 0.382 -1.187 0 17 0
0 0 0 0 16 0
0 0 0 0 16 0
0 0 0 0 16 0
0 0 0 0 16 0
0 0 0 0 16 0
2.711 0.32100001 -0.97299999 0 19 0
2.747 0.32300001 -0.97600001 20 16 0
2.744 0.32100001 -0.96600002 150 16 0
2.744 0.31999999 -0.95700002 150 16 0
2.7420001 0.31799999 -0.94700003 150 16 0
2.7479999 0.31600001 -0.94 150 16 0
2.7509999 0.315 -0.93199998 150 16 0
2.7579999 0.31400001 -0.92500001 150 16 0
2.7590001 0.31200001 -0.91600001 150 16 0
2.7690001 0.31099999 -0.91000003 150 16 0
2.773 0.31 -0.90200001 150 16 0
2.776 0.308 -0.89399999 150 16 0
2.7780001 0.30599999 -0.88499999 150 16 0
2.7809999 0.30500001 -0.87699997 150 16 0
2.7880001 0.303 -0.87 150 16 0
2.7950001 0.30199999 -0.86299998 150 16 0
2.796 0.30000001 -0.85399997 150 16 0
2.803 0.29899999 -0.847 150 16 0
2.806 0.29699999 -0.83899999 150 16 0
2.8069999 0.29499999 -0.82999998 150 16 0
2.813 0.29300001 -0.82200003 150 16 0
2.8210001 0.292 -0.815 150 16 0
2.826 0.28999999 -0.80800003 150 16 0
2.8310001 0.28799999 -0.79900002 150 16 0
2.835 0.28600001 -0.792 150 16 0
2.8380001 0.28400001 -0.78299999 150 16 0
2.8399999 0.28200001 -0.77399999 150 16 0
2.846 0.28 -0.76700002 150 16 0
2.8499999 0.278 -0.75800002 150 16 0
2.8540001 0.27599999 -0.75 150 16 0
2.8559999 0.273 -0.74199998 150 16 0
2.858 0.271 -0.73299998 150 16 0
2.872 0.27000001 -0.727 150 16 0
2.878 0.26800001 -0.71899998 150 16 0
2.881 0.266 -0.71100003 150 16 0
2.885 0.26300001 -0.70200002 150 16 0
2.891 0.26100001 -0.69400001 150 16 0
2.8989999 0.259 -0.68699998 150 16 0
2.9030001 0.257 -0.67900002 150 16 0
2.905 0.25400001 -0.67000002 150 16 0
2.9100001 0.252 -0.662 150 16 0
2.918 0.25 -0.65399998 150 16 0
2.921 0.24699999 -0.64499998 150 16 0
2.9319999 0.245 -0.639 150 16 0
2.934 0.243 -0.63 150 16 0
2.938 0.23999999 -0.62099999 150 16 0
2.9430001 0.23800001 -0.61299998 150 16 0
2.951 0.235 -0.60500002 150 16 0
2.9560001 0.233 -0.597 150 16 0
2.9590001 0.23 -0.588 150 16 0
2.967 0.228 -0.57999998 150 16 0
2.9690001 0.22499999 -0.57099998 150 16 0
2.974 0.222 -0.56300002 150 16 0
2.9790001 0.219 -0.55500001 150 16 0
2.984 0.21699999 -0.546 150 16 0
2.9860001 0.214 -0.537 150 16 0
2.9909999 0.211 -0.52899998 150 16 0
2.9990001 0.208 -0.52100003 150 16 0
3.0050001 0.206 -0.51200002 150 16 0
3.007 0.20200001 -0.50300002 150 16 0
3.016 0.2 -0.495 150 16 0
3.02 0.197 -0.48699999 150 16 0
3.0220001 0.19400001 -0.477 150 16 0
3.03 0.191 -0.46900001 150 16 0
3.0350001 0.18799999 -0.461 150 16 0
3.0409999 0.185 -0.45199999 150 16 0
3.0469999 0.182 -0.44400001 150 16 0
3.0510001 0.17900001 -0.435 150 16 0
3.056 0.176 -0.426 150 16 0
3.0599999 0.17200001 -0.417 150 16 0
3.066 0.169 -0.40900001 150 16 0
3.076 0.16599999 -0.40000001 150 16 0
3.0829999 0.163 -0.39199999 150 16 0
3.0869999 0.16 -0.38299999 150 16 0
3.0940001 0.15700001 -0.37400001 150 16 0
3.102 0.153 -0.366 150 16 0
3.1040001 0.15000001 -0.35699999 150 16 0
3.1140001 0.147 -0.34799999 150 16 0
3.118 0.14300001 -0.33899999 150 16 0
3.122 0.14 -0.33000001 150 16 0
3.1240001 0.13600001 -0.32100001 150 16 0
3.132 0.133 -0.31200001 150 16 0
3.1400001 0.12899999 -0.303 150 16 0
3.148 0.126 -0.294 150 16 0
3.155 0.122 -0.28600001 150 16 0
3.1559999 0.119 -0.27599999 150 16 0
3.168 0.115 -0.26800001 150 16 0
3.171 0.112 -0.25799999 150 16 0
3.175 0.108 -0.249 150 16 0
3.1830001 0.104 -0.23999999 150 16 0
3.1930001 0.101 -0.23100001 150 16 0
3.194 0.097000003 -0.222 150 16 0
3.2060001 0.093000002 -0.213 142 16 0
3.2079999 0.089000002 -0.20299999 150 16 0
3.2190001 0.085000001 -0.19499999 149 16 0
3.224 0.082000002 -0.185 150 16 0
3.2320001 0.078000002 -0.176 130 16 0
3.2349999 0.074000001 -0.167 122 16 0
3.243 0.07 -0.15700001 126 16 0
3.25 0.066 -0.148 78 16 0
3.2520001 0.061999999 -0.138 53 16 0
3.2620001 0.057999998 -0.12899999 47 16 0
3.2690001 0.052999999 -0.12 54 16 0
3.267 0.048999999 -0.11 84 16 0
3.2750001 0.045000002 -0.1 105 16 0
3.2809999 0.041000001 -0.090999998 125 16 0
3.2880001 0.037 -0.081 116 16 0
3.2980001 0.032000002 -0.071999997 76 16 0
3.3080001 0.028000001 -0.061999999 44 16 0
3.3069999 0.024 -0.052000001 28 16 0
3.303 0.018999999 -0.043000001 22 16 0
3.2980001 0.015 -0.033 20 16 0
3.2850001 0.0099999998 -0.023 19 16 0
3.2820001 0.0060000001 -0.013 19 16 0
3.2720001 0.001 -0.0040000002 19 16 0
3.2679999 -0.0020000001 0.0049999999 18 16 0
3.2609999 -0.0070000002 0.015 22 16 0
3.2579999 -0.011 0.024 31 16 0
3.256 -0.015 0.034000002 57 16 0
3.2690001 -0.02 0.043000001 150 16 0
3.27 -0.025 0.052999999 150 16 0
3.2750001 -0.028999999 0.063000001 150 16 0
3.2809999 -0.034000002 0.071999997 150 16 0
3.2950001 -0.037999999 0.082000002 150 16 0
3.3010001 -0.043000001 0.092 150 16 0
3.3099999 -0.048 0.102 150 16 0
3.3139999 -0.052999999 0.112 150 16 0
3.319 -0.057 0.122 150 16 0
3.3269999 -0.061999999 0.132 150 16 0
3.325 -0.067000002 0.141 57 16 0
3.325 -0.071999997 0.15099999 33 16 0
3.3210001 -0.077 0.16 31 16 0
3.3069999 -0.081 0.169 31 16 0
3.3050001 -0.086000003 0.17900001 31 16 0
3.2950001 -0.090000004 0.18799999 30 16 0
3.2839999 -0.094999999 0.197 30 16 0
3.2820001 -0.1 0.206 30 16 0
3.279 -0.104 0.215 30 16 0
3.2720001 -0.109 0.22400001 30 16 0
3.2590001 -0.113 0.233 31 16 0
3.257 -0.118 0.242 30 16 0
3.2490001 -0.123 0.25099999 30 16 0
3.2490001 -0.12800001 0.25999999 31 16 0
3.2360001 -0.132 0.26899999 31 16 0
3.2290001 -0.13699999 0.27700001 31 16 0
3.2249999 -0.141 0.28600001 31 16 0
3.2149999 -0.146 0.294 32 16 0
3.2090001 -0.15000001 0.303 31 16 0
3.204 -0.155 0.31200001 31 16 0
3.197 -0.16 0.32100001 29 16 0
3.1849999 -0.164 0.329 29 16 0
3.1800001 -0.169 0.33700001 29 16 0
3.177 -0.17299999 0.34599999 29 16 0
3.1659999 -0.178 0.354 29 16 0
3.1619999 -0.182 0.36199999 30 16 0
3.1530001 -0.18700001 0.37 30 16 0
3.142 -0.191 0.37799999 29 16 0
3.132 -0.19599999 0.38600001 29 16 0
3.1289999 -0.2 0.39399999 30 16 0
3.122 -0.205 0.40200001 30 16 0
3.1140001 -0.20900001 0.41 29 16 0
3.1040001 -0.214 0.41800001 28 16 0
3.0999999 -0.219 0.426 28 16 0
3.089 -0.223 0.433 28 16 0
3.086 -0.228 0.442 28 16 0
3.0739999 -0.23199999 0.449 29 16 0
3.0680001 -0.236 0.45699999 29 16 0
3.063 -0.241 0.465 29 16 0
3.0550001 -0.24600001 0.472 31 16 0
3.043 -0.25 0.479 32 16 0
3.0409999 -0.255 0.48699999 38 16 0
3.0280001 -0.259 0.49399999 43 16 0
3.017 -0.26300001 0.50099999 48 16 0
3.007 -0.26699999 0.50700003 94 16 0
2.9979999 -0.271 0.514 89 16 0
2.9879999 -0.27599999 0.52100003 68 16 0
2.9719999 -0.27900001 0.52700001 60 16 0
2.9630001 -0.28400001 0.53399998 45 16 0
2.9430001 -0.287 0.53799999 43 16 0
2.928 -0.28999999 0.54400003 44 16 0
2.9200001 -0.29499999 0.551 44 16 0
2.9070001 -0.29800001 0.55599999 42 16 0
2.901 -0.303 0.56300002 44 16 0
2.8840001 -0.30599999 0.56800002 44 16 0
2.868 -0.31 0.57300001 41 16 0
2.8659999 -0.315 0.58099997 43 16 0
2.8529999 -0.31799999 0.58600003 43 16 0
2.8299999 -0.32100001 0.58899999 48 16 0
2.8269999 -0.32600001 0.597 49 16 0
2.8150001 -0.329 0.602 52 16 0
2.8010001 -0.333 0.60699999 47 16 0
2.7869999 -0.336 0.61199999 50 16 0
2.7720001 -0.34 0.616 63 16 0
2.763 -0.34299999 0.62199998 56 16 0
2.75 -0.347 0.62599999 54 16 0
2.743 -0.35100001 0.63300002 55 16 0
2.733 -0.35499999 0.63800001 56 16 0
2.723 -0.359 0.64300001 61 16 0
2.7130001 -0.36300001 0.648 63 16 0
2.6960001 -0.36500001 0.65200001 56 16 0
2.688 -0.36899999 0.65700001 64 16 0
2.6849999 -0.37400001 0.66399997 68 16 0
2.6670001 -0.377 0.667 71 16 0
2.6530001 -0.38 0.671 61 16 0
2.648 -0.384 0.67699999 72 16 0
2.6400001 -0.38800001 0.68199998 71 16 0
2.6300001 -0.39199999 0.68699998 82 16 0
2.619 -0.39500001 0.69099998 79 16 0
2.612 -0.39899999 0.69599998 71 16 0
2.5999999 -0.403 0.69999999 77 16 0
2.592 -0.40700001 0.70499998 87 16 0
2.585 -0.41100001 0.70999998 84 16 0
2.5680001 -0.41299999 0.713 87 16 0
2.5569999 -0.417 0.71700001 88 16 0
2.552 -0.421 0.722 92 16 0
2.54 -0.42399999 0.72600001 88 16 0
2.53 -0.42699999 0.72899997 90 16 0
2.5250001 -0.43200001 0.73500001 98 16 0
2.513 -0.435 0.73799998 96 16 0
2.506 -0.43900001 0.74299997 91 16 0
2.494 -0.442 0.74599999 97 16 0
2.4860001 -0.44600001 0.75 100 16 0
2.4779999 -0.44999999 0.755 91 16 0
2.4649999 -0.45199999 0.75700003 92 16 0
2.46 -0.45699999 0.76200002 103 16 0
2.454 -0.461 0.76700002 104 16 0
2.441 -0.46399999 0.76999998 98 16 0
2.4300001 -0.46700001 0.773 101 16 0
2.4260001 -0.47099999 0.778 101 16 0
2.4170001 -0.47499999 0.78100002 108 16 0
2.4089999 -0.47799999 0.78500003 113 16 0
2.402 -0.48199999 0.78899997 112 16 0
2.392 -0.48500001 0.792 103 16 0
2.381 -0.48800001 0.79500002 98 16 0
2.378 -0.493 0.80000001 121 16 0
2.369 -0.49599999 0.80299997 114 16 0
2.3610001 -0.5 0.80599999 113 16 0
2.3529999 -0.50300002 0.81 118 16 0
2.3469999 -0.50700003 0.81400001 122 16 0
2.336 -0.50999999 0.81599998 150 16 0
2.3280001 -0.51300001 0.81900001 150 16 0
2.322 -0.51700002 0.82300001 150 16 0
2.3150001 -0.52100003 0.82599998 150 16 0
2.3080001 -0.52499998 0.82999998 150 16 0
2.3039999 -0.52899998 0.83399999 150 16 0
2.2909999 -0.53100002 0.83499998 150 16 0
2.29 -0.53600001 0.83999997 150 16 0
2.2809999 -0.53899997 0.84299999 150 16 0
2.2739999 -0.54299998 0.84600002 150 16 0
2.2690001 -0.54699999 0.85000002 150 16 0
2.257 -0.55000001 0.85100001 150 16 0
2.2539999 -0.55400002 0.85500002 150 16 0
2.2460001 -0.55699998 0.85799998 150 16 0
2.2420001 -0.56199998 0.861 150 16 0
2.237 -0.56599998 0.86500001 150 16 0
2.2249999 -0.56800002 0.866 150 16 0
2.2179999 -0.57099998 0.86799997 150 16 0
2.21 -0.574 0.87 150 16 0
2.2060001 -0.579 0.87400001 150 16 0
2.198 -0.58200002 0.87599999 150 16 0
2.1949999 -0.58600003 0.88 150 16 0
2.188 -0.58999997 0.88300002 150 16 0
2.1789999 -0.59299999 0.884 150 16 0
2.175 -0.597 0.88700002 150 16 0
2.1700001 -0.60100001 0.88999999 150 16 0
2.161 -0.60299999 0.89099997 150 16 0
2.155 -0.60699999 0.89399999 150 16 0
2.1489999 -0.611 0.89600003 150 16 0
2.1429999 -0.61400002 0.898 150 16 0
2.1370001 -0.61799997 0.90100002 150 16 0
2.132 -0.62199998 0.903 150 16 0
2.1289999 -0.62599999 0.90700001 150 16 0
2.1259999 -0.63 0.91000003 150 16 0
2.1229999 -0.63499999 0.91299999 150 16 0
2.115 -0.63800001 0.91399997 150 16 0
2.1070001 -0.64099997 0.91500002 150 16 0
2.1040001 -0.64499998 0.91799998 150 16 0
2.0969999 -0.648 0.91900003 150 16 0
2.095 -0.65200001 0.92299998 150 16 0
2.089 -0.65600002 0.92500001 150 16 0
2.0810001 -0.65799999 0.92500001 150 16 0
2.0769999 -0.662 0.92799997 150 16 0
2.0739999 -0.667 0.93000001 150 16 0
2.0699999 -0.671 0.93300003 150 16 0
2.063 -0.67299998 0.93300003 150 16 0
2.059 -0.67699999 0.935 150 16 0
2.05 -0.67900002 0.935 150 16 0
2.052 -0.685 0.94 150 16 0
2.0450001 -0.68800002 0.94 150 16 0
2.0409999 -0.69199997 0.94199997 150 16 0
2.039 -0.69599998 0.94499999 150 16 0
2.0339999 -0.69999999 0.94700003 150 16 0
2.0280001 -0.70300001 0.94700003 150 16 0
2.0250001 -0.70700002 0.949 150 16 0
2.0220001 -0.71100003 0.95099998 150 16 0
2.0179999 -0.71499997 0.95300001 150 16 0
2.016 -0.71899998 0.95499998 150 16 0
2.0090001 -0.72100002 0.95499998 150 16 0
2.007 -0.72600001 0.95700002 150 16 0
2.0039999 -0.73000002 0.95899999 150 16 0
2.003 -0.73400003 0.96200001 150 16 0
1.995 -0.736 0.96100003 150 16 0
1.997 -0.74199998 0.96399999 150 16 0
1.994 -0.74599999 0.96600002 150 16 0
1.99 -0.74900001 0.96700001 150 16 0
1.987 -0.75300002 0.96799999 150 16 0
1.9859999 -0.75700003 0.97000003 150 16 0
1.9809999 -0.75999999 0.97000003 150 16 0
1.98 -0.76499999 0.97299999 150 16 0
1.976 -0.76800001 0.97299999 150 16 0
1.97 -0.77100003 0.972 150 16 0
1.972 -0.77600002 0.97600001 150 16 0
1.97 -0.77999997 0.977 150 16 0
1.966 -0.78299999 0.977 150 16 0
1.967 -0.78799999 0.98000002 150 16 0
1.9680001 -0.79299998 0.98199999 129 16 0
1.9680001 -0.79799998 0.98400003 101 16 0
1.9680001 -0.80299997 0.986 110 16 0
1.96 -0.80400002 0.98400003 136 16 0
1.957 -0.80699998 0.98400003 150 16 0
1.9579999 -0.81199998 0.98699999 150 16 0
1.95 -0.81300002 0.98400003 150 16 0
1.949 -0.81699997 0.98500001 150 16 0
1.9450001 -0.81999999 0.98500001 150 16 0
1.9450001 -0.824 0.986 150 16 0
1.941 -0.82700002 0.98500001 150 16 0
1.937 -0.829 0.98500001 150 16 0
1.9349999 -0.83200002 0.98500001 150 16 0
1.9299999 -0.83499998 0.98299998 150 16 0
1.924 -0.83600003 0.98100001 148 16 0
1.919 -0.838 0.98000002 131 16 0
1.913 -0.83899999 0.977 147 16 0
1.909 -0.84100002 0.97600001 137 16 0
1.9069999 -0.84500003 0.97600001 138 16 0
1.899 -0.84500003 0.97299999 128 16 0
1.895 -0.847 0.97100002 137 16 0
1.8890001 -0.84799999 0.96799999 141 16 0
1.886 -0.85000002 0.96700001 134 16 0
1.8839999 -0.85299999 0.96700001 140 16 0
1.876 -0.85299999 0.963 140 16 0
1.87 -0.85399997 0.95999998 143 16 0
1.867 -0.85600001 0.958 135 16 0
1.863 -0.85799998 0.95599997 134 16 0
1.8609999 -0.86000001 0.95499998 144 16 0
1.858 -0.86199999 0.95300001 143 16 0
1.853 -0.86299998 0.95099998 146 16 0
1.849 -0.86400002 0.94800001 150 16 0
1.847 -0.866 0.94700003 150 16 0
1.845 -0.86799997 0.94499999 142 16 0
1.829 -0.86400002 0.93699998 145 17 0
1.829 -0.86699998 0.93599999 150 16 0
1.824 -0.86699998 0.93300003 145 16 0
1.819 -0.86699998 0.92900002 143 16 0
1.818 -0.87 0.92799997 141 16 0
1.817 -0.87199998 0.92699999 144 16 0
1.812 -0.87199998 0.92299998 150 16 0
1.812 -0.87400001 0.92199999 150 16 0
1.808 -0.875 0.91900003 146 16 0
1.807 -0.87699997 0.917 150 16 0
1.803 -0.87699997 0.91399997 150 16 0
1.799 -0.87800002 0.91100001 150 16 0
1.796 -0.87800002 0.90700001 149 16 0
1.79 -0.87699997 0.903 150 16 0
1.789 -0.87900001 0.90100002 150 16 0
1.783 -0.87800002 0.89600003 150 19 0
1.783 -0.88 0.89499998 150 16 0
1.783 -0.88099998 0.89300001 150 16 0
1.781 -0.88200003 0.88999999 150 16 0
1.778 -0.88200003 0.88599998 150 16 0
1.772 -0.88099998 0.88099998 150 16 0
1.771 -0.88200003 0.87900001 150 16 0
1.772 -0.884 0.87699997 150 16 0
1.7690001 -0.884 0.87400001 150 16 0
1.77 -0.88499999 0.87199998 150 16 0
1.77 -0.88700002 0.86900002 150 16 0
1.762 -0.884 0.86299998 150 18 0
1.761 -0.884 0.86000001 150 16 0
1.756 -0.88300002 0.85500002 150 19 0
1.753 -0.88200003 0.85100001 150 16 0
1.7539999 -0.88300002 0.84899998 150 16 0
1.7539999 -0.884 0.847 150 16 0
1.755 -0.88499999 0.84399998 150 16 0
1.75 -0.88300002 0.83899999 150 16 0
1.752 -0.88499999 0.83700001 150 16 0
1.75 -0.884 0.833 150 16 0
1.7460001 -0.88300002 0.82800001 150 16 0
1.747 -0.884 0.82599998 150 16 0
1.748 -0.88499999 0.824 150 16 0
1.747 -0.884 0.81999999 150 16 0
1.743 -0.88200003 0.815 150 16 0
1.7410001 -0.88099998 0.81099999 150 16 0
1.742 -0.88200003 0.80800003 150 16 0
1.743 -0.88200003 0.80500001 150 16 0
1.739 -0.88 0.80000001 150 16 0
1.74 -0.88 0.79699999 150 16 0
1.744 -0.88200003 0.796 150 16 0
1.74 -0.87900001 0.79000002 150 16 0
1.7410001 -0.87900001 0.787 150 16 0
1.74 -0.87900001 0.78299999 150 16 0
1.7410001 -0.87800002 0.77999997 150 16 0
1.7410001 -0.87800002 0.77700001 150 16 0
1.744 -0.87800002 0.77399999 150 16 0
1.738 -0.87400001 0.76800001 150 16 0
1.7410001 -0.875 0.76499999 150 16 0
1.742 -0.875 0.76200002 150 16 0
1.744 -0.875 0.759 150 16 0
1.747 -0.875 0.75599998 150 16 0
1.744 -0.87300003 0.75099999 150 16 0
1.743 -0.87099999 0.74699998 150 16 0
1.748 -0.87199998 0.745 150 16 0
1.747 -0.87 0.741 150 16 0
1.7460001 -0.86799997 0.736 150 16 0
1.749 -0.86799997 0.73400003 150 16 0
1.751 -0.86799997 0.73000002 150 16 0
1.753 -0.86699998 0.727 150 16 0
1.753 -0.86500001 0.72299999 150 16 0
1.7539999 -0.86400002 0.71899998 150 16 0
1.753 -0.86199999 0.71399999 150 16 0
1.756 -0.86199999 0.71100003 150 16 0
1.757 -0.86000001 0.708 150 16 0
1.7589999 -0.85900003 0.704 150 16 0
1.758 -0.85699999 0.699 150 16 0
1.76 -0.85600001 0.69599998 150 16 0
1.762 -0.85399997 0.69199997 150 16 0
1.7640001 -0.85299999 0.68900001 150 16 0
1.766 -0.852 0.685 150 16 0
1.768 -0.85000002 0.68199998 150 16 0
1.77 -0.84899998 0.67799997 150 16 0
1.772 -0.847 0.67400002 150 16 0
1.774 -0.84600002 0.671 150 16 0
1.777 -0.84500003 0.667 150 16 0
1.779 -0.84299999 0.66399997 150 16 0
1.781 -0.84100002 0.66000003 150 16 0
1.783 -0.83999997 0.65600002 150 16 0
1.785 -0.838 0.653 150 16 0
1.79 -0.83700001 0.64999998 150 16 0
1.793 -0.83600003 0.64600003 150 16 0
1.795 -0.83399999 0.64300001 150 16 0
1.798 -0.83200002 0.639 150 16 0
1.8 -0.82999998 0.63499999 150 16 0
1.802 -0.82800001 0.63099998 150 16 0
1.801 -0.824 0.62599999 150 16 0
1.809 -0.82499999 0.625 150 16 0
1.814 -0.824 0.62199998 150 16 0
1.816 -0.82200003 0.61799997 150 16 0
1.817 -0.81900001 0.61299998 150 16 0
1.817 -0.815 0.60900003 150 16 0
1.823 -0.81400001 0.60600001 117 16 0
1.8200001 -0.81 0.60000002 121 16 0
1.83 -0.81099999 0.59899998 120 16 0
1.832 -0.80800003 0.59500003 120 16 0
1.835 -0.80599999 0.59100002 130 16 0
1.841 -0.80500001 0.58899999 127 16 0
1.846 -0.80299997 0.58600003 126 16 0
1.848 -0.80000001 0.58200002 118 16 0
1.852 -0.79799998 0.57800001 110 16 0
1.853 -0.79500002 0.574 114 16 0
1.857 -0.79299998 0.56999999 115 16 0
1.859 -0.79000002 0.56599998 115 16 0
1.864 -0.78799999 0.56300002 114 16 0
1.8710001 -0.787 0.56099999 117 16 0
1.874 -0.78399998 0.55699998 104 16 0
1.876 -0.78100002 0.55299997 104 16 0
1.881 -0.77899998 0.55000001 111 16 0
1.8839999 -0.77600002 0.546 113 16 0
1.886 -0.773 0.542 113 16 0
1.895 -0.77200001 0.53899997 102 16 0
1.898 -0.76899999 0.53600001 99 16 0
1.903 -0.76700002 0.53299999 111 16 0
1.906 -0.764 0.52899998 109 16 0
1.908 -0.75999999 0.52499998 102 16 0
1.919 -0.75999999 0.523 106 16 0
1.921 -0.75700003 0.51899999 101 16 0
1.927 -0.75400001 0.51499999 117 16 0
1.9299999 -0.75099999 0.51200002 114 16 0
1.936 -0.74900001 0.509 107 16 0
1.941 -0.74599999 0.505 112 16 0
1.944 -0.74299997 0.50099999 114 16 0
1.951 -0.741 0.498 111 16 0
1.9529999 -0.73699999 0.49399999 104 16 0
1.957 -0.73400003 0.491 108 16 0
1.966 -0.73199999 0.48800001 104 16 0
1.971 -0.72899997 0.48500001 104 16 0
1.975 -0.72600001 0.48100001 103 16 0
1.9809999 -0.72299999 0.47799999 98 16 0
1.9910001 -0.722 0.47600001 97 16 0
1.993 -0.71799999 0.47099999 98 16 0
1.9960001 -0.71399999 0.46799999 96 16 0
2.003 -0.71200001 0.465 95 16 0
2.007 -0.708 0.461 101 16 0
2.0139999 -0.70499998 0.458 92 16 0
2.02 -0.70200002 0.45500001 93 16 0
2.0250001 -0.699 0.45100001 74 16 0
2.0320001 -0.69599998 0.44800001 69 16 0
2.039 -0.69300002 0.44499999 67 16 0
2.043 -0.69 0.44100001 70 16 0
2.046 -0.685 0.43700001 69 16 0
2.0569999 -0.68300003 0.435 65 16 0
2.063 -0.68000001 0.43200001 69 16 0
2.062 -0.67500001 0.42699999 63 16 0
2.0769999 -0.67400002 0.42500001 67 16 0
2.0810001 -0.67000002 0.421 71 16 0
2.0869999 -0.66600001 0.41800001 71 16 0
2.096 -0.66399997 0.41499999 65 16 0
2.098 -0.65899998 0.41100001 67 16 0
2.1170001 -0.65899998 0.41 69 16 0
2.1199999 -0.65499997 0.40599999 65 16 0
2.122 -0.64999998 0.40200001 60 16 0
2.131 -0.64700001 0.39899999 66 16 0
2.1359999 -0.64300001 0.396 55 16 0
2.1470001 -0.63999999 0.39300001 56 16 0
2.152 -0.63599998 0.389 55 16 0
2.161 -0.63300002 0.38600001 58 16 0
2.1659999 -0.62900001 0.38299999 53 16 0
2.1719999 -0.62400001 0.37900001 52 16 0
2.1789999 -0.62099999 0.37599999 55 16 0
2.1889999 -0.61799997 0.373 52 16 0
2.194 -0.61299998 0.37 52 16 0
2.2030001 -0.61000001 0.36700001 55 16 0
2.2079999 -0.60500002 0.36300001 51 16 0
2.2149999 -0.60100001 0.359 52 16 0
2.224 -0.59799999 0.35600001 53 16 0
2.2279999 -0.59299999 0.352 44 16 0
2.2409999 -0.58999997 0.34999999 44 16 0
2.2460001 -0.58499998 0.34599999 50 16 0
2.256 -0.58200002 0.34299999 28 16 0
2.2620001 -0.57700002 0.34 27 16 0
2.273 -0.574 0.33700001 28 16 0
2.2809999 -0.56900001 0.333 28 16 0
2.286 -0.56400001 0.33000001 28 16 0
2.299 -0.56099999 0.32699999 27 16 0
2.3069999 -0.55699998 0.324 29 16 0
2.316 -0.55299997 0.32100001 28 16 0
2.326 -0.54900002 0.317 28 16 0
2.3340001 -0.54400003 0.31400001 28 16 0
2.339 -0.53899997 0.31 27 16 0
2.352 -0.53500003 0.30700001 26 16 0
2.3610001 -0.53100002 0.30399999 29 16 0
2.3659999 -0.52600002 0.30000001 27 16 0
2.378 -0.52200001 0.29699999 28 16 0
2.388 -0.51700002 0.294 29 16 0
2.4000001 -0.51300001 0.29100001 27 16 0
2.408 -0.50800002 0.28799999 27 16 0
2.4159999 -0.50300002 0.28400001 27 16 0
2.427 -0.49900001 0.28099999 26 16 0
2.437 -0.49399999 0.278 27 16 0
2.4460001 -0.48899999 0.27399999 27 16 0
2.4549999 -0.484 0.271 27 16 0
2.461 -0.47799999 0.26699999 26 16 0
2.477 -0.47499999 0.264 29 16 0
2.48 -0.46799999 0.25999999 25 16 0
2.4920001 -0.463 0.257 25 16 0
2.5020001 -0.458 0.25299999 27 16 0
2.5139999 -0.45300001 0.25 27 16 0
2.5239999 -0.44800001 0.24600001 26 16 0
2.533 -0.44299999 0.243 26 16 0
2.5409999 -0.43700001 0.23899999 25 16 0
2.556 -0.43200001 0.236 26 16 0
2.5650001 -0.42699999 0.23199999 27 16 0
2.576 -0.421 0.229 26 16 0
2.586 -0.41600001 0.226 26 16 0
2.595 -0.41 0.222 24 16 0
2.609 -0.405 0.21799999 26 16 0
2.6170001 -0.39899999 0.215 26 16 0
2.6259999 -0.39300001 0.211 25 16 0
2.638 -0.38699999 0.207 25 16 0
2.6570001 -0.382 0.204 25 16 0
2.6659999 -0.37599999 0.20100001 26 16 0
2.6830001 -0.37099999 0.197 25 16 0
2.694 -0.36500001 0.19400001 27 16 0
2.704 -0.35800001 0.19 26 16 0
2.7149999 -0.352 0.186 26 16 0
2.723 -0.345 0.182 25 16 0
2.7360001 -0.33899999 0.17900001 26 16 0
2.7460001 -0.333 0.175 25 16 0
2.76 -0.32699999 0.171 26 16 0
2.773 -0.31999999 0.167 25 16 0
2.7809999 -0.31299999 0.164 25 16 0
2.7950001 -0.30700001 0.16 25 16 0
2.8050001 -0.30000001 0.156 25 16 0
2.8199999 -0.294 0.152 25 16 0
2.836 -0.287 0.149 24 16 0
2.849 -0.28099999 0.145 24 16 0
2.8610001 -0.273 0.141 24 16 0
2.8770001 -0.26699999 0.13699999 26 16 0
2.8900001 -0.25999999 0.133 27 16 0
2.904 -0.25299999 0.12899999 25 16 0
2.9170001 -0.24600001 0.125 26 16 0
2.9400001 -0.23899999 0.122 25 16 0
2.9489999 -0.23100001 0.118 25 16 0
2.961 -0.22400001 0.113 25 16 0
2.9779999 -0.21699999 0.109 26 16 0
2.9949999 -0.20900001 0.106 25 16 0
3.007 -0.20100001 0.101 25 16 0
3.029 -0.19400001 0.097999997 25 16 0
3.04 -0.186 0.093000002 25 16 0
3.063 -0.17900001 0.089000002 25 16 0
3.079 -0.171 0.085000001 23 16 0
3.0929999 -0.163 0.081 23 16 0
3.112 -0.155 0.077 23 16 0
3.1270001 -0.146 0.072999999 24 16 0
3.1440001 -0.138 0.068000004 24 16 0
3.164 -0.13 0.064000003 24 16 0
3.181 -0.121 0.059999999 24 16 0
3.1960001 -0.113 0.055 24 16 0
3.211 -0.104 0.050999999 24 16 0
3.2320001 -0.094999999 0.046999998 24 16 0
3.2479999 -0.086000003 0.041999999 25 16 0
3.2750001 -0.078000002 0.037999999 26 16 0
3.283 -0.068000004 0.033 55 16 0
3.2820001 -0.059 0.028000001 103 16 0
3.276 -0.048999999 0.024 91 16 0
3.263 -0.039000001 0.018999999 81 16 0
3.257 -0.029999999 0.014 89 16 0
3.2520001 -0.02 0.0089999996 42 16 0
3.257 -0.011 0.0049999999 18 16 0
3.2720001 -0.001 0 16 16 0
3.302 0.0070000002 -0.003 17 16 0
3.316 0.017000001 -0.0080000004 20 16 0
3.3269999 0.027000001 -0.012 39 16 0
3.316 0.035999998 -0.017000001 45 16 0
3.3080001 0.046 -0.022 44 16 0
3.302 0.056000002 -0.026000001 35 16 0
3.296 0.064999998 -0.030999999 45 16 0
3.2909999 0.075000003 -0.035 48 16 0
3.283 0.083999999 -0.039000001 48 16 0
3.279 0.093999997 -0.044 49 16 0
3.2679999 0.103 -0.048 49 16 0
3.2590001 0.112 -0.052000001 51 16 0
3.257 0.122 -0.057 48 16 0
3.25 0.131 -0.061000001 54 16 0
3.2449999 0.141 -0.064999998 53 16 0
3.2379999 0.15000001 -0.068999998 54 16 0
3.2320001 0.15899999 -0.072999999 55 16 0
3.2219999 0.168 -0.077 59 16 0
3.217 0.178 -0.081 74 16 0
3.211 0.18700001 -0.085000001 65 16 0
3.204 0.19599999 -0.089000002 66 16 0
3.197 0.205 -0.093000002 70 16 0
3.1930001 0.214 -0.097000003 68 16 0
3.1860001 0.223 -0.101 67 16 0
3.175 0.23199999 -0.105 65 16 0
3.1719999 0.241 -0.109 60 16 0
3.1630001 0.25 -0.113 66 16 0
3.158 0.259 -0.116 74 16 0
3.1500001 0.26800001 -0.12 54 16 0
3.1429999 0.27700001 -0.124 67 16 0
3.1359999 0.28600001 -0.127 69 16 0
3.132 0.29499999 -0.131 72 16 0
3.128 0.30399999 -0.13500001 77 16 0
3.1140001 0.31200001 -0.138 80 16 0
3.1110001 0.32100001 -0.142 67 16 0
3.1070001 0.33000001 -0.145 76 16 0
3.0940001 0.338 -0.149 76 16 0
3.0929999 0.347 -0.152 82 16 0
3.0899999 0.35600001 -0.156 77 16 0
3.082 0.36500001 -0.15899999 78 16 0
3.076 0.373 -0.163 88 16 0
3.0650001 0.38100001 -0.16599999 83 16 0
3.0599999 0.38999999 -0.169 85 16 0
3.056 0.39899999 -0.17200001 79 16 0
3.0480001 0.40700001 -0.176 68 16 0
3.04 0.41499999 -0.17900001 72 16 0
3.039 0.42399999 -0.182 93 16 0
3.0350001 0.433 -0.185 75 16 0
3.026 0.44100001 -0.18799999 72 16 0
3.016 0.449 -0.191 76 16 0
3.013 0.458 -0.19499999 88 16 0
3.007 0.46599999 -0.198 77 16 0
3.0020001 0.47499999 -0.20100001 85 16 0
3 0.484 -0.204 78 16 0
2.9920001 0.49200001 -0.207 77 16 0
2.9879999 0.5 -0.20999999 86 16 0
2.9790001 0.50800002 -0.212 87 16 0
2.9749999 0.51700002 -0.21600001 87 16 0
2.9679999 0.52499998 -0.21799999 123 16 0
2.9619999 0.53299999 -0.221 124 16 0
2.954 0.54100001 -0.22400001 119 16 0
2.9519999 0.55000001 -0.227 119 16 0
2.947 0.55800003 -0.23 135 16 0
2.9400001 0.56599998 -0.23199999 138 16 0
2.934 0.574 -0.235 131 16 0
2.9319999 0.583 -0.23800001 138 16 0
2.9260001 0.59100002 -0.23999999 134 16 0
2.911 0.597 -0.242 144 16 0
2.908 0.60500002 -0.245 138 16 0
2.8989999 0.61299998 -0.24699999 144 16 0
2.8989999 0.62199998 -0.25 142 16 0
2.891 0.62900001 -0.252 127 16 0
2.8889999 0.63800001 -0.255 146 16 0
2.885 0.64600003 -0.25799999 141 16 0
2.8789999 0.65399998 -0.25999999 141 16 0
2.8759999 0.66299999 -0.26300001 142 16 0
2.8699999 0.671 -0.26499999 148 16 0
2.8659999 0.67900002 -0.26699999 143 16 0
2.858 0.68599999 -0.26899999 145 16 0
2.8529999 0.69400001 -0.27200001 150 16 0
2.845 0.70099998 -0.27399999 141 16 0
2.839 0.70899999 -0.27599999 143 16 0
2.835 0.71700001 -0.278 136 16 0
2.8280001 0.72399998 -0.28 148 16 0
2.8239999 0.73199999 -0.28200001 150 16 0
2.8199999 0.74000001 -0.28400001 146 16 0
2.8150001 0.74800003 -0.28600001 150 16 0
2.812 0.75700003 -0.289 138 16 0
2.8080001 0.76499999 -0.29100001 150 16 0
2.8050001 0.773 -0.29300001 144 16 0
2.7939999 0.77899998 -0.294 150 16 0
2.79 0.787 -0.296 150 16 0
2.7850001 0.79500002 -0.29800001 150 16 0
2.779 0.80199999 -0.30000001 150 16 0
2.777 0.81099999 -0.30199999 150 16 0
2.7739999 0.81900001 -0.30399999 148 16 0
2.7690001 0.82599998 -0.30599999 150 16 0
2.756 0.83200002 -0.30700001 150 16 0
2.7520001 0.83899999 -0.308 150 16 0
2.7509999 0.84799999 -0.31099999 150 16 0
2.7479999 0.85600001 -0.31200001 150 16 0
2.74 0.86299998 -0.31400001 150 16 0
2.734 0.87 -0.315 150 16 0
2.73 0.87800002 -0.317 150 16 0
2.7249999 0.88499999 -0.31799999 150 16 0
2.7249999 0.89399999 -0.31999999 150 16 0
2.72 0.90200001 -0.322 150 16 0
2.711 0.90799999 -0.32300001 150 16 0
2.7049999 0.91500002 -0.324 150 16 0
2.7030001 0.92299998 -0.32600001 150 16 0
2.6960001 0.93000001 -0.32699999 150 16 0
2.694 0.93800002 -0.32800001 150 16 0
2.6919999 0.94599998 -0.33000001 150 16 0
2.687 0.95300001 -0.331 150 16 0
2.6949999 0.96499997 -0.33399999 40 16 0
2.6889999 0.972 -0.33500001 81 16 0
2.6700001 0.97399998 -0.33399999 150 16 0
2.6670001 0.98199999 -0.336 150 16 0
2.6619999 0.98900002 -0.33700001 150 16 0
2.6559999 0.99599999 -0.33700001 150 16 0
2.6530001 1.003 -0.33899999 150 16 0
2.6500001 1.011 -0.34 150 16 0
2.6429999 1.017 -0.34 150 16 0
2.6429999 1.027 -0.34200001 150 16 0
2.635 1.0319999 -0.34200001 150 16 0
2.635 1.041 -0.34400001 150 16 0
2.628 1.0470001 -0.34400001 150 16 0
2.625 1.0549999 -0.345 150 16 0
2.6210001 1.062 -0.34599999 150 16 0
2.6159999 1.069 -0.347 150 16 0
2.6129999 1.076 -0.347 150 16 0
2.6059999 1.082 -0.34799999 150 16 0
2.6059999 1.091 -0.34900001 150 16 0
2.602 1.098 -0.34900001 150 16 0
2.5969999 1.105 -0.34999999 150 16 0
2.5969999 1.113 -0.35100001 150 16 0
2.585 1.117 -0.34999999 150 16 0
2.5829999 1.125 -0.35100001 150 16 0
2.5840001 1.1339999 -0.352 150 16 0
2.579 1.141 -0.352 150 16 0
2.573 1.147 -0.35299999 150 16 0
2.5699999 1.154 -0.35299999 150 16 0
2.563 1.159 -0.35299999 150 16 0
2.5599999 1.1670001 -0.35299999 150 16 0
2.5569999 1.174 -0.35299999 150 16 0
2.553 1.181 -0.354 150 16 0
2.5469999 1.186 -0.354 150 16 0
2.5469999 1.1950001 -0.354 150 16 0
2.5439999 1.201 -0.354 150 16 0
2.54 1.2079999 -0.354 150 16 0
2.533 1.2130001 -0.354 150 16 0
2.5339999 1.222 -0.354 150 16 0
2.5280001 1.228 -0.354 150 16 0
2.527 1.2359999 -0.354 150 16 0
2.5209999 1.2410001 -0.354 150 16 0
2.5179999 1.248 -0.354 150 16 0
2.5150001 1.2539999 -0.35299999 150 16 0
2.5139999 1.262 -0.35299999 150 16 0
2.5079999 1.268 -0.35299999 150 16 0
2.5050001 1.274 -0.352 150 16 0
2.5020001 1.281 -0.352 150 16 0
2.4979999 1.2869999 -0.352 150 16 0
2.4979999 1.295 -0.352 150 16 0
2.4920001 1.3 -0.35100001 150 16 0
2.4909999 1.308 -0.35100001 150 16 0
2.4879999 1.314 -0.34999999 150 16 0
2.4849999 1.3200001 -0.34900001 150 16 0
2.4790001 1.325 -0.34799999 150 16 0
2.4820001 1.334 -0.34900001 150 16 0
2.473 1.337 -0.347 150 16 0
2.471 1.344 -0.34599999 150 16 0
2.4690001 1.351 -0.34599999 150 16 0
2.4649999 1.3559999 -0.345 150 16 0
2.46 1.3609999 -0.34400001 150 16 0
2.4590001 1.368 -0.34299999 150 16 0
2.454 1.373 -0.34200001 150 16 0
2.4530001 1.38 -0.34099999 150 16 0
2.451 1.386 -0.34 150 16 0
2.4489999 1.392 -0.33899999 150 16 0
2.4419999 1.396 -0.33700001 150 16 0
2.441 1.403 -0.336 150 16 0
2.4419999 1.411 -0.336 150 16 0
2.438 1.415 -0.33399999 150 16 0
2.4349999 1.421 -0.333 150 16 0
2.437 1.429 -0.33199999 150 16 0
2.4300001 1.432 -0.33000001 150 16 0
2.4289999 1.438 -0.329 150 16 0
2.428 1.4450001 -0.32800001 150 16 0
2.424 1.449 -0.32600001 150 16 0
2.421 1.454 -0.324 150 16 0
2.424 1.462 -0.324 150 16 0
2.415 1.464 -0.32100001 150 16 0
2.415 1.47 -0.31999999 150 16 0
2.415 1.477 -0.31799999 150 16 0
2.4119999 1.4809999 -0.317 150 16 0
2.4070001 1.484 -0.315 150 16 0
2.4100001 1.493 -0.31299999 150 16 0
2.402 1.494 -0.31099999 150 16 0
2.405 1.502 -0.31 150 16 0
2.402 1.506 -0.308 150 16 0
2.3989999 1.51 -0.30599999 150 16 0
2.4000001 1.517 -0.30399999 150 16 0
2.398 1.521 -0.30199999 150 16 0
2.392 1.523 -0.29899999 150 16 0
2.3929999 1.529 -0.29800001 150 16 0
2.3929999 1.535 -0.296 150 16 0
2.3900001 1.538 -0.29300001 150 16 0
2.388 1.5420001 -0.29100001 150 16 0
2.3900001 1.549 -0.289 150 16 0
2.3870001 1.553 -0.287 150 16 0
2.385 1.556 -0.285 150 16 0
2.3870001 1.562 -0.28299999 150 16 0
2.381 1.563 -0.28 150 16 0
2.3829999 1.5700001 -0.278 150 16 0
2.381 1.573 -0.27500001 150 16 0
2.381 1.5779999 -0.273 150 16 0
2.3789999 1.581 -0.27000001 150 16 0
2.382 1.587 -0.26800001 150 16 0
2.381 1.591 -0.266 150 16 0
2.3759999 1.592 -0.26300001 150 16 0
2.3800001 1.598 -0.25999999 150 16 0
2.3729999 1.598 -0.257 150 16 0
2.378 1.605 -0.255 150 16 0
2.375 1.6059999 -0.252 150 16 0
2.3759999 1.6109999 -0.25 150 16 0
2.375 1.614 -0.24699999 150 16 0
2.3729999 1.6160001 -0.244 150 16 0
2.3729999 1.619 -0.241 150 16 0
2.3729999 1.622 -0.23800001 150 16 0
2.3729999 1.625 -0.235 150 16 0
2.3729999 1.628 -0.233 150 16 0
2.372 1.63 -0.23 150 16 0
2.372 1.633 -0.227 150 16 0
2.3710001 1.635 -0.22400001 150 16 0
2.3699999 1.637 -0.22 150 16 0
2.3699999 1.6390001 -0.21799999 150 16 0
2.3729999 1.643 -0.215 150 16 0
2.372 1.645 -0.212 150 16 0
2.3729999 1.647 -0.20900001 150 16 0
2.3710001 1.648 -0.205 150 16 0
2.375 1.652 -0.20299999 150 16 0
2.378 1.656 -0.2 150 16 0
2.3729999 1.654 -0.19599999 150 16 0
2.3740001 1.656 -0.193 150 16 0
2.3729999 1.6569999 -0.189 150 16 0
2.378 1.661 -0.18700001 150 16 0
2.3770001 1.6619999 -0.183 150 16 0
2.382 1.666 -0.18000001 150 16 0
2.3789999 1.664 -0.177 150 16 0
2.378 1.665 -0.17299999 150 16 0
2.3829999 1.668 -0.17 150 16 0
2.382 1.668 -0.167 150 16 0
2.382 1.668 -0.164 150 16 0
2.3889999 1.673 -0.161 150 16 0
2.382 1.668 -0.15700001 150 16 0
2.3900001 1.673 -0.154 150 16 0
2.3900001 1.673 -0.15099999 150 16 0
2.3900001 1.673 -0.147 150 16 0
2.3929999 1.674 -0.14399999 150 16 0
2.392 1.673 -0.14 150 16 0
2.3929999 1.6720001 -0.13699999 150 16 0
2.395 1.673 -0.134 150 16 0
2.3959999 1.6720001 -0.13 150 16 0
2.3959999 1.671 -0.127 150 16 0
2.398 1.671 -0.123 150 16 0
2.398 1.669 -0.12 150 16 0
2.401 1.67 -0.117 150 16 0
2.4059999 1.671 -0.113 150 16 0
2.4070001 1.67 -0.11 150 16 0
2.408 1.668 -0.107 150 16 0
2.4089999 1.6670001 -0.103 150 16 0
2.4130001 1.6670001 -0.1 150 16 0
2.411 1.664 -0.096000001 150 16 0
2.418 1.666 -0.093000002 150 16 0
2.4189999 1.664 -0.090000004 150 16 0
2.4189999 1.6619999 -0.086000003 150 16 0
2.425 1.6619999 -0.082999997 150 16 0
2.428 1.6619999 -0.079999998 150 16 0
2.4260001 1.6569999 -0.075999998 150 16 0
2.4300001 1.656 -0.072999999 150 16 0
2.4260001 1.65 -0.07 150 16 0
2.4349999 1.653 -0.066 150 16 0
2.4419999 1.654 -0.063000001 150 16 0
2.437 1.646 -0.059999999 150 16 0
2.441 1.645 -0.056000002 150 16 0
2.4430001 1.643 -0.052999999 150 16 0
2.4489999 1.643 -0.050000001 150 16 0
2.448 1.638 -0.046999998 150 16 0
2.4530001 1.637 -0.043000001 150 16 0
2.4530001 1.633 -0.039999999 150 16 0
2.461 1.633 -0.037 150 16 0
2.464 1.63 -0.034000002 150 16 0
2.4660001 1.627 -0.030999999 150 16 0
2.4679999 1.623 -0.027000001 150 16 0
2.47 1.62 -0.024 150 16 0
2.473 1.6160001 -0.021 150 16 0
2.48 1.6160001 -0.017999999 150 16 0
2.483 1.612 -0.015 150 16 0
2.483 1.607 -0.012 150 16 0
2.4849999 1.603 -0.0089999996 150 16 0
2.493 1.602 -0.0060000001 150 16 0
2.494 1.597 -0.003 150 16 0
2.4960001 1.5930001 0 150 16 0
2.5009999 1.59 0.0020000001 150 16 0
2.5039999 1.586 0.0049999999 150 16 0
2.5039999 1.58 0.0070000002 150 16 0
2.5090001 1.577 0.0099999998 150 16 0
2.517 1.576 0.013 150 16 0
2.52 1.571 0.016000001 150 16 0
2.5179999 1.564 0.018999999 150 16 0
2.5220001 1.5599999 0.021 150 16 0
2.5239999 1.554 0.024 150 16 0
2.529 1.551 0.027000001 150 16 0
2.5339999 1.5470001 0.028999999 150 16 0
2.5350001 1.541 0.032000002 150 16 0
2.543 1.539 0.035 150 16 0
2.543 1.5319999 0.037 150 16 0
2.546 1.527 0.039999999 150 16 0
2.549 1.522 0.041999999 150 16 0
2.552 1.516 0.045000002 150 16 0
2.556 1.511 0.046999998 150 16 0
2.559 1.506 0.050000001 150 16 0
2.5650001 1.502 0.052000001 150 16 0
2.5650001 1.495 0.054000001 150 16 0
2.572 1.4910001 0.057 150 16 0
2.582 1.489 0.059 150 16 0
2.5780001 1.479 0.061000001 150 16 0
2.5829999 1.475 0.064000003 150 16 0
2.5869999 1.469 0.066 150 16 0
2.5899999 1.4630001 0.068000004 150 16 0
2.5929999 1.457 0.07 150 16 0
2.5969999 1.451 0.071999997 150 16 0
2.5999999 1.4450001 0.074000001 150 16 0
2.6129999 1.444 0.077 150 16 0
2.612 1.4349999 0.079000004 150 16 0
2.6140001 1.428 0.079999998 150 16 0
2.6229999 1.425 0.082999997 150 16 0
2.6270001 1.418 0.085000001 150 16 0
2.6340001 1.414 0.086999997 149 16 0
2.6389999 1.408 0.088 150 16 0
2.6429999 1.402 0.090000004 141 16 0
2.6429999 1.3940001 0.092 150 16 0
2.6489999 1.388 0.093999997 139 16 0
2.6530001 1.382 0.096000001 150 16 0
2.6589999 1.376 0.097000003 150 16 0
2.6600001 1.369 0.098999999 150 16 0
2.664 1.362 0.1 150 16 0
2.6670001 1.355 0.102 150 16 0
2.6730001 1.349 0.104 145 16 0
2.674 1.341 0.105 150 16 0
2.678 1.334 0.106 150 16 0
2.687 1.33 0.108 140 16 0
2.6930001 1.324 0.11 148 16 0
2.691 1.314 0.111 150 16 0
2.698 1.308 0.112 138 16 0
2.704 1.302 0.114 150 16 0
2.707 1.294 0.115 150 16 0
2.711 1.2869999 0.116 150 16 0
2.7149999 1.28 0.118 150 16 0
2.7179999 1.272 0.119 150 16 0
2.721 1.265 0.12 150 16 0
2.727 1.2589999 0.121 150 16 0
2.7309999 1.251 0.122 147 16 0
2.734 1.243 0.123 150 16 0
2.7390001 1.2359999 0.124 150 16 0
2.7449999 1.23 0.125 150 16 0
2.7509999 1.223 0.126 150 16 0
2.7539999 1.215 0.127 150 16 0
2.7579999 1.207 0.12800001 150 16 0
2.757 1.197 0.12899999 133 16 0
2.7650001 1.192 0.13 149 16 0
2.7679999 1.184 0.13 150 16 0
2.7709999 1.176 0.131 148 16 0
2.7750001 1.168 0.132 150 16 0
2.7850001 1.163 0.133 146 16 0
2.7850001 1.153 0.133 150 16 0
2.7920001 1.146 0.134 150 16 0
2.796 1.1390001 0.13500001 149 16 0
2.8 1.13 0.13500001 150 16 0
2.803 1.122 0.13600001 139 16 0
2.806 1.114 0.13600001 133 16 0
2.8150001 1.108 0.13699999 135 16 0
2.8150001 1.098 0.13699999 140 16 0
2.8180001 1.09 0.13699999 132 16 0
2.8310001 1.085 0.138 149 16 0
2.8280001 1.074 0.138 150 16 0
2.832 1.066 0.138 150 16 0
2.842 1.0599999 0.139 150 16 0
2.8469999 1.052 0.139 150 16 0
2.848 1.043 0.139 150 16 0
2.8529999 1.035 0.14 134 16 0
2.8599999 1.028 0.14 138 16 0
2.8570001 1.017 0.14 150 16 0
2.8659999 1.011 0.14 133 16 0
2.869 1.002 0.14 149 16 0
2.8729999 0.99400002 0.14 142 16 0
2.882 0.98699999 0.14 139 16 0
2.8959999 0.98199999 0.141 34 16 0
2.892 0.97000003 0.14 37 16 0
2.891 0.95999998 0.14 147 16 0
2.895 0.95200002 0.14 150 16 0
2.901 0.94400001 0.14 150 16 0
2.904 0.935 0.14 148 16 0
2.9070001 0.926 0.14 138 16 0
2.9100001 0.917 0.139 140 16 0
2.914 0.90899998 0.139 130 16 0
2.9200001 0.90100002 0.139 150 16 0
2.924 0.89200002 0.139 143 16 0
2.927 0.88300002 0.138 146 16 0
2.9300001 0.87400001 0.138 143 16 0
2.937 0.866 0.138 149 16 0
2.944 0.85799998 0.13699999 150 16 0
2.947 0.85000002 0.13699999 150 16 0
2.957 0.84200001 0.13699999 150 16 0
2.9560001 0.83200002 0.13600001 150 16 0
2.96 0.82300001 0.13500001 146 16 0
2.9649999 0.815 0.13500001 150 16 0
2.9679999 0.80599999 0.134 150 16 0
2.974 0.79699999 0.134 150 16 0
2.977 0.78799999 0.133 150 16 0
2.9790001 0.77899998 0.132 150 16 0
2.9849999 0.76999998 0.132 150 16 0
2.987 0.76099998 0.131 150 16 0
2.9949999 0.75300002 0.13 150 16 0
2.9990001 0.74400002 0.13 137 16 0
3.0009999 0.73400003 0.12899999 134 16 0
3.0050001 0.72600001 0.12800001 118 16 0
3.013 0.71700001 0.127 122 16 0
3.0150001 0.708 0.126 117 16 0
3.0239999 0.69999999 0.126 120 16 0
3.033 0.69199997 0.125 121 16 0
3.029 0.68099999 0.124 120 16 0
3.0420001 0.67400002 0.123 119 16 0
3.0439999 0.66399997 0.122 119 16 0
3.0439999 0.65399998 0.121 116 16 0
3.052 0.64600003 0.12 116 16 0
3.056 0.63599998 0.119 121 16 0
3.0569999 0.62699997 0.118 123 16 0
3.0650001 0.61799997 0.117 119 16 0
3.069 0.60900003 0.116 108 16 0
3.0699999 0.59899998 0.114 108 16 0
3.079 0.59100002 0.113 106 16 0
3.082 0.58099997 0.112 107 16 0
3.086 0.57200003 0.111 116 16 0
3.089 0.56199998 0.109 92 16 0
3.0929999 0.55299997 0.108 94 16 0
3.095 0.54299998 0.107 92 16 0
3.1029999 0.53399998 0.106 91 16 0
3.1140001 0.52600002 0.104 118 16 0
3.108 0.51499999 0.103 93 16 0
3.1210001 0.50700003 0.102 108 16 0
3.1240001 0.49700001 0.1 117 16 0
3.1240001 0.48699999 0.098999999 97 16 0
3.1329999 0.47799999 0.097000003 116 16 0
3.138 0.46900001 0.096000001 110 16 0
3.1400001 0.45899999 0.093999997 109 16 0
3.1470001 0.44999999 0.093000002 100 16 0
3.1500001 0.44 0.090999998 114 16 0
3.154 0.43099999 0.090000004 100 16 0
3.1600001 0.421 0.088 105 16 0
3.1659999 0.412 0.086000003 100 16 0
3.1670001 0.40200001 0.085000001 100 16 0
3.174 0.39199999 0.082999997 94 16 0
3.174 0.382 0.081 138 16 0
3.1760001 0.37200001 0.079000004 32 16 0
3.1470001 0.359 0.077 19 19 0
3.1429999 0.34799999 0.075000003 28 16 0
3.1459999 0.338 0.072999999 28 16 0
3.148 0.32800001 0.071000002 27 16 0
3.158 0.31900001 0.07 29 16 0
3.1589999 0.30899999 0.068000004 27 16 0
3.1689999 0.30000001 0.066 27 16 0
3.1719999 0.28999999 0.064000003 27 16 0
3.1719999 0.28 0.061999999 27 16 0
3.177 0.271 0.059999999 26 16 0
3.181 0.26100001 0.057999998 27 16 0
3.187 0.25099999 0.056000002 26 16 0
3.194 0.241 0.054000001 29 16 0
3.188 0.23100001 0.052000001 50 16 0
3.1800001 0.22 0.050000001 109 16 0
3.194 0.211 0.048 49 16 0
3.207 0.20100001 0.046 28 16 0
3.214 0.192 0.044 26 16 0
3.2249999 0.182 0.041999999 26 16 0
3.2279999 0.17200001 0.039999999 25 16 0
3.227 0.162 0.037999999 25 16 0
3.237 0.152 0.035 26 16 0
3.25 0.142 0.033 32 16 0
3.2820001 0.133 0.030999999 53 19 0
3.286 0.123 0.028999999 77 16 0
3.2909999 0.113 0.027000001 76 16 0
3.2920001 0.103 0.024 84 16 0
3.3039999 0.093000002 0.022 81 16 0
3.309 0.082000002 0.018999999 76 16 0
3.313 0.071999997 0.017000001 75 16 0
3.3169999 0.061000001 0.015 49 16 0
3.312 0.050999999 0.012 51 16 0
3.325 0.041000001 0.0099999998 73 16 0
3.3299999 0.029999999 0.0070000002 53 16 0
3.323 0.02 0.0049999999 23 16 0
3.299 0.0089999996 0.0020000001 19 16 0
3.276 0 0 18 16 0
3.2420001 -0.0099999998 -0.0020000001 22 16 0
3.2420001 -0.02 -0.0049999999 79 16 0
3.2479999 -0.030999999 -0.0070000002 150 16 0
3.256 -0.041000001 -0.0099999998 150 16 0
3.257 -0.050999999 -0.013 150 16 0
3.263 -0.061000001 -0.015 150 16 0
3.257 -0.071000002 -0.017999999 47 16 0
3.233 -0.081 -0.02 30 16 0
3.2119999 -0.090999998 -0.023 28 16 0
3.1919999 -0.1 -0.025 29 16 0
3.1689999 -0.109 -0.028000001 28 16 0
3.148 -0.118 -0.029999999 29 16 0
3.122 -0.127 -0.033 28 16 0
3.1029999 -0.13600001 -0.035 26 16 0
3.086 -0.145 -0.037999999 26 16 0
3.063 -0.154 -0.039999999 27 16 0
3.0409999 -0.162 -0.041999999 26 16 0
3.0209999 -0.17 -0.045000002 26 16 0
2.9979999 -0.178 -0.046999998 26 16 0
2.9749999 -0.186 -0.048999999 26 16 0
2.9590001 -0.19400001 -0.052000001 26 16 0
2.9449999 -0.20299999 -0.054000001 27 16 0
2.9159999 -0.20999999 -0.056000002 27 16 0
2.9030001 -0.21799999 -0.059 27 16 0
2.8889999 -0.226 -0.061000001 27 16 0
2.862 -0.233 -0.063000001 26 16 0
2.8469999 -0.23999999 -0.064999998 28 16 0
2.8340001 -0.248 -0.068000004 28 16 0
2.8139999 -0.255 -0.07 28 16 0
2.799 -0.26300001 -0.071999997 28 16 0
2.779 -0.26899999 -0.074000001 29 16 0
2.766 -0.27700001 -0.077 29 16 0
2.743 -0.28299999 -0.079000004 29 16 0
2.733 -0.28999999 -0.081 28 16 0
2.72 -0.29699999 -0.082999997 29 16 0
2.707 -0.30399999 -0.086000003 29 16 0
2.6889999 -0.31099999 -0.088 30 16 0
2.6760001 -0.31799999 -0.090000004 30 16 0
2.658 -0.324 -0.092 29 16 0
2.6400001 -0.33000001 -0.093999997 30 16 0
2.6259999 -0.336 -0.096000001 30 16 0
2.6110001 -0.34200001 -0.097999997 30 16 0
2.596 -0.34799999 -0.1 30 16 0
2.5840001 -0.35499999 -0.103 30 16 0
2.5710001 -0.361 -0.105 30 16 0
2.55 -0.366 -0.107 30 16 0
2.5380001 -0.37200001 -0.109 30 16 0
2.527 -0.37799999 -0.111 32 16 0
2.513 -0.384 -0.113 31 16 0
2.4990001 -0.38999999 -0.115 38 16 0
2.4879999 -0.396 -0.117 50 16 0
2.4749999 -0.40200001 -0.119 52 16 0
2.4590001 -0.40599999 -0.121 51 16 0
2.454 -0.41299999 -0.124 50 16 0
2.434 -0.417 -0.125 50 16 0
2.4230001 -0.42300001 -0.12800001 47 16 0
2.4100001 -0.428 -0.13 49 16 0
2.398 -0.43399999 -0.132 52 16 0
2.381 -0.43799999 -0.133 35 16 0
2.369 -0.44299999 -0.13600001 54 16 0
2.3599999 -0.449 -0.138 56 16 0
2.3440001 -0.45300001 -0.139 61 16 0
2.3329999 -0.458 -0.142 55 16 0
2.3269999 -0.46399999 -0.14399999 54 16 0
2.3080001 -0.46700001 -0.145 59 16 0
2.2980001 -0.472 -0.148 61 16 0
2.2839999 -0.477 -0.149 65 16 0
2.2720001 -0.48100001 -0.15099999 63 16 0
2.2679999 -0.48699999 -0.154 67 16 0
2.253 -0.491 -0.156 61 16 0
2.243 -0.49599999 -0.15800001 57 16 0
2.234 -0.50099999 -0.16 66 16 0
2.223 -0.505 -0.162 71 16 0
2.2119999 -0.50999999 -0.164 67 16 0
2.201 -0.514 -0.16599999 73 16 0
2.191 -0.51800001 -0.168 78 16 0
2.1819999 -0.523 -0.17 70 16 0
2.1630001 -0.52499998 -0.171 76 16 0
2.154 -0.52899998 -0.17299999 71 16 0
2.145 -0.53399998 -0.175 77 16 0
2.135 -0.53799999 -0.177 73 16 0
2.128 -0.54299998 -0.17900001 81 16 0
2.1159999 -0.546 -0.18099999 74 16 0
2.105 -0.55000001 -0.183 85 16 0
2.095 -0.55400002 -0.185 90 16 0
2.0840001 -0.55699998 -0.18700001 79 16 0
2.079 -0.56199998 -0.189 89 16 0
2.056 -0.56300002 -0.19 86 19 0
2.0539999 -0.56800002 -0.193 84 16 0
2.0480001 -0.57300001 -0.19499999 93 16 0
2.0409999 -0.57700002 -0.197 97 16 0
2.03 -0.57999998 -0.199 84 16 0
2.0209999 -0.58399999 -0.20100001 92 16 0
2.01 -0.58700001 -0.20299999 100 16 0
2.0039999 -0.59100002 -0.205 95 16 0
1.9960001 -0.59500003 -0.207 101 16 0
1.985 -0.59799999 -0.20900001 100 16 0
1.977 -0.602 -0.211 91 16 0
1.9680001 -0.60500002 -0.213 101 16 0
1.96 -0.60799998 -0.215 96 16 0
1.951 -0.61199999 -0.21699999 96 16 0
1.9349999 -0.61199999 -0.21799999 85 16 0
1.928 -0.616 -0.22 89 16 0
1.925 -0.62099999 -0.222 99 16 0
1.919 -0.625 -0.22499999 102 16 0
1.908 -0.62699997 -0.226 106 16 0
1.904 -0.63099998 -0.229 105 16 0
1.891 -0.63300002 -0.23 99 16 0
1.883 -0.63599998 -0.23199999 115 16 0
1.874 -0.63800001 -0.234 119 16 0
1.8710001 -0.64300001 -0.236 102 16 0
1.8609999 -0.64499998 -0.23800001 116 16 0
1.858 -0.64999998 -0.241 113 16 0
