# .PCD v0.7 - Point Cloud Data file format
VERSION 0.7
FIELDS x y z intensity tag line
SIZE 4 4 4 4 1 1
TYPE F F F F U U
COUNT 1 1 1 1 1 1
WIDTH 1369
HEIGHT 1
VIEWPOINT 0 0 0 1 0 0 0
POINTS 1369
DATA ascii
2.8870001 0.99900001 0.26899999 31 16 0
2.881 1.006 0.27200001 32 16 0
2.869 1.011 0.27500001 32 16 0
2.862 1.017 0.278 32 16 0
2.8540001 1.024 0.28099999 32 16 0
2.849 1.031 0.285 32 16 0
2.8410001 1.0369999 0.28799999 35 16 0
2.832 1.0420001 0.29100001 38 16 0
2.825 1.048 0.294 70 16 0
2.816 1.054 0.29699999 90 16 0
2.812 1.061 0.30000001 150 16 0
2.806 1.067 0.30399999 150 16 0
2.809 1.077 0.308 150 16 0
2.803 1.084 0.31099999 150 16 0
2.8 1.091 0.315 150 16 0
2.8 1.1 0.31900001 150 16 0
2.796 1.107 0.32300001 150 16 0
2.7939999 1.115 0.32600001 150 16 0
2.7909999 1.122 0.33000001 150 16 0
2.7909999 1.131 0.33500001 150 16 0
2.783 1.136 0.338 150 16 0
2.777 1.142 0.34099999 150 16 0
2.7820001 1.153 0.34599999 150 16 0
2.779 1.16 0.34999999 150 16 0
2.7750001 1.1670001 0.354 150 16 0
2.773 1.174 0.35800001 150 16 0
2.7690001 1.181 0.361 150 16 0
2.7709999 1.1900001 0.366 150 16 0
2.7720001 1.198 0.37 150 16 0
2.7679999 1.205 0.37400001 150 16 0
2.7650001 1.212 0.37799999 150 16 0
2.766 1.221 0.38299999 150 16 0
2.7620001 1.227 0.38699999 150 16 0
2.7609999 1.235 0.391 150 16 0
2.7579999 1.242 0.396 150 16 0
2.7539999 1.248 0.39899999 150 16 0
2.7539999 1.256 0.40400001 150 16 0
2.7509999 1.263 0.40799999 150 16 0
2.7509999 1.271 0.41299999 150 16 0
2.7490001 1.278 0.417 150 16 0
2.7460001 1.284 0.421 150 16 0
2.7409999 1.29 0.42500001 150 16 0
2.743 1.298 0.43000001 150 16 0
2.74 1.304 0.435 150 16 0
2.737 1.311 0.43900001 150 16 0
2.733 1.317 0.44299999 150 16 0
2.733 1.325 0.44800001 150 16 0
2.734 1.3329999 0.45300001 150 16 0
2.733 1.34 0.458 150 16 0
2.73 1.346 0.46200001 150 16 0
2.7290001 1.353 0.46700001 150 16 0
2.7279999 1.36 0.472 150 16 0
2.727 1.3660001 0.477 150 16 0
2.724 1.372 0.48100001 150 16 0
2.7219999 1.378 0.48500001 150 16 0
2.7249999 1.387 0.491 150 16 0
2.721 1.392 0.495 150 16 0
2.7219999 1.4 0.50099999 150 16 0
2.7190001 1.406 0.505 150 16 0
2.7179999 1.4119999 0.50999999 150 16 0
2.717 1.419 0.51499999 150 16 0
2.717 1.425 0.51999998 150 16 0
2.7149999 1.431 0.52499998 150 16 0
2.714 1.437 0.52999997 150 16 0
2.717 1.446 0.53600001 150 16 0
2.7160001 1.452 0.54100001 150 16 0
2.7130001 1.457 0.54500002 150 16 0
2.7119999 1.4630001 0.551 150 16 0
2.7079999 1.467 0.55500001 150 16 0
2.7079999 1.473 0.56 145 16 0
2.707 1.479 0.565 150 16 0
2.704 1.483 0.56999999 150 16 0
2.7090001 1.493 0.57599998 150 16 0
2.707 1.498 0.58099997 150 16 0
2.704 1.502 0.58600003 150 16 0
2.707 1.5089999 0.59200001 139 16 0
2.7049999 1.5140001 0.597 148 16 0
2.7060001 1.521 0.602 150 16 0
2.7030001 1.525 0.60699999 150 16 0
2.7019999 1.529 0.61199999 121 16 0
2.6919999 1.53 0.61500001 51 16 0
2.6889999 1.533 0.62 38 16 0
2.6789999 1.533 0.62300003 34 16 0
2.6719999 1.534 0.62699997 34 16 0
2.6659999 1.536 0.63099998 33 16 0
2.658 1.536 0.634 34 16 0
2.648 1.535 0.63700002 33 16 0
2.641 1.536 0.63999999 32 16 0
2.6340001 1.536 0.64399999 33 16 0
2.6259999 1.536 0.64700001 32 16 0
2.6170001 1.536 0.64999998 32 16 0
2.6099999 1.536 0.65399998 32 16 0
2.602 1.536 0.65700001 32 16 0
2.595 1.536 0.66000003 31 16 0
2.592 1.538 0.66500002 32 16 0
2.582 1.536 0.667 32 16 0
2.5739999 1.535 0.67000002 32 16 0
2.5639999 1.533 0.67299998 32 16 0
2.5569999 1.5319999 0.676 32 16 0
2.5510001 1.5319999 0.67900002 32 16 0
2.5409999 1.53 0.68199998 37 16 0
2.5350001 1.53 0.685 36 16 0
2.529 1.529 0.68800002 35 16 0
2.517 1.525 0.69 35 16 0
2.51 1.524 0.69300002 36 16 0
2.507 1.524 0.69700003 36 16 0
2.5009999 1.524 0.69999999 37 16 0
2.493 1.521 0.70200002 36 16 0
2.4890001 1.521 0.70599997 36 16 0
2.48 1.518 0.708 36 16 0
2.473 1.516 0.71100003 38 16 0
2.47 1.517 0.71399999 35 16 0
2.4630001 1.5140001 0.71700001 39 16 0
2.457 1.512 0.72000003 37 16 0
2.4519999 1.511 0.72299999 37 16 0
2.4419999 1.507 0.72399998 37 16 0
2.4400001 1.507 0.72799999 36 16 0
2.431 1.503 0.73000002 36 16 0
2.4260001 1.501 0.73199999 36 16 0
2.4189999 1.498 0.73500001 37 16 0
2.414 1.4960001 0.73699999 37 16 0
2.4100001 1.494 0.74000001 37 16 0
2.4030001 1.4910001 0.74199998 36 16 0
2.3959999 1.487 0.74400002 37 16 0
2.3959999 1.488 0.74800003 38 16 0
2.388 1.483 0.74900001 36 16 0
2.382 1.48 0.75099999 36 16 0
2.3800001 1.479 0.755 37 16 0
2.375 1.476 0.75700003 38 16 0
2.3710001 1.473 0.759 38 16 0
2.365 1.469 0.76099998 37 16 0
2.3599999 1.466 0.76300001 37 16 0
2.3559999 1.4630001 0.76499999 39 16 0
2.3559999 1.4630001 0.76899999 39 16 0
2.346 1.456 0.76899999 37 19 0
2.3440001 1.454 0.77100003 39 16 0
2.339 1.45 0.773 38 16 0
2.3310001 1.444 0.77399999 38 16 0
2.3299999 1.442 0.77700001 37 16 0
2.329 1.441 0.77899998 38 16 0
2.319 1.433 0.77899998 37 19 0
2.3169999 1.431 0.78100002 38 16 0
2.313 1.427 0.78299999 39 16 0
2.3110001 1.424 0.78500003 38 16 0
2.3080001 1.42 0.787 38 16 0
2.303 1.416 0.78799999 39 16 0
2.299 1.411 0.78899997 38 16 0
2.3010001 1.41 0.792 39 16 0
2.2939999 1.404 0.792 42 16 0
2.2869999 1.397 0.79299998 35 16 0
2.29 1.397 0.796 38 16 0
2.289 1.3940001 0.79799998 41 16 0
2.283 1.387 0.79799998 41 16 0
2.283 1.385 0.80000001 43 16 0
2.28 1.38 0.801 45 16 0
2.2780001 1.376 0.80299997 45 16 0
2.2739999 1.3710001 0.80299997 45 16 0
2.273 1.367 0.80500001 41 16 0
2.2690001 1.362 0.80500001 46 16 0
2.2690001 1.358 0.80699998 45 16 0
2.263 1.351 0.80599999 51 16 0
2.2609999 1.347 0.80800003 50 16 0
2.2620001 1.3430001 0.80900002 49 16 0
2.2609999 1.34 0.81 57 16 0
2.2609999 1.336 0.81199998 52 16 0
2.26 1.331 0.81300002 52 16 0
2.26 1.327 0.81400001 55 16 0
2.257 1.322 0.81400001 55 16 0
2.2609999 1.3200001 0.81599998 61 16 0
2.2579999 1.314 0.81599998 63 16 0
2.2590001 1.3099999 0.81699997 62 16 0
2.2579999 1.3049999 0.81800002 67 16 0
2.2579999 1.301 0.81900001 71 16 0
2.2509999 1.293 0.81699997 70 16 0
2.25 1.288 0.81699997 73 16 0
2.253 1.285 0.81900001 58 16 0
2.25 1.278 0.81800002 82 16 0
2.2490001 1.273 0.81900001 63 16 0
2.25 1.268 0.81900001 84 16 0
2.2509999 1.2640001 0.81999999 80 16 0
2.2509999 1.2589999 0.81999999 72 16 0
2.25 1.2539999 0.81999999 78 16 0
2.2490001 1.248 0.81900001 77 16 0
2.2509999 1.244 0.81999999 79 16 0
2.25 1.238 0.81999999 85 16 0
2.2520001 1.234 0.82099998 84 16 0
2.2520001 1.229 0.81999999 83 16 0
2.257 1.226 0.82200003 87 16 0
2.2550001 1.219 0.82099998 81 16 0
2.2509999 1.212 0.81900001 86 16 0
2.253 1.207 0.81900001 88 16 0
2.2520001 1.201 0.81800002 73 16 0
2.257 1.198 0.81900001 77 16 0
2.2579999 1.192 0.81900001 78 16 0
2.253 1.184 0.81599998 74 16 0
2.2579999 1.181 0.81699997 78 16 0
2.2609999 1.177 0.81800002 82 16 0
2.263 1.1720001 0.81699997 81 16 0
2.2579999 1.163 0.81400001 84 16 0
2.266 1.161 0.81599998 88 16 0
2.2609999 1.153 0.81300002 81 16 0
2.2639999 1.148 0.81300002 84 16 0
2.267 1.143 0.81300002 83 16 0
2.2690001 1.138 0.81199998 78 16 0
2.2720001 1.133 0.81199998 97 16 0
2.276 1.1289999 0.81199998 93 16 0
2.277 1.123 0.81099999 91 16 0
2.28 1.118 0.81 96 16 0
2.2820001 1.112 0.80900002 96 16 0
2.2820001 1.1059999 0.80699998 98 16 0
2.2850001 1.101 0.80599999 81 16 0
2.29 1.097 0.80599999 78 16 0
2.286 1.089 0.80299997 71 16 0
2.296 1.087 0.80500001 81 16 0
2.296 1.08 0.80299997 83 16 0
2.296 1.074 0.801 79 16 0
2.3039999 1.071 0.801 82 16 0
2.3069999 1.0650001 0.80000001 87 16 0
2.3080001 1.059 0.79799998 79 16 0
2.3080001 1.052 0.796 83 16 0
2.3169999 1.049 0.796 92 16 0
2.319 1.043 0.79500002 91 16 0
2.319 1.0369999 0.792 84 16 0
2.323 1.0319999 0.79100001 97 16 0
2.325 1.026 0.78899997 97 16 0
2.332 1.022 0.78899997 96 16 0
2.332 1.015 0.78600001 102 16 0
2.3369999 1.01 0.78500003 96 16 0
2.3410001 1.005 0.78399998 90 16 0
2.3469999 1 0.78299999 95 16 0
2.3510001 0.995 0.78100002 95 16 0
2.3540001 0.98900002 0.77899998 94 16 0
2.358 0.98400003 0.77700001 105 16 0
2.358 0.977 0.77399999 95 16 0
2.3659999 0.97299999 0.77399999 94 16 0
2.369 0.96700001 0.77200001 99 16 0
2.372 0.96100003 0.76899999 94 16 0
2.3770001 0.95700002 0.76800001 83 16 0
2.3829999 0.95200002 0.76700002 85 16 0
2.385 0.94499999 0.764 81 16 0
2.392 0.94099998 0.76300001 86 16 0
2.3929999 0.93400002 0.75999999 81 16 0
2.398 0.92900002 0.75800002 82 16 0
2.402 0.92299998 0.755 86 16 0
2.4089999 0.91900003 0.75400001 89 16 0
2.4089999 0.912 0.75 85 16 0
2.421 0.90899998 0.75 89 16 0
2.424 0.903 0.74699998 91 16 0
2.4289999 0.89700001 0.745 97 16 0
2.4400001 0.89399999 0.745 91 16 0
2.448 0.88999999 0.74299997 95 16 0
2.4489999 0.88300002 0.74000001 89 16 0
2.4549999 0.87800002 0.73799998 89 16 0
2.4630001 0.87400001 0.736 84 16 0
2.4660001 0.86699998 0.73299998 84 16 0
2.47 0.861 0.73000002 91 16 0
2.4760001 0.85600001 0.72799999 77 16 0
2.4809999 0.85100001 0.72500002 78 16 0
2.4879999 0.84600002 0.72299999 73 16 0
2.494 0.83999997 0.72000003 85 16 0
2.497 0.83399999 0.71700001 86 16 0
2.503 0.829 0.71499997 78 16 0
2.5090001 0.824 0.71200001 86 16 0
2.5139999 0.81800002 0.70899999 86 16 0
2.523 0.81300002 0.70700002 83 16 0
2.5320001 0.80900002 0.70499998 89 16 0
2.5350001 0.80299997 0.70099998 83 16 0
2.5439999 0.79799998 0.699 81 16 0
2.5510001 0.79299998 0.69599998 87 16 0
2.5539999 0.78600001 0.69300002 80 16 0
2.5599999 0.77999997 0.68900001 76 16 0
2.5650001 0.77499998 0.68599999 82 16 0
2.569 0.76899999 0.68300003 76 16 0
2.575 0.76300001 0.67900002 83 16 0
2.5880001 0.75999999 0.67799997 76 16 0
2.592 0.75300002 0.67400002 81 16 0
2.595 0.74699998 0.67000002 74 16 0
2.6059999 0.74299997 0.66799998 75 16 0
2.615 0.73799998 0.66500002 68 16 0
2.619 0.73199999 0.66100001 67 16 0
2.6300001 0.727 0.65899998 77 16 0
2.6329999 0.72100002 0.65499997 56 16 0
2.645 0.71700001 0.653 59 16 0
2.6530001 0.71100003 0.64899999 40 16 0
2.6600001 0.70599997 0.64600003 40 16 0
2.671 0.70099998 0.64300001 41 16 0
2.675 0.69499999 0.639 38 16 0
2.6789999 0.68900001 0.63499999 39 16 0
2.691 0.68400002 0.63200003 38 16 0
2.6949999 0.67799997 0.62800002 40 16 0
2.707 0.67299998 0.625 39 16 0
2.72 0.66900003 0.62300003 40 16 0
2.7249999 0.66299999 0.61799997 40 16 0
2.7249999 0.65499997 0.61299998 37 16 0
2.74 0.65200001 0.611 40 16 0
2.747 0.64600003 0.60699999 38 16 0
2.76 0.64099997 0.60399997 37 16 0
2.7639999 0.63499999 0.59899998 37 16 0
2.7750001 0.63 0.59600002 39 16 0
2.783 0.62400001 0.59200001 38 16 0
2.7920001 0.61900002 0.588 37 16 0
2.8050001 0.61400002 0.58499998 38 16 0
2.8099999 0.60799998 0.57999998 36 16 0
2.823 0.60299999 0.57700002 38 16 0
2.8280001 0.597 0.57200003 37 16 0
2.835 0.59100002 0.56699997 36 16 0
2.8570001 0.588 0.56599998 36 16 0
2.8629999 0.58099997 0.56099999 38 16 0
2.8710001 0.57499999 0.55599999 37 16 0
2.8829999 0.56999999 0.55299997 35 16 0
2.888 0.56400001 0.54799998 37 16 0
2.8940001 0.55699998 0.542 36 16 0
2.9089999 0.55299997 0.53899997 34 16 0
2.9230001 0.54799998 0.53500003 35 16 0
2.934 0.542 0.53100002 36 16 0
2.9419999 0.53600001 0.52600002 35 16 0
2.9549999 0.53100002 0.52200001 34 16 0
2.9619999 0.52499998 0.51700002 36 16 0
2.9760001 0.51999998 0.51300001 35 16 0
2.983 0.51300001 0.50800002 36 16 0
2.997 0.50800002 0.50400001 34 16 0
3.0079999 0.50199997 0.49900001 35 16 0
3.02 0.49700001 0.49399999 34 16 0
3.0309999 0.491 0.49000001 34 16 0
3.039 0.484 0.484 33 16 0
3.0569999 0.47999999 0.47999999 35 16 0
3.0680001 0.47400001 0.47499999 33 16 0
3.0739999 0.46700001 0.47 33 16 0
3.0880001 0.461 0.465 33 16 0
3.1059999 0.456 0.461 33 16 0
3.1140001 0.44999999 0.45500001 35 16 0
3.1300001 0.44400001 0.45100001 34 16 0
3.141 0.43799999 0.44499999 33 16 0
3.155 0.43200001 0.44 36 16 0
3.168 0.42699999 0.435 35 16 0
3.1760001 0.41999999 0.42899999 36 16 0
3.194 0.41499999 0.42399999 42 16 0
3.204 0.40799999 0.419 102 16 0
3.207 0.40099999 0.412 150 16 0
3.211 0.39300001 0.405 150 16 0
3.211 0.38600001 0.398 150 16 0
3.21 0.37799999 0.38999999 150 16 0
3.2119999 0.37 0.384 150 16 0
3.2160001 0.36300001 0.377 150 16 0
3.2130001 0.35499999 0.36899999 150 16 0
3.2160001 0.34799999 0.36199999 150 16 0
3.214 0.34 0.35499999 150 16 0
3.214 0.33199999 0.347 150 16 0
3.2149999 0.32499999 0.34 137 16 0
3.217 0.317 0.333 140 16 0
3.2179999 0.31 0.32600001 150 16 0
3.22 0.303 0.31900001 150 16 0
3.22 0.29499999 0.31099999 142 16 0
3.22 0.287 0.30399999 135 16 0
3.223 0.28 0.29699999 124 16 0
3.2219999 0.273 0.289 133 16 0
3.2249999 0.26499999 0.28200001 143 16 0
3.221 0.25799999 0.27399999 128 16 0
3.2219999 0.25 0.26699999 119 16 0
3.223 0.243 0.25999999 137 16 0
3.224 0.236 0.252 132 16 0
3.2260001 0.228 0.245 118 16 0
3.2260001 0.221 0.237 134 16 0
3.227 0.214 0.23 123 16 0
3.1760001 0.20299999 0.219 145 18 0
3.0929999 0.191 0.206 73 19 0
3.1070001 0.185 0.2 29 16 0
3.0780001 0.176 0.191 21 19 0
3.1730001 0.17399999 0.189 46 19 0
3.23 0.17 0.185 128 16 0
3.2309999 0.163 0.177 128 16 0
3.2320001 0.156 0.17 127 16 0
3.2320001 0.148 0.162 131 16 0
3.233 0.141 0.155 132 16 0
3.234 0.134 0.147 108 16 0
3.2349999 0.127 0.139 59 16 0
3.2390001 0.12 0.132 36 16 0
3.2590001 0.113 0.125 28 16 0
3.2750001 0.107 0.118 26 16 0
3.2920001 0.1 0.111 27 16 0
3.3099999 0.093000002 0.103 29 16 0
3.3310001 0.086000003 0.096000001 36 16 0
3.3399999 0.079000004 0.088 28 16 0
3.335 0.071999997 0.079999998 4 16 0
3.2869999 0.064000003 0.071000002 5 18 0
3.2939999 0.057 0.063000001 12 16 0
3.302 0.050000001 0.056000002 4 16 0
3.3380001 0.043000001 0.048 28 19 0
3.3410001 0.035999998 0.039999999 55 16 0
3.3399999 0.028999999 0.032000002 53 16 0
3.3399999 0.021 0.024 25 16 0
3.3139999 0.014 0.016000001 18 16 0
3.3050001 0.0070000002 0.0080000004 17 16 0
3.2809999 0 0 16 16 0
3.26 -0.0060000001 -0.0070000002 16 16 0
3.237 -0.013 -0.015 21 16 0
3.233 -0.02 -0.023 41 16 0
3.23 -0.027000001 -0.030999999 107 16 0
3.234 -0.034000002 -0.039000001 124 16 0
3.2379999 -0.039999999 -0.046 115 16 0
3.2390001 -0.046999998 -0.054000001 129 16 0
3.233 -0.054000001 -0.061999999 120 16 0
3.234 -0.061000001 -0.07 139 16 0
3.234 -0.068000004 -0.078000002 129 16 0
3.224 -0.074000001 -0.086000003 39 16 0
3.207 -0.081 -0.093000002 26 16 0
3.1919999 -0.086999997 -0.101 26 16 0
3.171 -0.093000002 -0.108 25 16 0
3.154 -0.098999999 -0.115 25 16 0
3.138 -0.105 -0.123 25 16 0
3.122 -0.111 -0.13 24 16 0
3.105 -0.117 -0.13699999 24 16 0
3.092 -0.123 -0.14399999 24 16 0
3.076 -0.12800001 -0.15099999 24 16 0
3.056 -0.134 -0.15800001 25 16 0
3.043 -0.14 -0.164 25 16 0
3.0250001 -0.145 -0.171 24 16 0
3.0039999 -0.15000001 -0.178 25 16 0
2.9979999 -0.156 -0.185 24 16 0
2.98 -0.161 -0.191 24 16 0
2.9660001 -0.16599999 -0.198 23 16 0
2.9519999 -0.17200001 -0.204 23 16 0
2.9360001 -0.177 -0.211 23 16 0
2.9219999 -0.182 -0.21699999 23 16 0
2.9089999 -0.18700001 -0.22400001 26 16 0
2.892 -0.191 -0.23 26 16 0
2.878 -0.19599999 -0.236 25 16 0
2.868 -0.20100001 -0.243 26 16 0
2.852 -0.206 -0.249 26 16 0
2.8399999 -0.211 -0.255 26 16 0
2.8280001 -0.21600001 -0.26100001 27 16 0
2.8080001 -0.22 -0.26699999 25 16 0
2.802 -0.22499999 -0.273 27 16 0
2.7869999 -0.229 -0.27900001 25 16 0
2.773 -0.233 -0.285 26 16 0
2.763 -0.23800001 -0.29100001 27 16 0
2.7520001 -0.243 -0.29699999 26 16 0
2.7320001 -0.24600001 -0.30199999 26 16 0
2.7279999 -0.25099999 -0.30899999 27 16 0
2.72 -0.25600001 -0.315 27 16 0
2.711 -0.25999999 -0.32100001 26 16 0
2.701 -0.26499999 -0.32699999 26 16 0
2.688 -0.26899999 -0.33199999 27 16 0
2.6730001 -0.27200001 -0.338 26 16 0
2.6630001 -0.27599999 -0.34400001 26 16 0
2.6559999 -0.28099999 -0.34999999 27 16 0
2.641 -0.28400001 -0.35499999 27 16 0
2.628 -0.28799999 -0.36000001 26 16 0
2.619 -0.292 -0.366 27 16 0
2.6110001 -0.296 -0.37200001 27 16 0
2.5969999 -0.29899999 -0.377 26 16 0
2.5880001 -0.303 -0.382 26 16 0
2.576 -0.30700001 -0.38699999 27 16 0
2.572 -0.31099999 -0.39399999 28 16 0
2.556 -0.31400001 -0.398 27 16 0
2.55 -0.31799999 -0.40400001 26 16 0
2.5409999 -0.322 -0.41 28 16 0
2.5220001 -0.324 -0.414 27 16 0
2.5120001 -0.32800001 -0.419 25 16 0
2.506 -0.33199999 -0.42500001 27 16 0
2.5 -0.336 -0.43099999 27 16 0
2.484 -0.338 -0.435 27 16 0
2.4760001 -0.34200001 -0.44 27 16 0
2.4690001 -0.345 -0.44600001 27 16 0
2.4579999 -0.34799999 -0.45100001 28 16 0
2.454 -0.352 -0.45699999 31 16 0
2.441 -0.35499999 -0.461 31 16 0
2.4330001 -0.35800001 -0.46599999 29 16 0
2.4260001 -0.361 -0.472 30 16 0
2.418 -0.36500001 -0.477 30 16 0
2.4089999 -0.368 -0.48199999 30 16 0
2.4030001 -0.37099999 -0.48699999 31 16 0
2.388 -0.373 -0.491 31 16 0
2.382 -0.377 -0.49700001 33 16 0
2.3710001 -0.37900001 -0.50099999 30 16 0
2.369 -0.38299999 -0.50700003 32 16 0
2.3510001 -0.384 -0.50999999 32 16 0
2.349 -0.38800001 -0.51599997 29 16 0
2.3410001 -0.391 -0.52100003 35 16 0
2.3280001 -0.39300001 -0.52499998 27 16 0
2.323 -0.396 -0.53100002 27 16 0
2.3169999 -0.39899999 -0.53600001 29 16 0
2.306 -0.40099999 -0.54000002 29 16 0
2.2950001 -0.403 -0.54400003 34 16 0
2.29 -0.40599999 -0.54900002 29 16 0
2.28 -0.40900001 -0.55400002 28 16 0
2.2750001 -0.412 -0.55900002 30 16 0
2.2679999 -0.414 -0.56400001 31 16 0
2.26 -0.417 -0.56900001 31 16 0
2.253 -0.419 -0.57300001 34 16 0
2.2449999 -0.42199999 -0.57800001 32 16 0
2.237 -0.42399999 -0.583 38 16 0
2.2309999 -0.426 -0.588 35 16 0
2.2179999 -0.428 -0.59100002 40 16 0
2.2149999 -0.43099999 -0.59600002 42 16 0
2.2060001 -0.433 -0.60100001 38 16 0
2.201 -0.435 -0.60600001 58 16 0
2.1949999 -0.43799999 -0.611 58 16 0
2.197 -0.442 -0.61699998 58 16 0
2.184 -0.44299999 -0.62 57 16 0
2.1760001 -0.44400001 -0.625 50 16 0
2.1670001 -0.44600001 -0.62900001 52 16 0
2.164 -0.449 -0.634 60 16 0
2.155 -0.45100001 -0.63800001 53 16 0
2.151 -0.45300001 -0.64300001 60 16 0
2.1400001 -0.454 -0.64700001 51 16 0
2.1340001 -0.456 -0.65100002 61 16 0
2.131 -0.45899999 -0.65700001 62 16 0
2.1240001 -0.461 -0.66100001 61 16 0
2.119 -0.463 -0.66600001 56 16 0
2.1099999 -0.46399999 -0.67000002 57 16 0
2.105 -0.46599999 -0.67500001 88 16 0
2.099 -0.46799999 -0.67900002 94 16 0
2.095 -0.47 -0.68400002 104 16 0
2.089 -0.472 -0.68800002 99 16 0
2.0739999 -0.472 -0.69 96 16 0
2.0680001 -0.47299999 -0.69400001 103 16 0
2.0639999 -0.47499999 -0.699 98 16 0
2.0599999 -0.47799999 -0.704 98 16 0
2.0580001 -0.47999999 -0.70999998 101 16 0
2.0480001 -0.48100001 -0.713 91 16 0
2.0480001 -0.484 -0.71899998 98 16 0
2.0380001 -0.484 -0.722 101 16 0
2.0350001 -0.486 -0.727 98 16 0
2.029 -0.48699999 -0.73100001 105 16 0
2.0209999 -0.48800001 -0.73500001 98 16 0
2.0190001 -0.49000001 -0.74000001 111 16 0
2.013 -0.49200001 -0.745 103 16 0
2.0050001 -0.493 -0.74800003 95 16 0
2 -0.49399999 -0.75199997 100 16 0
1.999 -0.49599999 -0.75800002 110 16 0
1.995 -0.498 -0.76300001 100 16 0
1.988 -0.49900001 -0.76599997 106 16 0
1.983 -0.5 -0.77100003 92 16 0
1.976 -0.5 -0.77399999 106 16 0
1.973 -0.50199997 -0.77899998 104 16 0
1.967 -0.50300002 -0.78299999 102 16 0
1.965 -0.505 -0.78799999 94 16 0
1.959 -0.50599998 -0.792 104 16 0
1.957 -0.50700003 -0.79799998 104 16 0
1.9529999 -0.509 -0.80199999 103 16 0
1.949 -0.50999999 -0.80699998 103 16 0
1.942 -0.50999999 -0.81 97 16 0
1.9400001 -0.51200002 -0.815 100 16 0
1.937 -0.51300001 -0.81999999 106 16 0
1.9349999 -0.51499999 -0.82499999 100 16 0
1.9299999 -0.51499999 -0.829 108 16 0
1.923 -0.51599997 -0.83200002 98 16 0
1.9170001 -0.51599997 -0.83600003 102 16 0
1.915 -0.51700002 -0.84100002 103 16 0
1.91 -0.51800001 -0.84399998 101 16 0
1.905 -0.51800001 -0.84799999 100 16 0
1.905 -0.51999998 -0.85399997 109 16 0
1.9 -0.51999998 -0.85799998 115 16 0
1.898 -0.52200001 -0.86299998 115 16 0
1.892 -0.52200001 -0.866 112 16 0
1.891 -0.523 -0.87199998 108 16 0
1.883 -0.52200001 -0.87300003 132 16 0
1.882 -0.52399999 -0.87900001 132 16 0
1.878 -0.52399999 -0.88300002 130 16 0
1.875 -0.52499998 -0.88800001 122 16 0
1.873 -0.52600002 -0.89200002 118 16 0
1.8710001 -0.52700001 -0.89700001 135 16 0
1.864 -0.52600002 -0.89899999 114 16 0
1.863 -0.52700001 -0.90499997 130 16 0
1.8609999 -0.528 -0.90899998 129 16 0
1.857 -0.528 -0.91299999 130 16 0
1.8559999 -0.52899998 -0.91799998 150 16 0
1.855 -0.52999997 -0.92400002 150 16 0
1.851 -0.52999997 -0.92699999 150 16 0
1.849 -0.52999997 -0.93099999 150 16 0
1.846 -0.53100002 -0.935 150 16 0
1.841 -0.52999997 -0.93800002 150 16 0
1.842 -0.53100002 -0.94499999 150 16 0
1.8380001 -0.53100002 -0.94800001 150 16 0
1.836 -0.53100002 -0.95200002 150 16 0
1.834 -0.53200001 -0.95700002 150 16 0
1.83 -0.53100002 -0.95999998 150 16 0
1.829 -0.53200001 -0.96499997 150 16 0
1.8279999 -0.53200001 -0.96899998 150 16 0
1.825 -0.53200001 -0.97299999 150 16 0
1.824 -0.53200001 -0.97799999 150 16 0
1.8200001 -0.53200001 -0.98100001 150 16 0
1.8200001 -0.53200001 -0.986 150 16 0
1.818 -0.53200001 -0.99000001 150 16 0
1.818 -0.53200001 -0.995 150 16 0
1.8150001 -0.53200001 -0.99900001 150 16 0
1.812 -0.53100002 -1.001 150 16 0
1.814 -0.53200001 -1.008 142 16 0
1.807 -0.53100002 -1.0089999 141 16 0
1.807 -0.53100002 -1.0140001 149 16 0
1.806 -0.52999997 -1.017 146 16 0
1.8099999 -0.53200001 -1.025 148 16 0
1.812 -0.53200001 -1.03 150 16 0
1.8049999 -0.52999997 -1.031 143 16 0
1.806 -0.53100002 -1.0369999 150 16 0
1.803 -0.52999997 -1.039 145 16 0
1.801 -0.52899998 -1.043 139 16 0
1.799 -0.528 -1.046 143 16 0
1.803 -0.52899998 -1.053 134 16 0
1.802 -0.528 -1.056 141 16 0
1.7970001 -0.52700001 -1.058 142 16 0
1.801 -0.52700001 -1.064 134 16 0
1.803 -0.528 -1.0700001 138 16 0
1.798 -0.52600002 -1.071 144 16 0
1.8 -0.52600002 -1.076 137 16 0
1.8049999 -0.52600002 -1.0829999 134 16 0
1.804 -0.52499998 -1.086 136 16 0
1.8 -0.52399999 -1.0880001 135 16 0
1.802 -0.523 -1.0930001 131 16 0
1.8 -0.52200001 -1.096 126 16 0
1.801 -0.52100003 -1.1 129 16 0
1.799 -0.51999998 -1.102 133 16 0
1.8 -0.51899999 -1.1059999 134 16 0
1.802 -0.51899999 -1.1109999 136 16 0
1.8 -0.51700002 -1.113 133 16 0
1.803 -0.51700002 -1.119 129 16 0
1.802 -0.51599997 -1.1210001 121 16 0
1.804 -0.51499999 -1.126 127 16 0
1.803 -0.514 -1.128 125 16 0
1.803 -0.51200002 -1.131 126 16 0
1.804 -0.51099998 -1.1339999 124 16 0
1.8049999 -0.50999999 -1.138 129 16 0
1.808 -0.509 -1.143 122 16 0
1.811 -0.509 -1.147 122 16 0
1.811 -0.50700003 -1.15 121 16 0
1.8099999 -0.505 -1.152 120 16 0
1.814 -0.505 -1.1569999 128 16 0
1.814 -0.50300002 -1.16 120 16 0
1.816 -0.50199997 -1.163 115 16 0
1.8200001 -0.50099999 -1.168 120 16 0
1.8200001 -0.49900001 -1.17 114 16 0
1.823 -0.49900001 -1.174 115 16 0
1.823 -0.49700001 -1.177 118 16 0
1.826 -0.495 -1.1799999 117 16 0
1.83 -0.49399999 -1.1849999 117 16 0
1.83 -0.49200001 -1.186 123 16 0
1.831 -0.49000001 -1.189 117 16 0
1.834 -0.48899999 -1.192 118 16 0
1.835 -0.48699999 -1.194 117 16 0
1.844 -0.48699999 -1.202 125 18 0
1.835 -0.48300001 -1.197 122 16 0
1.849 -0.484 -1.207 126 16 0
1.853 -0.48300001 -1.211 128 16 0
1.849 -0.479 -1.21 119 16 0
1.853 -0.47799999 -1.2130001 127 16 0
1.86 -0.477 -1.2180001 117 16 0
1.865 -0.47600001 -1.222 117 16 0
1.868 -0.47400001 -1.225 110 16 0
1.868 -0.47099999 -1.225 111 16 0
1.868 -0.46900001 -1.226 108 16 0
1.875 -0.46799999 -1.2309999 106 16 0
1.881 -0.46700001 -1.235 112 16 0
1.88 -0.463 -1.235 103 16 0
1.885 -0.46200001 -1.238 109 16 0
1.89 -0.46000001 -1.2410001 107 16 0
1.888 -0.45699999 -1.24 108 16 0
1.899 -0.45699999 -1.247 113 18 0
1.901 -0.454 -1.247 102 16 0
1.903 -0.45199999 -1.248 108 16 0
1.904 -0.449 -1.249 110 16 0
1.908 -0.447 -1.25 111 16 0
1.915 -0.44499999 -1.2539999 111 16 0
1.918 -0.44299999 -1.256 107 16 0
1.927 -0.442 -1.261 112 19 0
1.927 -0.43900001 -1.2589999 116 16 0
1.9299999 -0.43599999 -1.26 112 16 0
1.938 -0.435 -1.2640001 106 16 0
1.941 -0.43200001 -1.265 107 16 0
1.942 -0.42899999 -1.2640001 108 16 0
1.9529999 -0.428 -1.27 110 19 0
1.954 -0.42500001 -1.2690001 101 16 0
1.96 -0.42300001 -1.271 108 16 0
1.9630001 -0.41999999 -1.271 105 16 0
1.969 -0.41800001 -1.273 105 16 0
1.977 -0.417 -1.276 104 16 0
1.978 -0.41299999 -1.275 101 16 0
1.985 -0.41100001 -1.277 107 16 0
1.989 -0.40900001 -1.277 99 16 0
1.993 -0.40599999 -1.277 100 16 0
2.003 -0.405 -1.281 106 19 0
2.0039999 -0.40099999 -1.279 102 16 0
2.013 -0.40000001 -1.2819999 102 16 0
2.0150001 -0.396 -1.281 99 16 0
2.023 -0.39399999 -1.283 103 16 0
2.03 -0.39199999 -1.284 95 16 0
2.0339999 -0.389 -1.284 98 16 0
2.0420001 -0.38699999 -1.286 112 16 0
2.0480001 -0.38499999 -1.286 116 16 0
2.0510001 -0.382 -1.285 115 16 0
2.0599999 -0.38 -1.2869999 121 16 0
2.0639999 -0.377 -1.286 122 16 0
2.0710001 -0.37400001 -1.286 123 16 0
2.0769999 -0.37200001 -1.286 121 16 0
2.0840001 -0.36899999 -1.2869999 115 16 0
2.086 -0.366 -1.284 110 16 0
2.0940001 -0.36399999 -1.285 113 16 0
2.105 -0.36199999 -1.288 114 16 0
2.102 -0.35800001 -1.2819999 100 16 0
2.1110001 -0.35499999 -1.283 101 16 0
2.1199999 -0.35299999 -1.284 114 16 0
2.1229999 -0.34999999 -1.281 107 16 0
2.125 -0.347 -1.278 106 16 0
2.1370001 -0.345 -1.281 113 16 0
2.142 -0.34200001 -1.279 110 16 0
2.1500001 -0.34 -1.279 113 16 0
2.1559999 -0.33700001 -1.278 111 16 0
2.1630001 -0.33399999 -1.277 108 16 0
2.168 -0.331 -1.275 100 16 0
2.174 -0.32800001 -1.274 121 16 0
2.1819999 -0.32600001 -1.273 77 16 0
2.191 -0.32300001 -1.273 88 16 0
2.1949999 -0.31999999 -1.27 79 16 0
2.198 -0.317 -1.266 83 16 0
2.21 -0.315 -1.268 90 16 0
2.2179999 -0.31299999 -1.267 84 16 0
2.221 -0.30899999 -1.263 81 16 0
2.2279999 -0.30700001 -1.261 73 16 0
2.237 -0.30399999 -1.26 79 16 0
2.243 -0.301 -1.258 82 16 0
2.2479999 -0.29800001 -1.255 76 16 0
2.2509999 -0.29499999 -1.251 75 16 0
2.2650001 -0.29300001 -1.252 79 16 0
2.273 -0.29100001 -1.251 86 16 0
2.2809999 -0.28799999 -1.249 80 16 0
2.2839999 -0.285 -1.244 80 16 0
2.289 -0.28200001 -1.2410001 78 16 0
2.2969999 -0.27900001 -1.239 84 16 0
2.3039999 -0.27700001 -1.2359999 80 16 0
2.312 -0.27399999 -1.234 80 16 0
2.3199999 -0.271 -1.232 75 16 0
2.3280001 -0.26899999 -1.229 78 16 0
2.3329999 -0.266 -1.225 78 16 0
2.3380001 -0.26300001 -1.222 80 16 0
2.345 -0.25999999 -1.2180001 77 16 0
2.3570001 -0.25799999 -1.2180001 82 16 0
2.362 -0.255 -1.2130001 88 16 0
2.3659999 -0.252 -1.2079999 85 16 0
2.3770001 -0.25 -1.207 82 16 0
2.382 -0.24699999 -1.202 80 16 0
2.3959999 -0.245 -1.2029999 65 16 0
2.4000001 -0.242 -1.197 65 16 0
2.408 -0.23999999 -1.194 62 16 0
2.4119999 -0.237 -1.189 61 16 0
2.4189999 -0.234 -1.1849999 69 16 0
2.4289999 -0.23199999 -1.182 78 16 0
2.4360001 -0.229 -1.178 78 16 0
2.4430001 -0.227 -1.174 73 16 0
2.4560001 -0.22499999 -1.173 67 16 0
2.4590001 -0.222 -1.1670001 67 16 0
2.467 -0.219 -1.163 60 16 0
2.473 -0.21600001 -1.158 60 16 0
2.4809999 -0.214 -1.154 65 16 0
2.487 -0.211 -1.149 66 16 0
2.4920001 -0.20900001 -1.1440001 64 16 0
2.4979999 -0.206 -1.1390001 62 16 0
2.5020001 -0.20299999 -1.132 52 16 0
2.51 -0.20100001 -1.128 66 16 0
2.5239999 -0.199 -1.127 62 16 0
2.53 -0.19599999 -1.1210001 61 16 0
2.536 -0.19400001 -1.1160001 63 16 0
2.543 -0.191 -1.11 59 16 0
2.5510001 -0.189 -1.1059999 54 16 0
2.5580001 -0.18700001 -1.101 60 16 0
2.5669999 -0.184 -1.096 60 16 0
2.5739999 -0.182 -1.091 58 16 0
2.582 -0.17900001 -1.086 65 16 0
2.5869999 -0.177 -1.08 50 16 0
2.596 -0.175 -1.075 51 16 0
2.5999999 -0.17200001 -1.069 51 16 0
2.6059999 -0.17 -1.063 55 16 0
2.6170001 -0.168 -1.059 53 16 0
2.6210001 -0.16500001 -1.052 51 16 0
2.6329999 -0.163 -1.048 54 16 0
2.641 -0.161 -1.043 54 16 0
2.645 -0.15899999 -1.036 58 16 0
2.6570001 -0.15700001 -1.0319999 52 16 0
2.6630001 -0.154 -1.025 51 16 0
2.668 -0.152 -1.0190001 53 16 0
2.671 -0.15000001 -1.011 49 16 0
2.684 -0.148 -1.007 50 16 0
2.691 -0.145 -1.001 49 16 0
2.6949999 -0.14300001 -0.99400002 36 16 0
2.704 -0.141 -0.98799998 36 16 0
2.7149999 -0.139 -0.98299998 38 16 0
2.721 -0.13699999 -0.977 34 16 0
2.73 -0.13500001 -0.97100002 33 16 0
2.7349999 -0.133 -0.963 33 16 0
2.74 -0.131 -0.95599997 35 16 0
2.7479999 -0.12800001 -0.94999999 33 16 0
2.7550001 -0.126 -0.94300002 34 16 0
2.7609999 -0.124 -0.93599999 34 16 0
2.77 -0.122 -0.93000001 34 16 0
2.7750001 -0.12 -0.92299998 33 16 0
2.7780001 -0.118 -0.91500002 32 16 0
2.79 -0.116 -0.90899998 33 16 0
2.802 -0.115 -0.90399998 32 16 0
2.8069999 -0.113 -0.89600003 33 16 0
2.809 -0.111 -0.88800001 33 16 0
2.8199999 -0.109 -0.88200003 33 16 0
2.825 -0.107 -0.87400001 33 16 0
2.836 -0.105 -0.86799997 33 16 0
2.8380001 -0.103 -0.86000001 34 16 0
2.845 -0.101 -0.852 32 16 0
2.8529999 -0.098999999 -0.84500003 34 16 0
2.862 -0.097999997 -0.83899999 33 16 0
2.8710001 -0.096000001 -0.83200002 34 16 0
2.8789999 -0.093999997 -0.824 34 16 0
2.8859999 -0.092 -0.81699997 33 16 0
2.8900001 -0.090999998 -0.80900002 35 16 0
2.8959999 -0.089000002 -0.801 36 16 0
2.9130001 -0.086999997 -0.796 39 16 0
2.9159999 -0.086000003 -0.787 49 16 0
2.9200001 -0.083999999 -0.778 80 16 0
2.924 -0.082000002 -0.76999998 119 16 0
2.9289999 -0.079999998 -0.76099998 150 16 0
2.9349999 -0.079000004 -0.75300002 150 16 0
2.9389999 -0.077 -0.745 150 16 0
2.944 -0.075000003 -0.736 150 16 0
2.944 -0.074000001 -0.727 150 16 0
2.95 -0.071999997 -0.71899998 150 16 0
2.954 -0.07 -0.70999998 150 16 0
2.9560001 -0.068999998 -0.69999999 150 16 0
2.9579999 -0.067000002 -0.69099998 150 16 0
2.9590001 -0.066 -0.68199998 150 16 0
2.9679999 -0.064000003 -0.67400002 150 16 0
2.9679999 -0.061999999 -0.66399997 150 16 0
2.9719999 -0.061000001 -0.65600002 150 16 0
2.9760001 -0.059 -0.64700001 150 16 0
2.9779999 -0.057999998 -0.63700002 150 16 0
2.9820001 -0.056000002 -0.62800002 150 16 0
2.987 -0.055 -0.62 150 16 0
2.9860001 -0.054000001 -0.61000001 150 16 0
2.99 -0.052000001 -0.60100001 150 16 0
3 -0.050999999 -0.59299999 150 16 0
2.9949999 -0.048999999 -0.58200002 150 16 0
3.0039999 -0.048 -0.574 150 16 0
3.007 -0.046999998 -0.565 150 16 0
3.0079999 -0.045000002 -0.55500001 150 16 0
3.01 -0.044 -0.54500002 150 16 0
3.0179999 -0.043000001 -0.537 150 16 0
3.02 -0.041999999 -0.528 150 16 0
3.0209999 -0.039999999 -0.51800001 150 16 0
3.0280001 -0.039000001 -0.509 150 16 0
3.029 -0.037999999 -0.49900001 150 16 0
3.0309999 -0.037 -0.49000001 150 16 0
3.033 -0.035999998 -0.47999999 150 16 0
3.0350001 -0.034000002 -0.47099999 150 16 0
3.043 -0.033 -0.46200001 150 16 0
3.0469999 -0.032000002 -0.45300001 150 16 0
3.052 -0.030999999 -0.44299999 150 16 0
3.059 -0.029999999 -0.43399999 150 16 0
3.0580001 -0.028999999 -0.42399999 150 16 0
3.059 -0.028000001 -0.41499999 148 16 0
3.063 -0.027000001 -0.405 136 16 0
3.0669999 -0.026000001 -0.396 110 16 0
3.0699999 -0.025 -0.38600001 97 16 0
3.0739999 -0.024 -0.377 76 16 0
3.0829999 -0.023 -0.368 66 16 0
3.0869999 -0.022 -0.35800001 47 16 0
3.0899999 -0.021 -0.34799999 39 16 0
3.098 -0.02 -0.33899999 38 16 0
3.099 -0.018999999 -0.329 35 16 0
3.1029999 -0.018999999 -0.31999999 30 16 0
3.1129999 -0.017999999 -0.31 29 16 0
3.1159999 -0.017000001 -0.301 27 16 0
3.1199999 -0.016000001 -0.29100001 25 16 0
3.128 -0.015 -0.28200001 25 16 0
3.132 -0.014 -0.27200001 25 16 0
3.1370001 -0.014 -0.26199999 23 16 0
3.1440001 -0.013 -0.25299999 22 16 0
3.148 -0.012 -0.243 21 16 0
3.1600001 -0.012 -0.233 21 16 0
3.161 -0.011 -0.223 20 16 0
3.1730001 -0.0099999998 -0.214 19 16 0
3.174 -0.0089999996 -0.204 19 16 0
3.178 -0.0089999996 -0.193 19 16 0
3.1819999 -0.0080000004 -0.183 19 16 0
3.1860001 -0.0080000004 -0.17299999 18 16 0
3.1919999 -0.0070000002 -0.163 17 16 0
3.2 -0.0060000001 -0.153 18 16 0
3.2049999 -0.0060000001 -0.14300001 18 16 0
3.2090001 -0.0049999999 -0.133 18 16 0
3.2149999 -0.0049999999 -0.123 18 16 0
3.224 -0.0040000002 -0.113 18 16 0
3.2219999 -0.0040000002 -0.102 18 16 0
3.2309999 -0.003 -0.092 19 16 0
3.2349999 -0.003 -0.082000002 18 16 0
3.244 -0.0020000001 -0.071000002 18 16 0
3.2479999 -0.0020000001 -0.061000001 19 16 0
3.2509999 -0.001 -0.050999999 19 16 0
3.2550001 -0.001 -0.039999999 18 16 0
3.2539999 -0.001 -0.029999999 18 16 0
3.2639999 0 -0.018999999 18 16 0
3.2690001 0 -0.0080000004 18 16 0
3.276 0 0.001 19 16 0
3.2820001 0 0.012 19 16 0
3.2920001 0 0.022 19 16 0
3.293 0 0.033 19 16 0
3.2980001 0.001 0.044 19 16 0
3.299 0.001 0.054000001 20 16 0
3.3080001 0.001 0.064999998 19 16 0
3.3110001 0.001 0.075999998 19 16 0
3.312 0.0020000001 0.086999997 21 16 0
3.3110001 0.0020000001 0.097999997 35 16 0
3.2920001 0.0020000001 0.108 55 16 0
3.2869999 0.0020000001 0.118 150 16 0
3.293 0.0020000001 0.12899999 150 16 0
3.293 0.0020000001 0.14 150 16 0
3.3010001 0.0020000001 0.15099999 150 16 0
3.3050001 0.003 0.162 150 16 0
3.3110001 0.003 0.17299999 150 16 0
3.313 0.003 0.184 150 16 0
3.3180001 0.003 0.19499999 150 16 0
3.3239999 0.003 0.206 150 16 0
3.329 0.003 0.21699999 150 16 0
3.335 0.003 0.228 150 16 0
3.3410001 0.003 0.23899999 150 16 0
3.3429999 0.0020000001 0.25 150 16 0
3.349 0.0020000001 0.26199999 150 16 0
3.348 0.0020000001 0.273 150 16 0
3.362 0.0020000001 0.28400001 150 16 0
3.3640001 0.0020000001 0.296 150 16 0
3.368 0.0020000001 0.30700001 150 16 0
3.3759999 0.0020000001 0.31900001 150 16 0
3.3789999 0.001 0.33000001 150 16 0
3.378 0.001 0.34099999 150 16 0
3.365 0.001 0.35100001 45 16 0
3.342 0.001 0.359 41 16 0
3.323 0 0.368 42 16 0
3.306 0 0.377 43 16 0
3.283 0 0.38499999 43 16 0
3.2639999 0 0.39300001 43 16 0
3.2490001 0 0.40200001 42 16 0
3.2320001 -0.001 0.41 44 16 0
3.211 -0.001 0.41800001 44 16 0
3.1919999 -0.001 0.426 47 16 0
3.175 -0.0020000001 0.43399999 45 16 0
3.1489999 -0.0020000001 0.44100001 40 16 0
3.135 -0.003 0.449 41 16 0
3.115 -0.003 0.45699999 41 16 0
3.1029999 -0.0040000002 0.465 42 16 0
3.0829999 -0.0040000002 0.472 42 16 0
3.0669999 -0.0049999999 0.47999999 43 16 0
3.046 -0.0049999999 0.486 40 16 0
3.029 -0.0060000001 0.49399999 40 16 0
3.0220001 -0.0060000001 0.50199997 41 16 0
3.0039999 -0.0070000002 0.509 40 16 0
2.9860001 -0.0070000002 0.51599997 39 16 0
2.9760001 -0.0080000004 0.52399999 41 16 0
2.9549999 -0.0089999996 0.52999997 41 16 0
2.9419999 -0.0089999996 0.53799999 43 16 0
2.9230001 -0.0099999998 0.54400003 42 16 0
2.904 -0.011 0.55000001 40 16 0
2.8900001 -0.011 0.55699998 42 16 0
2.8729999 -0.012 0.56300002 53 16 0
2.8610001 -0.013 0.56999999 67 16 0
2.8499999 -0.013 0.57700002 45 16 0
2.836 -0.014 0.58399999 50 16 0
2.819 -0.015 0.58999997 49 16 0
2.8080001 -0.016000001 0.59600002 47 16 0
2.793 -0.016000001 0.60299999 47 16 0
2.776 -0.017000001 0.60799998 48 16 0
2.7650001 -0.017999999 0.61500001 49 16 0
2.757 -0.018999999 0.62199998 61 16 0
2.737 -0.02 0.62699997 61 16 0
2.7279999 -0.02 0.634 58 16 0
2.717 -0.021 0.63999999 64 16 0
2.6949999 -0.022 0.64399999 83 16 0
2.6889999 -0.023 0.65100002 86 16 0
2.677 -0.024 0.65700001 88 16 0
2.658 -0.025 0.66100001 97 16 0
2.651 -0.026000001 0.66900003 87 16 0
2.6389999 -0.027000001 0.67400002 92 16 0
2.6300001 -0.028000001 0.68000001 98 16 0
2.6199999 -0.028999999 0.68699998 91 16 0
2.598 -0.028999999 0.69 103 16 0
2.5840001 -0.029999999 0.69400001 102 16 0
2.575 -0.030999999 0.70099998 99 16 0
2.5599999 -0.032000002 0.70499998 105 16 0
2.5480001 -0.033 0.70999998 104 16 0
2.536 -0.034000002 0.71499997 111 16 0
2.5239999 -0.035 0.72000003 130 16 0
2.517 -0.037 0.727 108 16 0
2.5009999 -0.037999999 0.73000002 121 16 0
2.4879999 -0.039000001 0.73500001 116 16 0
2.483 -0.039999999 0.74199998 122 16 0
2.4690001 -0.041000001 0.74599999 117 16 0
2.4619999 -0.041999999 0.75199997 129 16 0
2.4430001 -0.043000001 0.75400001 114 16 0
2.434 -0.044 0.75999999 109 16 0
2.425 -0.045000002 0.76499999 124 16 0
2.4119999 -0.046 0.76899999 140 16 0
2.4059999 -0.048 0.77499998 125 16 0
2.3970001 -0.048999999 0.77999997 146 16 0
2.391 -0.050000001 0.78600001 128 16 0
2.3759999 -0.050999999 0.78899997 150 16 0
2.3699999 -0.052999999 0.79500002 150 16 0
2.3610001 -0.054000001 0.80000001 150 16 0
2.3510001 -0.055 0.80400002 150 16 0
2.3369999 -0.056000002 0.80699998 150 16 0
2.3280001 -0.057999998 0.81199998 150 16 0
2.319 -0.059 0.81699997 150 16 0
2.312 -0.059999999 0.82200003 150 16 0
2.2969999 -0.061999999 0.824 150 16 0
2.2869999 -0.063000001 0.82800001 150 16 0
2.2809999 -0.064000003 0.83399999 150 16 0
2.2709999 -0.066 0.838 150 16 0
2.2590001 -0.067000002 0.84100002 150 16 0
2.2490001 -0.068000004 0.84500003 150 16 0
2.2449999 -0.07 0.85000002 150 16 0
2.237 -0.071000002 0.85500002 150 16 0
2.2290001 -0.072999999 0.85900003 150 16 0
2.217 -0.074000001 0.86199999 150 16 0
2.214 -0.075999998 0.86799997 150 16 0
2.2 -0.077 0.87 150 16 0
2.1889999 -0.078000002 0.87300003 150 16 0
2.178 -0.079999998 0.87599999 150 16 0
2.1730001 -0.081 0.88099998 150 16 0
2.161 -0.082999997 0.88300002 150 16 0
2.1559999 -0.083999999 0.88800001 150 16 0
2.1470001 -0.086000003 0.89200002 150 16 0
2.1340001 -0.086999997 0.89300001 150 16 0
2.131 -0.089000002 0.89899999 150 16 0
2.125 -0.090999998 0.903 150 16 0
2.1159999 -0.092 0.90700001 150 16 0
2.108 -0.093999997 0.91000003 150 16 0
2.098 -0.096000001 0.91299999 150 16 0
2.0910001 -0.097000003 0.91600001 150 16 0
2.0840001 -0.098999999 0.92000002 150 16 0
2.0780001 -0.101 0.92400002 150 16 0
2.0739999 -0.102 0.92900002 150 16 0
2.0639999 -0.104 0.93099999 150 16 0
2.0550001 -0.106 0.93400002 150 16 0
2.049 -0.107 0.93800002 150 16 0
2.0409999 -0.109 0.94099998 150 16 0
2.03 -0.111 0.94199997 150 16 0
2.023 -0.112 0.94499999 150 16 0
2.0179999 -0.114 0.949 150 16 0
2.013 -0.116 0.95300001 150 16 0
2.0009999 -0.118 0.954 150 16 0
2.0009999 -0.12 0.95999998 150 16 0
1.984 -0.121 0.958 150 16 0
1.977 -0.123 0.96100003 150 16 0
1.972 -0.125 0.96499997 150 16 0
1.964 -0.127 0.96799999 150 16 0
1.96 -0.12800001 0.972 150 16 0
1.955 -0.13 0.97500002 150 16 0
1.944 -0.132 0.97600001 150 16 0
1.937 -0.134 0.97799999 150 16 0
1.933 -0.13600001 0.98199999 150 16 0
1.927 -0.138 0.98500001 150 16 0
1.914 -0.139 0.98400003 150 16 0
1.9119999 -0.142 0.98900002 150 16 0
1.905 -0.14300001 0.991 150 16 0
1.899 -0.145 0.99400002 150 16 0
1.896 -0.148 0.99800003 150 16 0
1.891 -0.15000001 1 150 16 0
1.8839999 -0.152 1.002 150 16 0
1.88 -0.154 1.006 150 16 0
1.867 -0.155 1.005 150 16 0
1.865 -0.15700001 1.0089999 150 16 0
1.859 -0.15899999 1.011 150 16 0
1.85 -0.161 1.011 150 16 0
1.847 -0.164 1.015 150 16 0
1.8430001 -0.16599999 1.018 150 16 0
1.84 -0.168 1.022 150 16 0
1.8329999 -0.17 1.023 150 16 0
1.829 -0.17200001 1.026 150 16 0
1.818 -0.17399999 1.025 150 16 0
1.816 -0.176 1.028 150 16 0
1.808 -0.178 1.029 150 16 0
1.802 -0.18000001 1.03 150 16 0
1.8 -0.183 1.034 150 16 0
1.794 -0.185 1.035 150 16 0
1.793 -0.18700001 1.039 150 16 0
1.785 -0.189 1.039 150 16 0
1.781 -0.191 1.0420001 150 16 0
1.779 -0.19400001 1.045 150 16 0
1.775 -0.19599999 1.0470001 150 16 0
1.761 -0.197 1.043 150 19 0
1.755 -0.199 1.044 150 16 0
1.753 -0.20200001 1.0470001 150 16 0
1.748 -0.204 1.048 150 16 0
1.743 -0.206 1.05 150 16 0
1.7410001 -0.20900001 1.052 150 16 0
1.739 -0.211 1.0549999 150 16 0
1.7359999 -0.213 1.057 150 16 0
1.735 -0.21600001 1.061 150 16 0
1.7309999 -0.21799999 1.062 150 16 0
1.729 -0.221 1.064 150 16 0
1.727 -0.22400001 1.067 150 16 0
1.726 -0.226 1.0700001 150 16 0
1.717 -0.228 1.068 150 16 0
1.714 -0.23 1.069 150 16 0
1.711 -0.233 1.071 150 16 0
1.71 -0.235 1.074 150 16 0
1.709 -0.23800001 1.077 150 16 0
1.706 -0.23999999 1.0779999 146 16 0
1.7029999 -0.243 1.079 150 16 0
1.698 -0.245 1.079 150 16 0
1.696 -0.24699999 1.081 150 16 0
1.689 -0.249 1.08 150 16 0
1.689 -0.252 1.0829999 150 16 0
1.684 -0.25400001 1.082 150 16 0
1.675 -0.25600001 1.079 150 16 0
1.679 -0.259 1.084 150 16 0
1.6720001 -0.26100001 1.082 150 16 0
1.67 -0.26300001 1.0829999 150 16 0
1.669 -0.266 1.085 150 16 0
1.668 -0.26800001 1.086 150 16 0
1.666 -0.271 1.0880001 150 16 0
1.663 -0.273 1.0880001 150 16 0
1.6619999 -0.27599999 1.089 150 16 0
1.659 -0.278 1.09 150 16 0
1.659 -0.28099999 1.091 150 16 0
1.66 -0.28400001 1.094 150 16 0
1.651 -0.285 1.09 150 19 0
1.655 -0.28799999 1.094 150 16 0
1.655 -0.29100001 1.096 150 16 0
1.652 -0.29300001 1.096 150 16 0
1.646 -0.29499999 1.0930001 150 16 0
1.649 -0.29800001 1.096 150 16 0
1.649 -0.301 1.097 150 16 0
1.643 -0.30199999 1.095 150 16 0
1.643 -0.30500001 1.096 150 16 0
1.642 -0.308 1.096 150 16 0
1.641 -0.31 1.097 150 16 0
1.6440001 -0.31299999 1.099 150 16 0
1.64 -0.315 1.097 150 16 0
1.643 -0.31799999 1.1 150 16 0
1.642 -0.31999999 1.1 150 16 0
1.643 -0.32300001 1.101 150 16 0
1.642 -0.32600001 1.101 150 16 0
1.641 -0.32800001 1.101 150 16 0
1.6440001 -0.331 1.103 150 16 0
1.646 -0.33399999 1.105 150 16 0
1.651 -0.33700001 1.108 150 16 0
1.649 -0.33899999 1.107 150 16 0
1.653 -0.34299999 1.109 135 16 0
1.651 -0.345 1.108 122 16 0
1.654 -0.347 1.109 115 16 0
1.653 -0.34999999 1.109 102 16 0
1.653 -0.352 1.108 94 16 0
1.656 -0.35499999 1.109 90 16 0
1.654 -0.35699999 1.108 80 16 0
1.665 -0.36199999 1.115 80 18 0
1.6670001 -0.36399999 1.115 83 16 0
1.6619999 -0.36500001 1.1109999 75 16 0
1.67 -0.36899999 1.115 72 16 0
1.668 -0.37099999 1.113 71 16 0
1.6720001 -0.37400001 1.114 82 16 0
1.674 -0.37599999 1.114 81 16 0
1.671 -0.37799999 1.1109999 82 16 0
1.673 -0.38 1.1109999 79 16 0
1.6720001 -0.382 1.109 85 16 0
1.676 -0.38499999 1.11 87 16 0
1.674 -0.38600001 1.107 91 16 0
1.679 -0.389 1.108 99 16 0
1.679 -0.391 1.1059999 107 16 0
1.677 -0.39199999 1.103 121 16 0
1.678 -0.39500001 1.102 127 16 0
1.668 -0.39399999 1.094 141 18 0
1.67 -0.396 1.092 150 16 0
1.6720001 -0.398 1.092 150 16 0
1.674 -0.40000001 1.09 150 16 0
1.676 -0.40200001 1.09 150 16 0
1.679 -0.405 1.089 150 16 0
1.679 -0.40599999 1.086 150 16 0
1.683 -0.40799999 1.086 150 16 0
1.6849999 -0.41 1.085 150 16 0
1.686 -0.412 1.0829999 150 16 0
1.687 -0.41299999 1.08 150 16 0
1.6900001 -0.41600001 1.08 150 16 0
1.691 -0.417 1.077 150 16 0
1.692 -0.41800001 1.075 150 16 0
1.6950001 -0.421 1.074 150 16 0
1.697 -0.42199999 1.072 150 16 0
1.7 -0.42399999 1.0700001 150 16 0
1.7029999 -0.426 1.069 150 16 0
1.705 -0.42699999 1.067 150 16 0
1.72 -0.43200001 1.072 150 18 0
1.725 -0.43399999 1.072 150 16 0
1.728 -0.43599999 1.0700001 150 16 0
1.728 -0.43700001 1.066 150 16 0
1.735 -0.43900001 1.067 150 16 0
1.7359999 -0.44100001 1.064 150 16 0
1.74 -0.442 1.062 150 16 0
1.749 -0.44499999 1.063 150 16 0
1.75 -0.44600001 1.0599999 150 16 0
1.7539999 -0.44800001 1.058 150 16 0
1.761 -0.44999999 1.058 150 16 0
1.765 -0.45199999 1.056 150 16 0
1.767 -0.45300001 1.053 150 16 0
1.7690001 -0.454 1.05 150 16 0
1.777 -0.456 1.05 150 16 0
1.779 -0.45699999 1.0470001 150 16 0
1.781 -0.458 1.043 150 16 0
1.788 -0.46000001 1.043 150 16 0
1.796 -0.46200001 1.043 150 16 0
1.804 -0.46399999 1.043 150 16 0
1.812 -0.46599999 1.0420001 122 16 0
1.817 -0.46799999 1.04 128 16 0
1.818 -0.46799999 1.036 150 16 0
1.8200001 -0.46799999 1.0319999 150 16 0
1.827 -0.47 1.031 150 16 0
1.836 -0.472 1.031 150 16 0
1.839 -0.47299999 1.028 150 16 0
1.845 -0.47400001 1.025 150 16 0
1.845 -0.47400001 1.02 150 16 0
1.853 -0.47600001 1.02 150 16 0
1.858 -0.477 1.017 150 16 0
1.863 -0.47799999 1.0140001 150 16 0
1.87 -0.479 1.013 150 16 0
1.875 -0.47999999 1.01 150 16 0
1.8789999 -0.48100001 1.006 150 16 0
1.8890001 -0.48300001 1.006 150 16 0
1.892 -0.48300001 1.002 150 16 0
1.902 -0.48500001 1.001 150 16 0
1.904 -0.484 0.99699998 150 16 0
1.914 -0.486 0.99599999 150 16 0
1.918 -0.486 0.99199998 150 16 0
1.924 -0.48699999 0.98900002 150 16 0
1.928 -0.48699999 0.986 150 16 0
1.939 -0.48899999 0.98500001 150 16 0
1.942 -0.48899999 0.98100001 150 16 0
1.951 -0.49000001 0.97899997 150 16 0
1.959 -0.491 0.97799999 150 16 0
1.965 -0.49200001 0.97399998 150 16 0
1.972 -0.49200001 0.97100002 150 16 0
1.98 -0.493 0.96899998 150 16 0
1.9910001 -0.495 0.96799999 150 16 0
1.9960001 -0.495 0.96399999 150 16 0
2.0050001 -0.49599999 0.96200001 150 16 0
2.0090001 -0.495 0.958 150 16 0
2.0179999 -0.49599999 0.95599997 150 16 0
2.0220001 -0.49599999 0.95200002 150 16 0
2.0350001 -0.498 0.95099998 150 16 0
2.036 -0.49599999 0.94499999 148 16 0
2.0439999 -0.49700001 0.94199997 146 16 0
2.0510001 -0.49700001 0.93900001 150 16 0
2.063 -0.498 0.93800002 148 16 0
2.0669999 -0.49700001 0.93300003 117 16 0
2.0780001 -0.498 0.93099999 114 16 0
2.0829999 -0.498 0.92699999 121 16 0
2.0880001 -0.49700001 0.92299998 114 16 0
2.096 -0.49700001 0.91900003 107 16 0
2.105 -0.49700001 0.917 113 16 0
2.115 -0.498 0.91399997 112 16 0
2.1270001 -0.49900001 0.912 115 16 0
2.132 -0.498 0.90799999 113 16 0
2.138 -0.49700001 0.903 102 16 0
2.1489999 -0.498 0.90100002 111 16 0
2.1530001 -0.49599999 0.89600003 108 16 0
2.161 -0.49599999 0.89200002 108 16 0
2.1730001 -0.49700001 0.88999999 95 16 0
2.181 -0.49599999 0.88599998 100 16 0
2.191 -0.49599999 0.88300002 114 16 0
2.1989999 -0.49599999 0.87900001 114 16 0
2.207 -0.495 0.87599999 106 16 0
2.2160001 -0.495 0.87199998 108 16 0
2.2249999 -0.49399999 0.86900002 106 16 0
2.2320001 -0.49399999 0.86400002 105 16 0
2.2420001 -0.493 0.861 101 16 0
2.2539999 -0.493 0.85799998 111 16 0
2.2639999 -0.493 0.85500002 96 16 0
2.2690001 -0.491 0.84899998 96 16 0
2.2820001 -0.491 0.847 112 16 0
2.289 -0.49000001 0.84200001 107 16 0
2.296 -0.48899999 0.83700001 98 16 0
2.3069999 -0.48800001 0.83399999 97 16 0
2.312 -0.48699999 0.829 93 16 0
2.3180001 -0.48500001 0.82300001 99 16 0
2.3269999 -0.484 0.81900001 94 16 0
2.3399999 -0.484 0.81599998 92 16 0
2.348 -0.48199999 0.81199998 95 16 0
2.359 -0.48199999 0.80800003 92 16 0
2.3659999 -0.47999999 0.80299997 94 16 0
2.375 -0.479 0.79900002 88 16 0
2.3900001 -0.479 0.796 92 16 0
2.395 -0.477 0.79000002 76 16 0
2.401 -0.47499999 0.78500003 86 16 0
2.4119999 -0.47400001 0.78100002 71 16 0
2.4230001 -0.472 0.77700001 54 16 0
2.4360001 -0.472 0.773 61 16 0
2.447 -0.47099999 0.76899999 50 16 0
2.4560001 -0.46900001 0.764 57 16 0
2.4679999 -0.46799999 0.75999999 54 16 0
2.4790001 -0.46599999 0.75599998 42 16 0
2.484 -0.46399999 0.75 35 16 0
2.4960001 -0.46200001 0.74599999 35 16 0
2.5090001 -0.461 0.74199998 35 16 0
2.517 -0.45899999 0.736 34 16 0
2.527 -0.45699999 0.73199999 35 16 0
2.536 -0.45500001 0.72600001 36 16 0
2.55 -0.454 0.72299999 38 16 0
2.5610001 -0.45199999 0.71799999 36 16 0
2.5710001 -0.44999999 0.713 34 16 0
2.5829999 -0.44800001 0.708 32 16 0
2.5899999 -0.44600001 0.70200002 33 16 0
2.6059999 -0.44499999 0.699 32 16 0
2.6170001 -0.44299999 0.69400001 34 16 0
2.625 -0.44 0.68800002 33 16 0
2.6340001 -0.43799999 0.68199998 34 16 0
2.641 -0.435 0.676 33 16 0
2.658 -0.433 0.67199999 33 16 0
2.6719999 -0.43099999 0.66799998 34 16 0
2.677 -0.428 0.66100001 34 16 0
2.6949999 -0.42699999 0.65700001 36 16 0
2.701 -0.42300001 0.65100002 38 16 0
2.7119999 -0.421 0.64600003 57 16 0
2.727 -0.419 0.64099997 57 16 0
2.7320001 -0.41499999 0.634 61 16 0
2.7379999 -0.412 0.62699997 37 16 0
2.7460001 -0.40900001 0.62099999 32 16 0
2.757 -0.40599999 0.616 28 16 0
2.76 -0.40200001 0.60799998 26 16 0
2.766 -0.39899999 0.60100001 26 16 0
2.7679999 -0.39399999 0.59399998 26 16 0
2.7750001 -0.391 0.58700001 25 16 0
2.78 -0.38699999 0.57999998 25 16 0
2.7820001 -0.38299999 0.57200003 25 16 0
2.7909999 -0.37900001 0.56599998 25 16 0
2.7969999 -0.37599999 0.55900002 25 16 0
2.8080001 -0.37200001 0.55299997 26 16 0
2.8099999 -0.368 0.54500002 26 16 0
2.816 -0.36399999 0.53799999 26 16 0
2.823 -0.36000001 0.53200001 27 16 0
2.8280001 -0.35600001 0.52399999 27 16 0
2.8340001 -0.352 0.51700002 26 16 0
2.845 -0.34900001 0.51099998 26 16 0
2.8440001 -0.34400001 0.50300002 26 16 0
2.858 -0.34099999 0.49700001 26 16 0
2.859 -0.336 0.48899999 27 16 0
2.8659999 -0.33199999 0.48199999 25 16 0
2.8710001 -0.32699999 0.47499999 24 16 0
2.8840001 -0.324 0.46900001 24 16 0
2.8859999 -0.31900001 0.461 25 16 0
2.898 -0.31600001 0.45500001 24 16 0
2.9030001 -0.31099999 0.447 24 16 0
2.9070001 -0.30599999 0.44 23 16 0
2.915 -0.30199999 0.433 24 16 0
2.924 -0.29800001 0.426 24 16 0
2.927 -0.29300001 0.41800001 24 16 0
2.9360001 -0.289 0.41100001 24 16 0
2.9400001 -0.28400001 0.40400001 24 16 0
2.9519999 -0.28 0.39700001 24 16 0
2.9549999 -0.27500001 0.38999999 24 16 0
2.967 -0.271 0.38299999 24 16 0
2.9690001 -0.266 0.375 24 16 0
2.977 -0.26100001 0.368 24 16 0
2.984 -0.257 0.36000001 24 16 0
2.994 -0.252 0.35299999 24 16 0
3.007 -0.248 0.347 25 16 0
3.017 -0.243 0.34 21 16 0
3.02 -0.23800001 0.33199999 22 16 0
3.027 -0.233 0.324 22 16 0
3.0420001 -0.229 0.31799999 22 16 0
3.046 -0.22400001 0.31 22 16 0
3.0580001 -0.219 0.303 21 16 0
3.0680001 -0.214 0.29499999 22 16 0
3.0699999 -0.208 0.287 21 16 0
3.079 -0.20299999 0.28 21 16 0
3.092 -0.199 0.273 22 16 0
3.0999999 -0.193 0.26499999 21 16 0
3.1070001 -0.18799999 0.257 22 16 0
3.1159999 -0.183 0.25 22 16 0
3.1210001 -0.177 0.242 22 16 0
3.1389999 -0.17299999 0.235 22 16 0
