# .PCD v0.7 - Point Cloud Data file format
VERSION 0.7
FIELDS x y z intensity tag line
SIZE 4 4 4 4 1 1
TYPE F F F F U U
COUNT 1 1 1 1 1 1
WIDTH 1346
HEIGHT 1
VIEWPOINT 0 0 0 1 0 0 0
POINTS 1346
DATA ascii
2.9719999 0.412 -0.333 81 16 0
2.9690001 0.41999999 -0.338 99 16 0
2.961 0.426 -0.34299999 97 16 0
2.9590001 0.43399999 -0.34900001 102 16 0
2.95 0.44100001 -0.35299999 106 16 0
2.948 0.44800001 -0.359 93 16 0
2.938 0.45500001 -0.36300001 96 16 0
2.9319999 0.46200001 -0.368 97 16 0
2.9289999 0.46900001 -0.373 109 16 0
2.9159999 0.47499999 -0.377 108 16 0
2.9089999 0.48199999 -0.382 103 16 0
2.9030001 0.48899999 -0.38600001 128 16 0
2.8989999 0.49599999 -0.391 128 16 0
2.895 0.50300002 -0.396 131 16 0
2.891 0.51099998 -0.40099999 129 16 0
2.885 0.51700002 -0.40599999 124 16 0
2.875 0.52399999 -0.41 112 16 0
2.8699999 0.53100002 -0.414 127 16 0
2.862 0.537 -0.419 118 16 0
2.855 0.54400003 -0.42300001 124 16 0
2.8529999 0.551 -0.428 150 16 0
2.845 0.55800003 -0.43200001 132 16 0
2.839 0.56400001 -0.43599999 129 16 0
2.8369999 0.57200003 -0.44100001 142 16 0
2.832 0.579 -0.44499999 129 16 0
2.8310001 0.58700001 -0.44999999 137 16 0
2.8199999 0.59200001 -0.454 145 16 0
2.8139999 0.59899998 -0.458 129 16 0
2.812 0.60600001 -0.463 137 16 0
2.8050001 0.61299998 -0.46599999 130 16 0
2.799 0.62 -0.47 139 16 0
2.7950001 0.62599999 -0.47499999 143 16 0
2.7850001 0.63200003 -0.47799999 149 16 0
2.779 0.639 -0.48199999 140 16 0
2.777 0.64600003 -0.486 142 16 0
2.7720001 0.653 -0.49000001 150 16 0
2.7650001 0.66000003 -0.49399999 150 16 0
2.763 0.667 -0.498 149 16 0
2.76 0.67400002 -0.50300002 146 16 0
2.747 0.67900002 -0.505 137 16 0
2.744 0.68599999 -0.509 150 16 0
2.7349999 0.69199997 -0.51200002 150 16 0
2.7309999 0.699 -0.51599997 150 16 0
2.7279999 0.70599997 -0.51999998 150 16 0
2.723 0.713 -0.52399999 150 16 0
2.717 0.71899998 -0.52700001 150 16 0
2.714 0.72600001 -0.53100002 150 16 0
2.7079999 0.73299998 -0.53500003 150 16 0
2.7019999 0.73900002 -0.53799999 150 16 0
2.697 0.74599999 -0.542 150 16 0
2.694 0.75300002 -0.546 150 16 0
2.6860001 0.759 -0.54799998 150 16 0
2.6849999 0.76700002 -0.55199999 150 16 0
2.6760001 0.77200001 -0.55500001 150 16 0
2.674 0.77999997 -0.55900002 150 16 0
2.668 0.78600001 -0.56199998 150 16 0
2.6630001 0.792 -0.565 150 16 0
2.6589999 0.79900002 -0.56900001 150 16 0
2.654 0.80599999 -0.57200003 150 16 0
2.6500001 0.81199998 -0.57499999 150 16 0
2.642 0.81800002 -0.57700002 150 16 0
2.6370001 0.824 -0.57999998 150 16 0
2.6329999 0.83099997 -0.58399999 150 16 0
2.625 0.83600003 -0.58600003 150 16 0
2.622 0.84399998 -0.58899999 150 16 0
2.619 0.85000002 -0.59200001 150 16 0
2.6159999 0.85799998 -0.59600002 150 16 0
2.6099999 0.86400002 -0.59799999 150 16 0
2.6070001 0.87099999 -0.60100001 150 16 0
2.6029999 0.87699997 -0.60399997 150 16 0
2.5999999 0.884 -0.60699999 150 16 0
2.5969999 0.89200002 -0.611 150 16 0
2.5910001 0.89700001 -0.61299998 150 16 0
2.5880001 0.90399998 -0.616 150 16 0
2.5869999 0.912 -0.61900002 150 16 0
2.576 0.91600001 -0.62 150 16 0
2.5739999 0.92299998 -0.62300003 150 16 0
2.562 0.92699999 -0.62400001 150 16 0
2.5550001 0.93199998 -0.62599999 150 16 0
2.553 0.94 -0.62900001 150 16 0
2.556 0.949 -0.63300002 150 16 0
2.5650001 0.95999998 -0.639 150 16 0
2.5699999 0.97000003 -0.64300001 150 16 0
2.5450001 0.96799999 -0.63999999 150 19 0
2.5339999 0.972 -0.64099997 150 16 0
2.529 0.97799999 -0.64300001 150 16 0
2.526 0.98500001 -0.64499998 150 16 0
2.52 0.991 -0.64700001 150 16 0
2.52 0.99800003 -0.64999998 150 16 0
2.5179999 1.005 -0.65200001 150 16 0
2.5090001 1.01 -0.653 150 16 0
2.5050001 1.016 -0.65499997 150 16 0
2.4990001 1.021 -0.65600002 150 16 0
2.4990001 1.029 -0.65899998 150 16 0
2.4920001 1.034 -0.66000003 150 16 0
2.4890001 1.041 -0.662 150 16 0
2.484 1.0470001 -0.66399997 150 16 0
2.483 1.054 -0.66600001 150 16 0
2.48 1.0599999 -0.66799998 150 16 0
2.473 1.0650001 -0.66900003 150 16 0
2.47 1.072 -0.671 150 16 0
2.4690001 1.079 -0.67299998 150 16 0
2.4619999 1.084 -0.67400002 150 16 0
2.46 1.09 -0.67500001 150 16 0
2.4560001 1.096 -0.67699999 150 16 0
2.4519999 1.102 -0.67799997 150 16 0
2.4489999 1.109 -0.68000001 150 16 0
2.444 1.114 -0.68000001 150 16 0
2.444 1.1210001 -0.68300003 150 16 0
2.4389999 1.127 -0.68300003 150 16 0
2.4349999 1.132 -0.68400002 150 16 0
2.431 1.138 -0.685 150 16 0
2.428 1.1440001 -0.68599999 150 16 0
2.4260001 1.15 -0.68800002 150 16 0
2.4189999 1.155 -0.68800002 150 16 0
2.4159999 1.161 -0.68900001 150 16 0
2.415 1.168 -0.69 150 16 0
2.4059999 1.171 -0.68900001 70 16 0
2.4059999 1.178 -0.69099998 32 16 0
2.4030001 1.184 -0.69199997 38 16 0
2.3970001 1.188 -0.69199997 77 16 0
2.3970001 1.1950001 -0.69300002 111 16 0
2.395 1.202 -0.69400001 150 16 0
2.3900001 1.206 -0.69400001 150 16 0
2.3889999 1.2130001 -0.69499999 150 16 0
2.3829999 1.217 -0.69499999 150 16 0
2.3770001 1.221 -0.69400001 150 16 0
2.3789999 1.229 -0.69599998 150 16 0
2.375 1.234 -0.69599998 150 16 0
2.3699999 1.238 -0.69599998 150 16 0
2.369 1.244 -0.69599998 150 16 0
2.3659999 1.25 -0.69599998 150 16 0
2.3629999 1.255 -0.69599998 150 16 0
2.3610001 1.26 -0.69599998 150 16 0
2.358 1.266 -0.69599998 150 16 0
2.3559999 1.271 -0.69700003 150 16 0
2.352 1.276 -0.69599998 150 16 0
2.3499999 1.281 -0.69599998 150 16 0
2.3499999 1.2869999 -0.69599998 150 16 0
2.3469999 1.2920001 -0.69599998 150 16 0
2.345 1.298 -0.69599998 146 16 0
2.3399999 1.301 -0.69499999 33 16 0
2.3380001 1.306 -0.69400001 29 16 0
2.332 1.309 -0.69300002 110 16 0
2.332 1.3150001 -0.69300002 150 16 0
2.3299999 1.3200001 -0.69300002 144 16 0
2.3280001 1.325 -0.69199997 34 16 0
2.3269999 1.33 -0.69199997 26 16 0
2.3199999 1.332 -0.68900001 72 16 0
2.3239999 1.34 -0.69 150 16 0
2.322 1.345 -0.69 150 16 0
2.3180001 1.348 -0.68800002 150 16 0
2.3150001 1.353 -0.68699998 150 16 0
2.313 1.357 -0.68599999 150 16 0
2.3110001 1.3609999 -0.685 150 16 0
2.3110001 1.3660001 -0.68400002 150 16 0
2.3050001 1.368 -0.68199998 150 16 0
2.306 1.374 -0.68199998 150 16 0
2.302 1.377 -0.68000001 93 16 0
2.3039999 1.383 -0.68000001 58 16 0
2.303 1.387 -0.67799997 59 16 0
2.302 1.392 -0.67699999 54 16 0
2.3010001 1.395 -0.676 46 16 0
2.299 1.399 -0.67400002 46 16 0
2.3 1.404 -0.67299998 45 16 0
2.293 1.405 -0.67000002 35 16 0
2.2939999 1.41 -0.66900003 37 16 0
2.2920001 1.413 -0.66799998 59 16 0
2.2850001 1.413 -0.66399997 117 16 0
2.2869999 1.418 -0.66299999 150 16 0
2.289 1.423 -0.662 150 16 0
2.2850001 1.425 -0.66000003 150 16 0
2.286 1.4299999 -0.65799999 150 16 0
2.2850001 1.433 -0.65600002 150 16 0
2.283 1.436 -0.65399998 150 16 0
2.2820001 1.438 -0.65200001 150 16 0
2.283 1.443 -0.64999998 150 16 0
2.28 1.444 -0.648 150 16 0
2.28 1.448 -0.64600003 150 16 0
2.2780001 1.449 -0.64300001 150 16 0
2.279 1.4529999 -0.64099997 150 16 0
2.2780001 1.455 -0.639 150 16 0
2.2739999 1.456 -0.63599998 143 16 0
2.2739999 1.4579999 -0.63300002 138 16 0
2.277 1.4630001 -0.63200003 120 16 0
2.279 1.467 -0.63 138 16 0
2.277 1.4680001 -0.62699997 112 16 0
2.2780001 1.471 -0.62400001 113 16 0
2.279 1.473 -0.62199998 87 16 0
2.276 1.474 -0.61900002 38 16 0
2.28 1.478 -0.61699998 28 16 0
2.28 1.48 -0.61500001 23 16 0
2.276 1.479 -0.611 25 16 0
2.2850001 1.487 -0.611 33 16 0
2.2809999 1.4859999 -0.60699999 35 16 0
2.28 1.487 -0.60299999 35 16 0
2.2809999 1.488 -0.60100001 33 16 0
2.2839999 1.4910001 -0.59799999 29 16 0
2.2839999 1.493 -0.59500003 27 16 0
2.2850001 1.494 -0.59200001 27 16 0
2.2850001 1.495 -0.58899999 29 16 0
2.283 1.495 -0.58600003 31 16 0
2.2850001 1.4960001 -0.583 35 16 0
2.286 1.497 -0.57999998 39 16 0
2.2869999 1.498 -0.57700002 39 16 0
2.2869999 1.498 -0.57300001 46 16 0
2.2880001 1.499 -0.56999999 53 16 0
2.286 1.498 -0.56599998 48 16 0
2.2920001 1.502 -0.56400001 50 16 0
2.296 1.5039999 -0.56199998 51 16 0
2.2909999 1.5 -0.55699998 74 16 0
2.2909999 1.5 -0.55299997 95 16 0
2.2969999 1.503 -0.551 119 16 0
2.2980001 1.503 -0.54799998 126 16 0
2.2969999 1.501 -0.54400003 127 16 0
2.302 1.5039999 -0.54100001 142 16 0
2.3010001 1.502 -0.537 133 16 0
2.303 1.502 -0.53399998 140 16 0
2.303 1.501 -0.52999997 140 16 0
2.306 1.501 -0.52700001 144 16 0
2.3069999 1.501 -0.523 125 16 0
2.312 1.502 -0.52100003 84 16 0
2.313 1.501 -0.51700002 33 16 0
2.313 1.499 -0.51300001 21 16 0
2.3210001 1.502 -0.51099998 23 16 0
2.3169999 1.498 -0.50599998 35 16 0
2.3210001 1.498 -0.50300002 83 16 0
2.3239999 1.497 -0.49900001 74 16 0
2.3239999 1.495 -0.495 36 16 0
2.3269999 1.495 -0.49200001 29 16 0
2.3269999 1.492 -0.48800001 38 16 0
2.3310001 1.4910001 -0.484 54 16 0
2.3340001 1.49 -0.48100001 56 16 0
2.3369999 1.49 -0.477 64 16 0
2.3369999 1.4859999 -0.47299999 93 16 0
2.3410001 1.4859999 -0.47 150 16 0
2.3429999 1.484 -0.46599999 150 16 0
2.3469999 1.483 -0.463 150 16 0
2.349 1.48 -0.45899999 150 16 0
2.3499999 1.478 -0.45500001 150 16 0
2.3559999 1.477 -0.45199999 150 16 0
2.3559999 1.474 -0.44800001 150 16 0
2.359 1.471 -0.44400001 150 16 0
2.3629999 1.47 -0.44100001 150 16 0
2.3670001 1.4680001 -0.43700001 150 16 0
2.3670001 1.464 -0.433 150 16 0
2.3699999 1.462 -0.42899999 150 16 0
2.375 1.46 -0.426 150 16 0
2.3770001 1.457 -0.42199999 150 16 0
2.3789999 1.454 -0.41800001 150 16 0
2.382 1.451 -0.414 150 16 0
2.385 1.448 -0.41100001 150 16 0
2.3870001 1.444 -0.40700001 150 16 0
2.391 1.442 -0.403 150 16 0
2.3970001 1.4400001 -0.40000001 150 16 0
2.401 1.437 -0.396 150 16 0
2.3989999 1.431 -0.39199999 150 16 0
2.4070001 1.431 -0.389 150 16 0
2.4089999 1.427 -0.38499999 150 16 0
2.408 1.42 -0.38100001 150 16 0
2.418 1.421 -0.37799999 150 16 0
2.418 1.415 -0.37400001 150 16 0
2.424 1.413 -0.37099999 150 16 0
2.427 1.409 -0.36700001 150 16 0
2.4319999 1.406 -0.36399999 150 16 0
2.4349999 1.402 -0.36000001 150 16 0
2.4400001 1.399 -0.35699999 150 16 0
2.441 1.3940001 -0.35299999 150 16 0
2.4460001 1.39 -0.34900001 150 16 0
2.451 1.387 -0.34599999 150 16 0
2.45 1.38 -0.34200001 150 16 0
2.4590001 1.378 -0.33899999 150 16 0
2.46 1.373 -0.33500001 150 16 0
2.4630001 1.368 -0.33199999 150 16 0
2.4690001 1.365 -0.329 150 16 0
2.4719999 1.36 -0.32499999 150 16 0
2.4760001 1.355 -0.32100001 150 16 0
2.48 1.351 -0.31799999 150 16 0
2.4849999 1.347 -0.315 150 16 0
2.487 1.341 -0.31099999 150 16 0
2.494 1.3380001 -0.308 150 16 0
2.4979999 1.3329999 -0.30500001 150 16 0
2.4979999 1.326 -0.301 150 16 0
2.507 1.323 -0.29800001 150 16 0
2.51 1.318 -0.29499999 150 16 0
2.513 1.312 -0.29100001 150 16 0
2.5190001 1.308 -0.28799999 150 16 0
2.5250001 1.304 -0.285 150 16 0
2.5250001 1.296 -0.28099999 150 16 0
2.527 1.29 -0.278 150 16 0
2.533 1.286 -0.27500001 150 16 0
2.5369999 1.28 -0.271 150 16 0
2.5420001 1.275 -0.26800001 150 16 0
2.5450001 1.2690001 -0.26499999 150 16 0
2.5480001 1.263 -0.26199999 150 16 0
2.556 1.2589999 -0.259 150 16 0
2.5550001 1.251 -0.255 150 16 0
2.5650001 1.248 -0.25299999 150 16 0
2.566 1.2410001 -0.249 150 16 0
2.5739999 1.237 -0.24699999 150 16 0
2.575 1.23 -0.243 150 16 0
2.5810001 1.224 -0.23999999 150 16 0
2.582 1.217 -0.237 150 16 0
2.5880001 1.212 -0.234 150 16 0
2.5910001 1.205 -0.23100001 150 16 0
2.6029999 1.202 -0.229 150 16 0
2.598 1.192 -0.22499999 150 16 0
2.609 1.189 -0.223 150 16 0
2.612 1.182 -0.22 150 16 0
2.6159999 1.176 -0.21699999 150 16 0
2.6210001 1.17 -0.214 150 16 0
2.6240001 1.163 -0.211 150 16 0
2.628 1.156 -0.208 150 16 0
2.6370001 1.152 -0.206 150 16 0
2.642 1.146 -0.20299999 150 16 0
2.638 1.135 -0.199 150 16 0
2.6500001 1.132 -0.197 150 16 0
2.6530001 1.125 -0.19499999 150 16 0
2.658 1.118 -0.192 150 16 0
2.661 1.1109999 -0.189 150 16 0
2.6689999 1.1059999 -0.18700001 150 16 0
2.6760001 1.1 -0.184 150 16 0
2.6789999 1.0930001 -0.18099999 150 16 0
2.6830001 1.085 -0.17900001 150 16 0
2.684 1.077 -0.176 150 16 0
2.691 1.071 -0.17399999 150 16 0
2.694 1.064 -0.171 150 16 0
2.7030001 1.058 -0.169 150 16 0
2.707 1.051 -0.16599999 150 16 0
2.7090001 1.043 -0.163 150 16 0
2.7149999 1.0369999 -0.161 150 16 0
2.7179999 1.029 -0.15899999 150 16 0
2.727 1.024 -0.156 150 16 0
2.7309999 1.016 -0.154 150 16 0
2.7320001 1.008 -0.15099999 150 16 0
2.7409999 1.002 -0.149 150 16 0
2.743 0.99400002 -0.147 150 16 0
2.7460001 0.986 -0.14399999 150 16 0
2.757 0.98000002 -0.142 150 16 0
2.7690001 0.97600001 -0.141 42 16 0
2.7709999 0.96700001 -0.138 56 16 0
2.7679999 0.958 -0.13500001 150 16 0
2.7750001 0.95099998 -0.133 150 16 0
2.7780001 0.94300002 -0.131 150 16 0
2.783 0.935 -0.12899999 150 16 0
2.7850001 0.92699999 -0.127 150 16 0
2.789 0.91900003 -0.124 150 16 0
2.799 0.91299999 -0.123 150 16 0
2.8010001 0.90399998 -0.12 150 16 0
2.8010001 0.89499998 -0.118 150 16 0
2.8099999 0.889 -0.116 150 16 0
2.8099999 0.87900001 -0.114 150 16 0
2.8210001 0.87400001 -0.112 150 16 0
2.8239999 0.86500001 -0.11 150 16 0
2.8310001 0.85799998 -0.108 150 16 0
2.836 0.85000002 -0.106 150 16 0
2.8380001 0.84200001 -0.104 150 16 0
2.8410001 0.833 -0.102 150 16 0
2.848 0.82599998 -0.1 150 16 0
2.8570001 0.81900001 -0.098999999 150 16 0
2.8599999 0.81 -0.097000003 150 16 0
2.868 0.80299997 -0.094999999 150 16 0
2.872 0.79500002 -0.093000002 150 16 0
2.8740001 0.78600001 -0.090999998 150 16 0
2.882 0.77899998 -0.089000002 150 16 0
2.8840001 0.76999998 -0.088 150 16 0
2.895 0.76300001 -0.086000003 150 16 0
2.901 0.755 -0.083999999 150 16 0
2.905 0.74699998 -0.082999997 150 16 0
2.9089999 0.73799998 -0.081 137 16 0
2.9159999 0.73000002 -0.079000004 150 16 0
2.9200001 0.722 -0.078000002 145 16 0
2.9219999 0.71200001 -0.075999998 149 16 0
2.9330001 0.70499998 -0.074000001 146 16 0
2.9349999 0.69599998 -0.072999999 150 16 0
2.937 0.68699998 -0.071000002 149 16 0
2.947 0.68000001 -0.068999998 133 16 0
2.951 0.671 -0.068000004 133 16 0
2.954 0.662 -0.066 117 16 0
2.9590001 0.65399998 -0.064999998 142 16 0
2.9619999 0.64499998 -0.063000001 135 16 0
2.97 0.63700002 -0.061999999 138 16 0
2.9760001 0.62800002 -0.059999999 141 16 0
2.9779999 0.61900002 -0.059 150 16 0
2.98 0.60900003 -0.057 140 16 0
2.9909999 0.602 -0.056000002 136 16 0
2.9990001 0.59299999 -0.055 134 16 0
2.9979999 0.58399999 -0.052999999 122 16 0
3.0050001 0.57499999 -0.052000001 124 16 0
3.0090001 0.56599998 -0.050000001 128 16 0
3.016 0.55699998 -0.048999999 135 16 0
3.023 0.54900002 -0.048 124 16 0
3.027 0.54000002 -0.046999998 129 16 0
3.0350001 0.53100002 -0.045000002 125 16 0
3.0409999 0.52200001 -0.044 122 16 0
3.0420001 0.51300001 -0.043000001 134 16 0
3.0439999 0.50300002 -0.041000001 123 16 0
3.052 0.49399999 -0.039999999 128 16 0
3.0580001 0.48500001 -0.039000001 131 16 0
3.0599999 0.47600001 -0.037999999 122 16 0
3.0710001 0.46700001 -0.037 119 16 0
3.0780001 0.458 -0.035999998 95 16 0
3.0840001 0.449 -0.034000002 105 16 0
3.0910001 0.44 -0.033 125 16 0
3.0999999 0.43099999 -0.032000002 120 16 0
3.1029999 0.42199999 -0.030999999 127 16 0
3.1040001 0.412 -0.029999999 111 16 0
3.112 0.403 -0.028999999 94 16 0
3.1140001 0.39300001 -0.028000001 83 16 0
3.1210001 0.38299999 -0.027000001 97 16 0
3.128 0.37400001 -0.026000001 99 16 0
3.131 0.36399999 -0.025 84 16 0
3.1429999 0.35600001 -0.024 102 16 0
3.1440001 0.34599999 -0.023 102 16 0
3.154 0.336 -0.022 93 16 0
3.155 0.32600001 -0.021 87 16 0
3.168 0.317 -0.02 91 16 0
3.1700001 0.30700001 -0.018999999 89 16 0
3.177 0.29699999 -0.017999999 88 16 0
3.1800001 0.287 -0.017000001 84 16 0
3.1889999 0.278 -0.017000001 79 16 0
3.194 0.26800001 -0.016000001 82 16 0
3.201 0.25799999 -0.015 91 16 0
3.2049999 0.248 -0.014 75 16 0
3.217 0.23899999 -0.013 83 16 0
3.22 0.229 -0.013 92 16 0
3.224 0.21799999 -0.012 92 16 0
3.23 0.208 -0.011 94 16 0
3.2360001 0.198 -0.0099999998 77 16 0
3.2420001 0.18799999 -0.0099999998 81 16 0
3.2490001 0.178 -0.0089999996 80 16 0
3.2509999 0.168 -0.0080000004 82 16 0
3.2520001 0.15700001 -0.0080000004 77 16 0
3.2609999 0.147 -0.0070000002 71 16 0
3.267 0.13699999 -0.0060000001 81 16 0
3.2750001 0.126 -0.0060000001 82 16 0
3.277 0.116 -0.0049999999 71 16 0
3.289 0.106 -0.0040000002 62 16 0
3.2869999 0.094999999 -0.0040000002 60 16 0
3.296 0.085000001 -0.003 80 16 0
3.306 0.074000001 -0.003 77 16 0
3.3039999 0.063000001 -0.0020000001 52 16 0
3.3110001 0.052999999 -0.0020000001 48 16 0
3.313 0.041999999 -0.001 79 16 0
3.3239999 0.032000002 -0.001 60 16 0
3.3199999 0.021 0 25 16 0
3.2980001 0.0099999998 0 19 16 0
3.273 0 0 18 16 0
3.244 -0.0099999998 0 23 16 0
3.244 -0.021 0 112 16 0
3.2479999 -0.030999999 0.001 150 16 0
3.256 -0.041999999 0.001 150 16 0
3.2650001 -0.052999999 0.001 150 16 0
3.266 -0.063000001 0.0020000001 150 16 0
3.2609999 -0.074000001 0.0020000001 36 16 0
3.237 -0.083999999 0.0020000001 30 16 0
3.2119999 -0.093000002 0.0020000001 28 16 0
3.1949999 -0.103 0.003 30 16 0
3.1719999 -0.113 0.003 28 16 0
3.148 -0.122 0.003 29 16 0
3.128 -0.131 0.003 28 16 0
3.1070001 -0.141 0.003 28 16 0
3.089 -0.15000001 0.003 27 16 0
3.0710001 -0.15899999 0.003 28 16 0
3.05 -0.168 0.003 28 16 0
3.0239999 -0.176 0.003 28 16 0
3.0050001 -0.185 0.003 28 16 0
2.9849999 -0.193 0.003 27 16 0
2.9690001 -0.20200001 0.003 27 16 0
2.9460001 -0.20999999 0.003 27 16 0
2.928 -0.21799999 0.003 28 16 0
2.9100001 -0.226 0.003 27 16 0
2.8929999 -0.234 0.003 29 16 0
2.8759999 -0.242 0.003 29 16 0
2.8540001 -0.25 0.003 30 16 0
2.842 -0.25799999 0.003 30 16 0
2.8199999 -0.26499999 0.003 30 16 0
2.8050001 -0.273 0.003 29 16 0
2.7850001 -0.28 0.003 29 16 0
2.773 -0.28799999 0.0020000001 31 16 0
2.757 -0.29499999 0.0020000001 30 16 0
2.74 -0.30199999 0.0020000001 32 16 0
2.727 -0.31 0.0020000001 31 16 0
2.71 -0.317 0.0020000001 31 16 0
2.6949999 -0.324 0.001 34 16 0
2.6789999 -0.33000001 0.001 31 16 0
2.6630001 -0.33700001 0.001 33 16 0
2.6489999 -0.34400001 0 34 16 0
2.635 -0.35100001 0 32 16 0
2.6159999 -0.35699999 0 31 16 0
2.602 -0.36300001 0 32 16 0
2.5869999 -0.37 0 32 16 0
2.5810001 -0.377 0 33 16 0
2.5599999 -0.38299999 -0.001 34 16 0
2.543 -0.38800001 -0.001 34 16 0
2.5280001 -0.39399999 -0.001 39 16 0
2.513 -0.40000001 -0.0020000001 48 16 0
2.507 -0.40799999 -0.0020000001 39 16 0
2.4909999 -0.41299999 -0.003 55 16 0
2.4760001 -0.419 -0.003 53 16 0
2.4679999 -0.426 -0.003 55 16 0
2.4560001 -0.43200001 -0.0040000002 60 16 0
2.4430001 -0.43700001 -0.0040000002 59 16 0
2.4230001 -0.442 -0.0049999999 49 16 0
2.4100001 -0.447 -0.0049999999 57 16 0
2.3989999 -0.45300001 -0.0060000001 59 16 0
2.3889999 -0.45899999 -0.0060000001 60 16 0
2.3759999 -0.465 -0.0070000002 68 16 0
2.3610001 -0.47 -0.0070000002 53 16 0
2.345 -0.47400001 -0.0080000004 60 16 0
2.3340001 -0.479 -0.0089999996 56 16 0
2.3280001 -0.486 -0.0089999996 81 16 0
2.312 -0.49000001 -0.0099999998 75 16 0
2.2950001 -0.49399999 -0.0099999998 78 16 0
2.2850001 -0.5 -0.011 82 16 0
2.277 -0.505 -0.012 75 16 0
2.266 -0.50999999 -0.012 75 16 0
2.2590001 -0.51599997 -0.013 82 16 0
2.244 -0.51999998 -0.013 75 16 0
2.2360001 -0.52600002 -0.014 82 16 0
2.224 -0.52999997 -0.015 91 16 0
2.2119999 -0.53500003 -0.016000001 84 16 0
2.1989999 -0.53899997 -0.016000001 99 16 0
2.188 -0.54400003 -0.017000001 96 16 0
2.178 -0.54900002 -0.017999999 101 16 0
2.1570001 -0.55000001 -0.017999999 93 19 0
2.1489999 -0.55500001 -0.018999999 91 16 0
2.141 -0.56 -0.02 93 16 0
2.131 -0.565 -0.021 99 16 0
2.122 -0.56999999 -0.021 93 16 0
2.112 -0.574 -0.022 93 16 0
2.1040001 -0.579 -0.023 102 16 0
2.096 -0.583 -0.024 120 16 0
2.0840001 -0.58700001 -0.025 116 16 0
2.075 -0.59100002 -0.025 106 16 0
2.0610001 -0.59500003 -0.026000001 107 16 0
2.052 -0.59899998 -0.027000001 109 16 0
2.0420001 -0.60299999 -0.028000001 113 16 0
2.0339999 -0.60699999 -0.028999999 110 16 0
2.0220001 -0.61000001 -0.028999999 116 16 0
2.0139999 -0.61500001 -0.029999999 127 16 0
2.0050001 -0.61799997 -0.030999999 115 16 0
1.9960001 -0.62199998 -0.032000002 116 16 0
1.9859999 -0.62599999 -0.033 129 16 0
1.983 -0.63200003 -0.034000002 138 16 0
1.9680001 -0.63300002 -0.035 146 16 0
1.961 -0.63800001 -0.035999998 135 16 0
1.946 -0.639 -0.037 137 16 0
1.939 -0.64399999 -0.037999999 143 16 0
1.932 -0.648 -0.039000001 141 16 0
1.926 -0.65200001 -0.039999999 142 16 0
1.9170001 -0.65499997 -0.041000001 139 16 0
1.908 -0.65899998 -0.041999999 144 16 0
1.898 -0.662 -0.043000001 144 16 0
1.8890001 -0.66500002 -0.044 144 16 0
1.882 -0.66900003 -0.045000002 150 16 0
1.8710001 -0.671 -0.046 149 16 0
1.867 -0.676 -0.046999998 150 16 0
1.8609999 -0.68000001 -0.048 2 0 0
1.859 -0.685 -0.048999999 150 16 0
1.844 -0.68599999 -0.050000001 2 0 0
1.834 -0.68800002 -0.050999999 2 0 0
1.8279999 -0.69199997 -0.052000001 3 0 0
1.822 -0.69599998 -0.054000001 43 0 0
1.8150001 -0.699 -0.055 2 0 0
1.811 -0.704 -0.056000002 4 0 0
1.802 -0.70599997 -0.057 1 0 0
1.796 -0.70999998 -0.057999998 3 0 0
1.789 -0.713 -0.059 2 0 0
1.775 -0.713 -0.059999999 1 0 0
1.772 -0.71799999 -0.061999999 150 16 0
1.765 -0.72100002 -0.063000001 4 0 0
1.7589999 -0.72399998 -0.064000003 2 0 0
1.7539999 -0.72799999 -0.064999998 5 0 0
1.7460001 -0.73100001 -0.067000002 2 0 0
1.739 -0.73299998 -0.068000004 2 0 0
1.73 -0.73500001 -0.068999998 43 0 0
1.726 -0.73900002 -0.07 3 0 0
1.712 -0.73900002 -0.071000002 49 0 0
1.709 -0.74299997 -0.072999999 55 0 0
1.7029999 -0.74599999 -0.074000001 39 0 0
1.697 -0.74900001 -0.075999998 52 0 0
1.689 -0.75099999 -0.077 52 0 0
1.684 -0.75400001 -0.078000002 78 0 0
1.671 -0.75400001 -0.079000004 61 0 0
1.668 -0.75800002 -0.081 75 0 0
1.661 -0.75999999 -0.082000002 77 0 0
1.656 -0.76300001 -0.083999999 80 0 0
1.65 -0.76599997 -0.085000001 55 0 0
1.641 -0.76700002 -0.086000003 98 0 0
1.632 -0.76800001 -0.086999997 86 0 0
1.633 -0.77399999 -0.089000002 76 0 0
1.627 -0.77600002 -0.090999998 84 0 0
1.615 -0.77499998 -0.092 96 0 0
1.607 -0.77700001 -0.093000002 117 0 0
1.604 -0.77999997 -0.094999999 67 0 0
1.599 -0.78299999 -0.096000001 94 0 0
1.596 -0.78600001 -0.097999997 79 0 0
1.5930001 -0.79000002 -0.098999999 68 0 0
1.585 -0.79100001 -0.101 75 0 0
1.581 -0.79400003 -0.102 71 0 0
1.5779999 -0.79699999 -0.104 86 0 0
1.5700001 -0.79799998 -0.105 78 0 0
1.561 -0.79799998 -0.107 98 0 0
1.558 -0.801 -0.108 63 0 0
1.557 -0.80500001 -0.11 70 0 0
1.55 -0.80599999 -0.111 95 0 0
1.546 -0.80900002 -0.113 95 0 0
1.541 -0.81099999 -0.115 105 0 0
1.5369999 -0.81400001 -0.116 71 0 0
1.527 -0.81300002 -0.118 80 0 0
1.523 -0.815 -0.119 85 0 0
1.515 -0.815 -0.121 50 0 0
1.515 -0.81999999 -0.123 107 0 0
1.511 -0.82200003 -0.124 80 0 0
1.503 -0.82200003 -0.126 79 0 0
1.502 -0.82599998 -0.12800001 119 0 0
1.4960001 -0.82700002 -0.12899999 70 0 0
1.49 -0.82800001 -0.131 65 0 0
1.484 -0.82800001 -0.132 64 0 0
1.482 -0.83099997 -0.134 105 0 0
1.478 -0.833 -0.13600001 70 0 0
1.476 -0.83600003 -0.138 73 0 0
1.4680001 -0.83600003 -0.139 75 0 0
1.467 -0.83899999 -0.141 104 0 0
1.457 -0.83700001 -0.142 99 0 0
1.455 -0.83999997 -0.14399999 108 0 0
1.452 -0.84200001 -0.146 110 0 0
1.451 -0.84500003 -0.148 98 0 0
1.444 -0.84500003 -0.15000001 113 0 0
1.439 -0.84600002 -0.15099999 96 0 0
1.436 -0.847 -0.153 79 0 0
1.433 -0.85000002 -0.155 79 0 0
1.428 -0.85000002 -0.15700001 82 0 0
1.426 -0.852 -0.15899999 99 0 0
1.42 -0.852 -0.16 105 0 0
1.419 -0.85500002 -0.162 94 0 0
1.416 -0.85699999 -0.164 86 0 0
1.41 -0.85600001 -0.16599999 122 0 0
1.405 -0.85699999 -0.167 108 0 0
1.404 -0.85900003 -0.169 147 0 0
1.4 -0.86000001 -0.171 89 0 0
1.398 -0.861 -0.17299999 131 0 0
1.397 -0.86400002 -0.175 118 0 0
1.392 -0.86299998 -0.177 133 0 0
1.39 -0.86500001 -0.17900001 129 0 0
1.3890001 -0.86699998 -0.18099999 133 0 0
1.385 -0.86799997 -0.183 130 0 0
1.3839999 -0.87 -0.185 150 0 0
1.3789999 -0.87 -0.186 126 0 0
1.378 -0.87099999 -0.189 124 0 0
1.377 -0.87400001 -0.191 93 0 0
1.375 -0.875 -0.193 139 0 0
1.37 -0.87400001 -0.19400001 141 0 0
1.37 -0.87599999 -0.197 130 0 0
1.365 -0.875 -0.198 128 0 0
1.363 -0.87599999 -0.2 144 0 0
1.3609999 -0.87800002 -0.20200001 150 0 0
1.355 -0.87599999 -0.20299999 124 0 0
1.357 -0.87900001 -0.206 133 0 0
1.359 -0.88200003 -0.208 126 0 0
1.352 -0.88 -0.20999999 119 0 0
1.35 -0.88099998 -0.212 119 0 0
1.346 -0.88 -0.213 147 0 0
1.346 -0.88200003 -0.215 150 0 0
1.344 -0.88200003 -0.21699999 136 0 0
1.341 -0.88099998 -0.219 147 0 0
1.342 -0.884 -0.221 138 0 0
1.339 -0.884 -0.223 139 0 0
1.336 -0.88300002 -0.22499999 142 0 0
1.334 -0.88300002 -0.227 144 0 0
1.334 -0.88499999 -0.229 150 0 0
1.3329999 -0.88499999 -0.23100001 141 0 0
1.33 -0.884 -0.233 150 0 0
1.331 -0.88599998 -0.235 150 0 0
1.3279999 -0.88499999 -0.237 142 0 0
1.3279999 -0.88599998 -0.23899999 139 0 0
1.329 -0.88800001 -0.241 150 0 0
1.327 -0.88700002 -0.243 150 0 0
1.326 -0.88700002 -0.245 150 0 0
1.311 -0.87800002 -0.244 150 1 0
1.311 -0.87900001 -0.24600001 138 0 0
1.3099999 -0.87900001 -0.248 133 0 0
1.3099999 -0.87900001 -0.25 150 0 0
1.309 -0.87900001 -0.252 134 0 0
1.309 -0.87900001 -0.25400001 133 0 0
1.309 -0.87900001 -0.25600001 121 0 0
1.306 -0.87800002 -0.257 150 0 0
1.319 -0.88599998 -0.26199999 150 1 0
1.3049999 -0.87800002 -0.26100001 148 3 0
1.307 -0.87900001 -0.26300001 122 0 0
1.3049999 -0.87699997 -0.26499999 150 0 0
1.304 -0.87699997 -0.26699999 150 0 0
1.304 -0.87699997 -0.26800001 150 0 0
1.304 -0.87599999 -0.27000001 146 0 0
1.317 -0.88499999 -0.27500001 150 1 0
1.319 -0.88599998 -0.27700001 150 0 0
1.317 -0.884 -0.278 150 0 0
1.319 -0.88499999 -0.28099999 150 0 0
1.317 -0.88300002 -0.28200001 150 0 0
1.304 -0.87300003 -0.28099999 136 1 0
1.3049999 -0.87300003 -0.28299999 150 0 0
1.317 -0.88 -0.287 150 1 0
1.3200001 -0.88099998 -0.289 150 0 0
1.3150001 -0.87699997 -0.28999999 150 0 0
1.3200001 -0.88 -0.29300001 150 0 0
1.318 -0.87699997 -0.294 150 0 0
1.322 -0.87800002 -0.296 150 0 0
1.322 -0.87699997 -0.29800001 150 0 0
1.322 -0.87599999 -0.29899999 150 0 0
1.322 -0.875 -0.301 150 0 0
1.323 -0.87400001 -0.303 150 0 0
1.323 -0.87300003 -0.30399999 150 0 0
1.321 -0.87 -0.30500001 150 0 0
1.324 -0.87 -0.30700001 150 0 0
1.325 -0.86900002 -0.30899999 150 0 0
1.329 -0.87 -0.31099999 150 0 0
1.329 -0.86799997 -0.31200001 150 0 0
1.334 -0.86900002 -0.315 150 0 0
1.3329999 -0.86699998 -0.31600001 150 0 0
1.336 -0.866 -0.317 150 0 0
1.336 -0.86500001 -0.31900001 150 0 0
1.335 -0.86199999 -0.31999999 150 0 0
1.3380001 -0.861 -0.32100001 150 0 0
1.341 -0.861 -0.32300001 150 0 0
1.342 -0.85900003 -0.324 150 0 0
1.3430001 -0.85799998 -0.32600001 150 0 0
1.349 -0.85900003 -0.32800001 150 0 0
1.35 -0.85699999 -0.33000001 150 0 0
1.351 -0.85600001 -0.331 150 0 0
1.352 -0.85399997 -0.33199999 150 0 0
1.353 -0.85100001 -0.333 150 0 0
1.357 -0.85100001 -0.33500001 150 0 0
1.358 -0.84899998 -0.336 150 0 0
1.362 -0.84799999 -0.33700001 150 0 0
1.363 -0.84600002 -0.338 150 0 0
1.3660001 -0.84500003 -0.34 150 0 0
1.367 -0.84299999 -0.34099999 150 0 0
1.3710001 -0.84200001 -0.34299999 150 0 0
1.376 -0.84200001 -0.34400001 150 0 0
1.3789999 -0.84100002 -0.34599999 150 0 0
1.38 -0.838 -0.34599999 150 0 0
1.382 -0.83600003 -0.34799999 150 0 0
1.383 -0.83399999 -0.34799999 150 0 0
1.386 -0.83200002 -0.34900001 150 0 0
1.388 -0.829 -0.34999999 150 0 0
1.3890001 -0.82700002 -0.35100001 146 0 0
1.392 -0.82499999 -0.352 150 0 0
1.399 -0.82499999 -0.354 150 0 0
1.403 -0.824 -0.35499999 150 0 0
1.403 -0.82099998 -0.35600001 150 0 0
1.408 -0.81999999 -0.35699999 150 0 0
1.415 -0.81999999 -0.359 150 0 0
1.415 -0.81699997 -0.359 150 0 0
1.418 -0.81400001 -0.36000001 150 0 0
1.426 -0.815 -0.36199999 150 0 0
1.428 -0.81199998 -0.36199999 150 0 0
1.433 -0.81099999 -0.36399999 150 0 0
1.433 -0.80699998 -0.36399999 150 0 0
1.442 -0.80800003 -0.366 150 0 0
1.446 -0.80599999 -0.36700001 150 0 0
1.447 -0.80299997 -0.36700001 150 0 0
1.45 -0.80000001 -0.36700001 150 0 0
1.46 -0.80199999 -0.37 150 3 0
1.461 -0.79799998 -0.37 150 0 0
1.465 -0.796 -0.37 150 0 0
1.471 -0.79400003 -0.37099999 150 0 0
1.472 -0.79100001 -0.37200001 150 0 0
1.479 -0.79000002 -0.373 150 0 0
1.484 -0.78799999 -0.37400001 150 0 0
1.492 -0.78799999 -0.375 150 0 0
1.494 -0.78399998 -0.375 150 0 0
1.498 -0.78200001 -0.37599999 150 0 0
1.5039999 -0.78100002 -0.377 150 0 0
1.507 -0.778 -0.377 150 0 0
1.5089999 -0.77399999 -0.377 150 0 0
1.516 -0.773 -0.37799999 150 0 0
1.52 -0.76999998 -0.37799999 150 0 0
1.529 -0.76999998 -0.37900001 150 0 0
1.5319999 -0.76700002 -0.38 150 0 0
1.538 -0.76499999 -0.38 150 0 0
1.545 -0.764 -0.38100001 150 0 0
1.551 -0.76200002 -0.38100001 150 0 0
1.5549999 -0.759 -0.382 150 0 0
1.562 -0.75700003 -0.382 150 0 0
1.5650001 -0.75400001 -0.382 150 0 0
1.572 -0.75199997 -0.38299999 150 0 0
1.574 -0.74800003 -0.382 147 0 0
1.58 -0.74599999 -0.38299999 150 0 0
1.582 -0.74199998 -0.382 150 0 0
1.5880001 -0.74000001 -0.382 150 0 0
1.59 -0.736 -0.382 150 0 0
1.596 -0.73299998 -0.382 150 0 0
1.6 -0.73000002 -0.382 150 0 0
1.613 -0.73100001 -0.384 150 3 0
1.6160001 -0.727 -0.38299999 150 0 0
1.623 -0.72500002 -0.38299999 150 0 0
1.625 -0.72100002 -0.382 138 0 0
1.636 -0.72000003 -0.38299999 122 0 0
1.64 -0.71700001 -0.38299999 125 0 0
1.647 -0.71399999 -0.38299999 121 0 0
1.654 -0.71200001 -0.38299999 113 0 0
1.661 -0.70999998 -0.38299999 137 0 0
1.67 -0.708 -0.384 125 0 0
1.674 -0.70499998 -0.38299999 146 0 0
1.682 -0.70200002 -0.38299999 115 0 0
1.6849999 -0.69800001 -0.382 117 0 0
1.692 -0.69599998 -0.382 1 0 0
1.7029999 -0.69499999 -0.38299999 125 0 0
1.707 -0.69099998 -0.382 150 0 0
1.719 -0.69 -0.38299999 118 0 0
1.724 -0.68699998 -0.382 104 0 0
1.728 -0.68300003 -0.382 2 0 0
1.7359999 -0.68000001 -0.38100001 91 0 0
1.7410001 -0.67699999 -0.38100001 1 0 0
1.744 -0.67199999 -0.37900001 1 0 0
1.7539999 -0.671 -0.38 92 0 0
1.76 -0.667 -0.37900001 2 0 0
1.771 -0.66600001 -0.37900001 45 0 0
1.774 -0.66100001 -0.37799999 2 0 0
1.786 -0.66000003 -0.37799999 1 0 0
1.793 -0.65700001 -0.37799999 150 16 0
1.795 -0.65200001 -0.37599999 1 0 0
1.802 -0.648 -0.375 1 0 0
1.8099999 -0.64600003 -0.375 1 0 0
1.821 -0.64399999 -0.375 1 0 0
1.826 -0.63999999 -0.37400001 150 16 0
1.84 -0.639 -0.37400001 150 16 0
1.844 -0.634 -0.373 150 16 0
1.851 -0.63099998 -0.37200001 150 16 0
1.857 -0.62699997 -0.37 150 16 0
1.867 -0.62400001 -0.37 150 16 0
1.873 -0.62099999 -0.36899999 150 16 0
1.885 -0.61900002 -0.36899999 134 16 0
1.89 -0.61400002 -0.36700001 123 16 0
1.897 -0.611 -0.366 149 16 0
1.906 -0.60799998 -0.36500001 140 16 0
1.909 -0.60299999 -0.36300001 134 16 0
1.919 -0.60000002 -0.36300001 150 16 0
1.926 -0.59600002 -0.361 133 16 0
1.941 -0.59500003 -0.361 141 16 0
1.948 -0.59100002 -0.36000001 147 16 0
1.952 -0.58600003 -0.35800001 132 16 0
1.9579999 -0.58099997 -0.35600001 122 16 0
1.971 -0.579 -0.35600001 128 16 0
1.9809999 -0.57599998 -0.35499999 129 16 0
1.9910001 -0.57300001 -0.354 127 16 0
2.0009999 -0.56999999 -0.35299999 122 16 0
2.0050001 -0.565 -0.35100001 111 16 0
2.0190001 -0.56199998 -0.34999999 110 16 0
2.0250001 -0.55800003 -0.34799999 126 16 0
2.033 -0.55400002 -0.347 110 16 0
2.039 -0.54900002 -0.34400001 107 16 0
2.0569999 -0.54799998 -0.34400001 113 16 0
2.066 -0.54400003 -0.34299999 118 16 0
2.0699999 -0.53899997 -0.34 106 16 0
2.082 -0.53500003 -0.33899999 126 16 0
2.0910001 -0.53100002 -0.338 104 16 0
2.0969999 -0.52700001 -0.33500001 111 16 0
2.1059999 -0.523 -0.33399999 102 16 0
2.1210001 -0.51999998 -0.333 107 16 0
2.1329999 -0.51599997 -0.331 97 16 0
2.1389999 -0.51099998 -0.329 104 16 0
2.1470001 -0.50700003 -0.32699999 114 16 0
2.165 -0.505 -0.32600001 84 16 0
2.174 -0.5 -0.324 81 16 0
2.1860001 -0.49700001 -0.322 76 16 0
2.1919999 -0.49200001 -0.31999999 72 16 0
2.2079999 -0.48899999 -0.31900001 70 16 0
2.2119999 -0.48300001 -0.31600001 73 16 0
2.2249999 -0.479 -0.31400001 66 16 0
2.2349999 -0.47499999 -0.31200001 61 16 0
2.2479999 -0.47099999 -0.31 63 16 0
2.256 -0.46599999 -0.308 67 16 0
2.266 -0.46200001 -0.30500001 63 16 0
2.276 -0.45699999 -0.303 66 16 0
2.293 -0.454 -0.301 66 16 0
2.303 -0.449 -0.29899999 69 16 0
2.316 -0.44499999 -0.29699999 58 16 0
2.323 -0.44 -0.294 64 16 0
2.339 -0.43599999 -0.292 62 16 0
2.3469999 -0.43000001 -0.289 52 16 0
2.358 -0.426 -0.28600001 45 16 0
2.372 -0.421 -0.28400001 60 16 0
2.385 -0.417 -0.28200001 58 16 0
2.395 -0.412 -0.27900001 56 16 0
2.4070001 -0.40700001 -0.27599999 54 16 0
2.4200001 -0.40200001 -0.27399999 57 16 0
2.431 -0.39700001 -0.271 52 16 0
2.4489999 -0.39300001 -0.26800001 47 16 0
2.46 -0.38800001 -0.266 52 16 0
2.4690001 -0.382 -0.26199999 52 16 0
2.4809999 -0.377 -0.259 49 16 0
2.4909999 -0.37200001 -0.25600001 46 16 0
2.506 -0.36700001 -0.25299999 44 16 0
2.513 -0.361 -0.25 44 16 0
2.5350001 -0.35699999 -0.24699999 44 16 0
2.543 -0.35100001 -0.244 43 16 0
2.5550001 -0.34599999 -0.23999999 33 16 0
2.5769999 -0.34099999 -0.23800001 35 16 0
2.5840001 -0.33500001 -0.234 34 16 0
2.598 -0.33000001 -0.23100001 35 16 0
2.6129999 -0.324 -0.227 40 16 0
2.6270001 -0.31900001 -0.22400001 35 16 0
2.6400001 -0.31299999 -0.22 36 16 0
2.6559999 -0.308 -0.21699999 35 16 0
2.6730001 -0.30199999 -0.214 34 16 0
2.684 -0.296 -0.20999999 33 16 0
2.698 -0.28999999 -0.206 34 16 0
2.7149999 -0.285 -0.20200001 29 16 0
2.7249999 -0.27900001 -0.198 29 16 0
2.7360001 -0.27200001 -0.19400001 30 16 0
2.7520001 -0.266 -0.19 29 16 0
2.766 -0.25999999 -0.186 29 16 0
2.78 -0.25400001 -0.182 28 16 0
2.793 -0.248 -0.178 28 16 0
2.8110001 -0.241 -0.17399999 28 16 0
2.8269999 -0.235 -0.17 27 16 0
2.842 -0.229 -0.16500001 27 16 0
2.859 -0.223 -0.161 27 16 0
2.8800001 -0.21600001 -0.15700001 28 16 0
2.8929999 -0.20999999 -0.152 28 16 0
2.908 -0.20299999 -0.148 28 16 0
2.924 -0.19599999 -0.14300001 28 16 0
2.9430001 -0.19 -0.139 28 16 0
2.961 -0.183 -0.134 27 16 0
2.9760001 -0.176 -0.12899999 27 16 0
2.99 -0.169 -0.124 27 16 0
3.007 -0.162 -0.119 27 16 0
3.0369999 -0.155 -0.115 28 16 0
3.049 -0.148 -0.109 27 16 0
3.0710001 -0.141 -0.104 27 16 0
3.0899999 -0.134 -0.098999999 27 16 0
3.1099999 -0.126 -0.093999997 27 16 0
3.128 -0.119 -0.088 28 16 0
3.1429999 -0.111 -0.082999997 29 16 0
3.1630001 -0.104 -0.077 27 16 0
3.187 -0.096000001 -0.071999997 28 16 0
3.2060001 -0.088 -0.066 28 16 0
3.2219999 -0.079999998 -0.059999999 28 16 0
3.244 -0.071999997 -0.054000001 46 16 0
3.253 -0.064000003 -0.048 150 16 0
3.253 -0.056000002 -0.041999999 150 16 0
3.2509999 -0.046999998 -0.035999998 150 16 0
3.2490001 -0.039000001 -0.028999999 150 16 0
3.2449999 -0.030999999 -0.023 150 16 0
3.24 -0.022 -0.017000001 120 16 0
3.2409999 -0.014 -0.0099999998 29 16 0
3.2650001 -0.0049999999 -0.0040000002 18 16 0
3.2820001 0.0020000001 0.001 18 16 0
3.3080001 0.011 0.0080000004 19 16 0
3.325 0.018999999 0.015 22 16 0
3.342 0.028000001 0.021 45 16 0
3.336 0.035999998 0.028000001 83 16 0
3.3399999 0.045000002 0.035 75 16 0
3.3329999 0.052999999 0.041000001 29 16 0
3.323 0.061999999 0.048 5 16 0
3.313 0.07 0.054000001 2 16 0
3.319 0.078000002 0.061000001 1 16 0
3.3299999 0.086999997 0.068000004 10 16 0
3.3280001 0.096000001 0.075000003 53 16 0
3.3239999 0.104 0.081 133 16 0
3.3280001 0.112 0.088 131 16 0
3.322 0.121 0.094999999 79 16 0
3.3080001 0.12800001 0.101 41 16 0
3.293 0.13600001 0.107 35 16 0
3.28 0.14399999 0.113 34 16 0
3.2639999 0.15099999 0.12 33 16 0
3.247 0.15899999 0.126 33 16 0
3.2309999 0.16599999 0.132 35 16 0
3.2219999 0.17399999 0.138 47 16 0
3.2130001 0.18099999 0.14399999 106 16 0
3.2019999 0.189 0.15000001 103 16 0
3.1619999 0.19400001 0.155 27 18 0
3.1389999 0.20100001 0.16 24 16 0
3.184 0.212 0.169 51 16 0
3.1589999 0.21799999 0.175 45 16 0
3.154 0.22499999 0.18099999 39 16 0
3.201 0.236 0.191 150 18 0
3.201 0.244 0.197 150 16 0
3.201 0.252 0.204 150 16 0
3.198 0.25999999 0.211 150 16 0
3.198 0.26800001 0.21699999 150 16 0
3.197 0.27599999 0.22400001 150 16 0
3.1960001 0.28400001 0.23100001 150 16 0
3.1930001 0.29100001 0.23800001 150 16 0
3.1919999 0.29899999 0.244 150 16 0
3.191 0.30700001 0.25099999 150 16 0
3.191 0.31400001 0.25799999 150 16 0
3.194 0.32300001 0.26499999 150 16 0
3.194 0.33000001 0.27200001 150 16 0
3.187 0.33700001 0.278 150 16 0
3.1849999 0.345 0.285 150 16 0
3.1849999 0.35299999 0.292 150 16 0
3.1830001 0.36000001 0.29899999 150 16 0
3.1819999 0.368 0.30599999 150 16 0
3.1800001 0.375 0.31299999 150 16 0
3.1849999 0.384 0.31999999 150 16 0
3.184 0.391 0.32699999 150 16 0
3.1819999 0.39899999 0.33399999 150 16 0
3.1800001 0.40599999 0.34099999 150 16 0
3.1789999 0.414 0.34799999 150 16 0
3.177 0.421 0.35499999 150 16 0
3.1819999 0.43000001 0.36300001 150 16 0
3.1800001 0.43700001 0.37 150 16 0
3.1700001 0.44299999 0.37599999 150 16 0
3.178 0.45199999 0.384 150 16 0
3.174 0.45899999 0.38999999 150 16 0
3.177 0.46700001 0.398 150 16 0
3.175 0.47400001 0.405 150 16 0
3.175 0.48199999 0.412 150 16 0
3.1730001 0.48899999 0.419 150 16 0
3.1719999 0.49599999 0.42699999 150 16 0
3.165 0.50300002 0.433 150 16 0
3.1500001 0.50800002 0.43799999 55 16 0
3.135 0.51300001 0.44299999 48 16 0
3.1240001 0.51899999 0.449 45 16 0
3.109 0.523 0.454 48 16 0
3.098 0.52899998 0.46000001 46 16 0
3.089 0.53500003 0.46599999 45 16 0
3.072 0.53899997 0.47099999 45 16 0
3.0639999 0.54500002 0.477 45 16 0
3.049 0.54900002 0.48199999 45 16 0
3.0280001 0.55199999 0.48500001 44 16 0
3.0220001 0.55800003 0.49200001 46 16 0
3.0120001 0.56400001 0.49700001 44 16 0
3 0.56800002 0.50300002 46 16 0
2.9860001 0.57300001 0.50700003 43 16 0
2.974 0.57700002 0.51200002 46 16 0
2.9649999 0.58200002 0.51800001 47 16 0
2.951 0.58600003 0.523 46 16 0
2.937 0.58999997 0.528 46 16 0
2.927 0.59500003 0.53299999 49 16 0
2.918 0.60000002 0.53799999 46 16 0
2.9030001 0.60299999 0.54299998 50 16 0
2.885 0.60600001 0.54699999 51 16 0
2.878 0.611 0.55199999 49 16 0
2.865 0.61500001 0.55699998 53 16 0
2.8559999 0.62 0.56199998 50 16 0
2.8429999 0.62300003 0.56699997 45 16 0
2.836 0.62800002 0.57300001 53 16 0
2.8239999 0.63200003 0.57700002 60 16 0
2.812 0.63599998 0.58200002 59 16 0
2.802 0.63999999 0.58700001 61 16 0
2.79 0.64300001 0.59200001 64 16 0
2.777 0.64700001 0.59600002 56 16 0
2.766 0.64999998 0.60100001 59 16 0
2.757 0.65399998 0.60600001 82 16 0
2.7460001 0.65799999 0.61000001 78 16 0
2.7360001 0.66100001 0.61500001 85 16 0
2.7249999 0.66399997 0.62 84 16 0
2.7160001 0.66799998 0.625 85 16 0
2.701 0.671 0.62800002 80 16 0
2.6930001 0.67400002 0.63300002 89 16 0
2.6849999 0.67799997 0.63800001 92 16 0
2.6730001 0.68099999 0.64300001 93 16 0
2.6619999 0.68400002 0.64700001 86 16 0
2.654 0.68800002 0.65200001 90 16 0
2.6440001 0.69099998 0.65600002 96 16 0
2.632 0.69300002 0.66000003 94 16 0
2.6229999 0.69700003 0.66500002 92 16 0
2.6140001 0.69999999 0.67000002 96 16 0
2.6029999 0.70200002 0.67400002 94 16 0
2.589 0.704 0.67699999 101 16 0
2.582 0.70700002 0.68199998 102 16 0
2.572 0.70999998 0.68699998 99 16 0
2.566 0.71399999 0.69199997 95 16 0
2.5580001 0.71700001 0.69700003 104 16 0
2.549 0.72000003 0.70099998 110 16 0
2.5380001 0.722 0.70499998 92 16 0
2.526 0.72299999 0.70899999 87 16 0
2.52 0.727 0.71399999 93 16 0
2.5090001 0.72899997 0.71799999 106 16 0
2.5 0.73100001 0.722 110 16 0
2.494 0.73400003 0.727 113 16 0
2.4790001 0.73500001 0.72899997 102 16 0
2.4679999 0.73699999 0.73299998 100 16 0
2.4549999 0.73799998 0.736 100 16 0
2.447 0.74000001 0.74000001 109 16 0
2.441 0.74299997 0.745 113 16 0
2.4360001 0.74599999 0.75099999 101 16 0
2.4230001 0.74699998 0.75300002 114 16 0
2.414 0.74900001 0.75700003 105 16 0
2.4030001 0.75 0.76099998 116 16 0
2.395 0.75199997 0.76499999 113 16 0
2.3870001 0.75400001 0.76899999 117 16 0
2.381 0.75700003 0.77399999 107 16 0
2.372 0.75800002 0.778 120 16 0
2.365 0.75999999 0.78200001 120 16 0
2.3510001 0.75999999 0.78399998 124 16 0
2.3429999 0.76200002 0.78799999 113 16 0
2.3280001 0.76099998 0.79000002 112 16 0
2.3199999 0.76300001 0.79400003 145 16 0
2.3169999 0.76599997 0.79900002 144 16 0
2.3039999 0.76599997 0.801 141 16 0
2.296 0.76700002 0.80500001 133 16 0
2.2909999 0.76899999 0.81 146 16 0
2.279 0.76899999 0.81199998 148 16 0
2.2739999 0.77100003 0.81699997 139 16 0
2.2679999 0.773 0.82099998 147 16 0
2.2590001 0.77399999 0.824 137 16 0
2.2509999 0.77499998 0.82800001 140 16 0
2.237 0.77399999 0.829 135 16 0
2.234 0.77600002 0.83499998 150 16 0
2.2260001 0.77700001 0.838 148 16 0
2.22 0.77899998 0.84200001 144 16 0
2.214 0.77999997 0.84600002 150 16 0
2.2030001 0.77999997 0.84899998 144 16 0
2.1989999 0.78200001 0.85299999 146 16 0
2.1889999 0.78100002 0.85500002 137 16 0
2.1860001 0.78299999 0.861 139 16 0
2.174 0.78200001 0.86199999 139 16 0
2.168 0.78299999 0.866 125 16 0
2.1559999 0.78200001 0.86799997 138 16 0
2.1470001 0.78200001 0.87 133 16 0
2.1429999 0.78299999 0.875 146 16 0
2.131 0.78200001 0.87599999 130 16 0
2.1259999 0.78299999 0.88 134 16 0
2.119 0.78299999 0.88300002 130 16 0
2.1129999 0.78399998 0.88700002 135 16 0
2.1059999 0.78399998 0.88999999 133 16 0
2.1010001 0.78500003 0.89399999 124 16 0
2.089 0.78299999 0.89499998 118 16 0
2.0840001 0.78399998 0.89899999 122 16 0
2.075 0.78299999 0.89999998 126 16 0
2.069 0.78299999 0.90399998 129 16 0
2.0639999 0.78399998 0.90799999 133 16 0
2.0550001 0.78200001 0.90899998 109 16 0
2.052 0.78399998 0.91399997 127 16 0
2.0420001 0.78200001 0.91500002 130 16 0
2.039 0.78299999 0.92000002 128 16 0
2.0309999 0.78200001 0.921 135 16 0
2.0250001 0.78200001 0.92400002 132 16 0
2.0179999 0.78100002 0.92699999 128 16 0
2.0139999 0.78100002 0.93099999 138 16 0
2.003 0.77899998 0.93099999 127 16 0
1.997 0.77899998 0.93400002 127 16 0
1.99 0.77700001 0.93599999 126 16 0
1.987 0.778 0.94 127 16 0
1.982 0.77700001 0.94300002 130 16 0
1.974 0.77600002 0.94400001 130 16 0
1.97 0.77600002 0.94800001 139 16 0
1.966 0.77600002 0.95099998 130 16 0
1.9579999 0.77399999 0.95200002 126 16 0
1.952 0.773 0.954 131 16 0
1.948 0.773 0.958 131 16 0
1.9400001 0.77100003 0.95899999 123 16 0
1.936 0.76999998 0.96200001 122 16 0
1.934 0.76999998 0.96600002 124 16 0
1.928 0.76899999 0.96799999 141 16 0
1.925 0.76899999 0.97100002 140 16 0
1.918 0.76700002 0.972 129 16 0
1.9119999 0.76499999 0.97399998 136 16 0
1.908 0.764 0.97600001 138 16 0
1.904 0.76300001 0.97899997 142 16 0
1.897 0.76099998 0.98000002 141 16 0
1.895 0.76099998 0.98299998 136 16 0
1.89 0.759 0.98500001 128 16 0
1.885 0.75800002 0.98799998 145 16 0
1.8789999 0.75599998 0.98900002 137 16 0
1.878 0.75599998 0.99199998 148 16 0
1.87 0.75300002 0.99299997 141 16 0
1.869 0.75199997 0.99599999 150 16 0
1.862 0.75 0.99599999 142 16 0
1.853 0.74599999 0.99599999 150 16 0
1.847 0.74400002 0.99599999 142 16 0
1.844 0.74199998 0.99800003 143 16 0
1.842 0.741 1.002 134 16 0
1.84 0.74000001 1.0039999 141 16 0
1.835 0.73799998 1.005 138 16 0
1.8329999 0.73699999 1.008 134 16 0
1.83 0.736 1.01 142 16 0
1.824 0.73299998 1.01 141 16 0
1.823 0.73199999 1.013 143 16 0
1.822 0.73100001 1.016 150 16 0
1.8150001 0.727 1.015 146 16 0
1.812 0.72500002 1.016 142 16 0
1.809 0.72299999 1.018 141 16 0
1.804 0.72000003 1.018 146 16 0
1.803 0.71899998 1.021 150 16 0
1.8 0.71700001 1.022 150 16 0
1.796 0.71499997 1.023 145 16 0
1.7920001 0.71200001 1.023 150 16 0
1.79 0.70999998 1.025 141 16 0
1.791 0.70899999 1.028 132 16 0
1.785 0.70599997 1.027 134 16 0
1.785 0.704 1.029 132 16 0
1.7819999 0.70200002 1.03 141 16 0
1.78 0.699 1.0319999 133 16 0
1.78 0.69800001 1.033 130 16 0
1.773 0.69300002 1.0319999 143 19 0
1.771 0.69099998 1.033 133 16 0
1.77 0.68900001 1.034 150 16 0
1.773 0.68800002 1.038 144 16 0
1.77 0.68599999 1.038 138 16 0
1.7690001 0.68300003 1.039 139 16 0
1.765 0.68000001 1.039 145 16 0
1.765 0.67799997 1.04 143 16 0
1.765 0.676 1.0420001 138 16 0
1.765 0.67400002 1.043 141 16 0
1.7589999 0.66900003 1.041 143 19 0
1.762 0.66900003 1.044 150 16 0
1.758 0.66500002 1.043 146 16 0
1.7539999 0.66100001 1.041 141 16 0
1.752 0.65799999 1.041 147 16 0
1.7539999 0.65700001 1.044 143 16 0
1.752 0.653 1.043 141 16 0
1.752 0.65100002 1.043 145 16 0
1.749 0.648 1.043 148 16 0
1.748 0.64499998 1.043 150 16 0
1.749 0.64200002 1.044 150 16 0
1.749 0.63999999 1.044 150 16 0
1.749 0.63700002 1.044 150 16 0
1.75 0.63499999 1.046 150 16 0
1.75 0.63200003 1.046 150 16 0
1.751 0.62900001 1.046 150 16 0
1.752 0.62699997 1.0470001 150 16 0
1.753 0.62400001 1.0470001 150 16 0
1.747 0.61900002 1.044 150 19 0
1.749 0.61699998 1.045 150 16 0
1.749 0.61400002 1.044 150 16 0
1.751 0.61199999 1.045 150 16 0
1.752 0.60900003 1.045 150 16 0
1.75 0.60500002 1.043 150 16 0
1.7539999 0.60399997 1.045 150 16 0
1.755 0.60100001 1.045 150 16 0
1.756 0.59799999 1.045 150 16 0
1.756 0.59500003 1.044 150 16 0
1.758 0.59200001 1.044 150 16 0
1.757 0.58899999 1.043 150 16 0
1.7589999 0.58600003 1.043 150 16 0
1.762 0.58399999 1.043 150 16 0
1.763 0.58099997 1.043 150 16 0
1.762 0.57700002 1.041 150 16 0
1.7640001 0.574 1.04 150 16 0
1.766 0.57099998 1.04 150 16 0
1.767 0.56800002 1.039 150 16 0
1.77 0.56599998 1.039 150 16 0
1.772 0.56199998 1.038 150 16 0
1.768 0.55800003 1.034 150 16 0
1.775 0.55599999 1.036 150 16 0
1.777 0.55299997 1.035 150 16 0
1.778 0.55000001 1.034 150 16 0
1.78 0.54699999 1.033 150 16 0
1.7819999 0.54400003 1.0319999 150 16 0
1.783 0.54100001 1.03 150 16 0
1.788 0.53799999 1.031 150 16 0
1.7869999 0.53399998 1.028 150 16 0
1.79 0.53200001 1.027 150 16 0
1.793 0.52899998 1.026 150 16 0
1.795 0.52499998 1.024 150 16 0
1.796 0.52200001 1.022 150 16 0
1.8049999 0.52100003 1.025 150 16 0
1.806 0.51700002 1.023 150 16 0
1.809 0.514 1.021 150 16 0
1.811 0.51099998 1.0190001 150 16 0
1.818 0.509 1.02 150 16 0
1.8200001 0.50599998 1.018 150 16 0
1.824 0.50300002 1.017 150 16 0
1.826 0.5 1.015 150 16 0
1.83 0.49700001 1.0140001 150 16 0
1.835 0.49399999 1.013 150 16 0
1.835 0.491 1.01 150 16 0
1.837 0.48699999 1.008 150 16 0
1.842 0.484 1.007 150 16 0
1.844 0.48100001 1.0039999 150 16 0
1.851 0.479 1.0039999 150 16 0
1.855 0.47600001 1.002 150 16 0
1.859 0.47299999 1.001 150 16 0
1.862 0.47 0.99800003 150 16 0
1.867 0.46700001 0.99699998 150 16 0
1.872 0.465 0.99599999 150 16 0
1.876 0.46200001 0.99400002 150 16 0
1.88 0.45899999 0.99199998 150 16 0
1.8839999 0.456 0.99000001 150 16 0
1.886 0.45199999 0.98699999 150 16 0
1.891 0.449 0.98500001 150 16 0
1.899 0.447 0.98500001 150 16 0
1.901 0.44400001 0.98199999 150 16 0
1.9069999 0.44100001 0.98000002 150 16 0
1.913 0.43900001 0.97899997 150 16 0
1.915 0.435 0.97500002 150 16 0
1.92 0.43200001 0.97299999 150 16 0
1.924 0.42899999 0.97100002 150 16 0
1.928 0.426 0.96799999 150 16 0
1.933 0.42300001 0.96600002 150 16 0
1.939 0.421 0.96399999 150 16 0
1.942 0.417 0.95999998 150 16 0
1.95 0.41499999 0.95899999 150 16 0
1.954 0.412 0.95700002 150 16 0
1.957 0.40900001 0.95300001 150 16 0
1.97 0.40700001 0.954 150 16 0
1.978 0.405 0.95300001 150 16 0
1.978 0.40099999 0.94800001 150 16 0
1.985 0.39899999 0.94599998 150 16 0
1.992 0.396 0.94400001 150 16 0
2.0020001 0.39399999 0.94400001 150 16 0
2.0050001 0.391 0.94 150 16 0
2.0109999 0.38800001 0.93699998 150 16 0
2.0139999 0.38499999 0.93300003 145 16 0
2.0239999 0.38299999 0.93199998 143 16 0
2.0309999 0.38 0.93000001 150 16 0
2.0380001 0.37799999 0.92799997 150 16 0
2.043 0.375 0.92400002 146 16 0
2.05 0.37200001 0.92199999 150 16 0
2.0539999 0.36899999 0.91799998 150 16 0
2.0599999 0.366 0.91500002 150 16 0
2.069 0.36399999 0.91299999 150 16 0
2.073 0.361 0.90899998 140 16 0
2.079 0.35800001 0.90499997 142 16 0
2.0899999 0.35600001 0.90399998 150 16 0
2.0929999 0.35299999 0.89999998 150 16 0
2.1040001 0.35100001 0.898 143 16 0
2.1070001 0.34799999 0.89399999 139 16 0
2.119 0.34599999 0.89300001 150 16 0
2.1229999 0.34200001 0.88800001 140 16 0
2.1340001 0.34 0.88599998 136 16 0
2.1389999 0.33700001 0.88200003 142 16 0
2.1440001 0.33500001 0.87800002 134 16 0
2.1530001 0.33199999 0.87599999 137 16 0
2.161 0.33000001 0.87199998 139 16 0
2.1719999 0.32800001 0.87099999 127 16 0
2.178 0.32499999 0.86699998 117 16 0
2.188 0.322 0.86400002 123 16 0
2.1900001 0.31900001 0.85799998 109 16 0
2.2030001 0.317 0.85699999 117 16 0
2.21 0.315 0.85399997 113 16 0
2.2190001 0.31200001 0.85000002 102 16 0
2.2249999 0.30899999 0.84600002 117 16 0
2.2379999 0.30700001 0.84399998 120 16 0
2.2449999 0.30500001 0.83999997 115 16 0
2.2520001 0.30199999 0.83600003 115 16 0
2.2609999 0.30000001 0.833 110 16 0
2.2709999 0.29699999 0.829 115 16 0
2.279 0.29499999 0.82499999 119 16 0
2.289 0.292 0.82200003 109 16 0
2.3 0.28999999 0.81900001 109 16 0
2.3080001 0.287 0.815 111 16 0
2.3169999 0.285 0.81099999 102 16 0
2.325 0.28200001 0.80699998 105 16 0
2.336 0.28 0.80400002 104 16 0
2.3440001 0.27700001 0.79900002 107 16 0
2.3510001 0.27500001 0.79400003 113 16 0
2.362 0.27200001 0.79100001 111 16 0
2.3710001 0.27000001 0.787 107 16 0
2.3829999 0.26800001 0.78299999 107 16 0
