# .PCD v0.7 - Point Cloud Data file format
VERSION 0.7
FIELDS x y z intensity tag line
SIZE 4 4 4 4 1 1
TYPE F F F F U U
COUNT 1 1 1 1 1 1
WIDTH 1369
HEIGHT 1
VIEWPOINT 0 0 0 1 0 0 0
POINTS 1369
DATA ascii
1.653 -0.108 1.0930001 150 16 0
1.6569999 -0.11 1.092 150 16 0
1.661 -0.112 1.091 150 16 0
1.6619999 -0.114 1.089 150 16 0
1.665 -0.116 1.087 150 16 0
1.666 -0.118 1.084 150 16 0
1.67 -0.12 1.0829999 150 16 0
1.674 -0.122 1.081 150 16 0
1.681 -0.124 1.082 150 16 0
1.683 -0.125 1.079 150 16 0
1.689 -0.12800001 1.079 150 16 0
1.692 -0.12899999 1.077 150 16 0
1.697 -0.131 1.076 150 16 0
1.698 -0.133 1.073 150 16 0
1.7029999 -0.13500001 1.071 150 16 0
1.709 -0.13600001 1.071 150 16 0
1.711 -0.138 1.068 150 16 0
1.715 -0.14 1.066 150 16 0
1.723 -0.142 1.066 150 16 0
1.722 -0.14300001 1.061 150 16 0
1.7309999 -0.145 1.062 150 16 0
1.734 -0.147 1.059 150 16 0
1.739 -0.148 1.057 150 16 0
1.742 -0.15000001 1.0549999 150 16 0
1.7460001 -0.15099999 1.052 150 16 0
1.751 -0.153 1.05 150 16 0
1.753 -0.154 1.046 150 16 0
1.755 -0.156 1.043 150 16 0
1.761 -0.15700001 1.041 150 16 0
1.776 -0.16 1.045 150 19 0
1.783 -0.161 1.044 150 16 0
1.785 -0.163 1.04 150 16 0
1.793 -0.164 1.039 150 16 0
1.796 -0.16599999 1.035 150 16 0
1.8 -0.167 1.0319999 150 16 0
1.809 -0.169 1.0319999 150 16 0
1.814 -0.17 1.029 150 16 0
1.824 -0.17200001 1.029 150 16 0
1.826 -0.17299999 1.025 150 16 0
1.8279999 -0.17399999 1.021 150 16 0
1.8380001 -0.175 1.02 150 16 0
1.842 -0.177 1.017 150 16 0
1.85 -0.178 1.015 150 16 0
1.855 -0.17900001 1.012 150 16 0
1.859 -0.18000001 1.008 150 16 0
1.867 -0.182 1.007 150 16 0
1.873 -0.183 1.0039999 150 16 0
1.887 -0.185 1.006 150 16 0
1.891 -0.186 1.002 150 16 0
1.895 -0.18700001 0.99800003 150 16 0
1.905 -0.18799999 0.99699998 150 16 0
1.91 -0.189 0.99299997 150 16 0
1.918 -0.19 0.991 150 16 0
1.921 -0.191 0.98699999 146 16 0
1.926 -0.192 0.98299998 150 16 0
1.938 -0.193 0.98199999 150 16 0
1.942 -0.19400001 0.97799999 150 16 0
1.949 -0.19499999 0.97500002 150 16 0
1.957 -0.19599999 0.97299999 150 16 0
1.966 -0.197 0.97100002 150 16 0
1.97 -0.198 0.96600002 150 16 0
1.982 -0.199 0.96499997 150 16 0
1.984 -0.2 0.95999998 150 16 0
1.99 -0.2 0.95599997 143 16 0
2.0039999 -0.20200001 0.95599997 150 16 0
2.0120001 -0.20299999 0.95300001 148 16 0
2.0239999 -0.204 0.95200002 150 16 0
2.0280001 -0.204 0.94700003 146 16 0
2.0380001 -0.205 0.94499999 150 16 0
2.0409999 -0.205 0.93900001 150 16 0
2.0510001 -0.206 0.93699998 143 16 0
2.0569999 -0.207 0.93300003 150 16 0
2.066 -0.208 0.93000001 138 16 0
2.0710001 -0.208 0.92500001 144 16 0
2.0829999 -0.20900001 0.92400002 136 16 0
2.089 -0.20900001 0.91900003 143 16 0
2.098 -0.20999999 0.91600001 125 16 0
2.1040001 -0.20999999 0.91100001 144 16 0
2.115 -0.211 0.90899998 136 16 0
2.1240001 -0.211 0.90600002 139 16 0
2.1300001 -0.212 0.90100002 144 16 0
2.1400001 -0.212 0.898 141 16 0
2.148 -0.212 0.89399999 132 16 0
2.151 -0.212 0.88800001 129 16 0
2.168 -0.213 0.88800001 138 16 0
2.171 -0.213 0.88099998 132 16 0
2.181 -0.214 0.87800002 135 16 0
2.194 -0.214 0.87599999 128 16 0
2.1989999 -0.214 0.87 142 16 0
2.2119999 -0.215 0.86799997 133 16 0
2.2190001 -0.215 0.86299998 130 16 0
2.2260001 -0.215 0.85799998 114 16 0
2.2349999 -0.215 0.85399997 113 16 0
2.2479999 -0.215 0.852 142 16 0
2.26 -0.21600001 0.84799999 131 16 0
2.2620001 -0.215 0.84200001 86 16 0
2.276 -0.21600001 0.83899999 94 16 0
2.28 -0.215 0.833 86 16 0
2.293 -0.215 0.82999998 84 16 0
2.3039999 -0.21600001 0.82599998 86 16 0
2.3150001 -0.21600001 0.82200003 82 16 0
2.3280001 -0.21600001 0.81900001 85 16 0
2.3380001 -0.21600001 0.81400001 88 16 0
2.346 -0.215 0.80900002 91 16 0
2.352 -0.215 0.80299997 77 16 0
2.365 -0.215 0.80000001 89 16 0
2.3729999 -0.215 0.79400003 79 16 0
2.3840001 -0.214 0.79000002 83 16 0
2.3959999 -0.214 0.78600001 65 16 0
2.4059999 -0.214 0.78100002 53 16 0
2.411 -0.213 0.77499998 63 16 0
2.4230001 -0.213 0.77100003 56 16 0
2.4349999 -0.213 0.76599997 56 16 0
2.444 -0.212 0.76099998 47 16 0
2.46 -0.212 0.75800002 62 16 0
2.4630001 -0.211 0.75 40 16 0
2.483 -0.211 0.74800003 54 16 0
2.4949999 -0.211 0.74400002 59 16 0
2.5 -0.20999999 0.73699999 60 16 0
2.513 -0.20999999 0.73199999 49 16 0
2.523 -0.20900001 0.727 46 16 0
2.5339999 -0.208 0.722 47 16 0
2.5439999 -0.207 0.71600002 30 16 0
2.552 -0.206 0.70999998 30 16 0
2.5650001 -0.206 0.70499998 30 16 0
2.576 -0.205 0.699 35 16 0
2.5869999 -0.204 0.69400001 50 16 0
2.6029999 -0.204 0.68900001 51 16 0
2.6199999 -0.20299999 0.685 48 16 0
2.628 -0.20200001 0.67900002 47 16 0
2.638 -0.20100001 0.67299998 41 16 0
2.651 -0.2 0.667 40 16 0
2.6670001 -0.2 0.66299999 42 16 0
2.6760001 -0.199 0.65600002 35 16 0
2.6930001 -0.198 0.65100002 35 16 0
2.7030001 -0.197 0.64499998 36 16 0
2.7130001 -0.19499999 0.639 35 16 0
2.73 -0.19499999 0.634 35 16 0
2.7409999 -0.193 0.62699997 36 16 0
2.7539999 -0.192 0.62099999 34 16 0
2.7639999 -0.191 0.61500001 35 16 0
2.7820001 -0.19 0.60900003 31 16 0
2.793 -0.189 0.60299999 28 16 0
2.812 -0.18799999 0.59799999 30 16 0
2.825 -0.186 0.59200001 29 16 0
2.839 -0.185 0.58499998 30 16 0
2.8499999 -0.183 0.57800001 29 16 0
2.8640001 -0.182 0.57200003 29 16 0
2.878 -0.18099999 0.565 28 16 0
2.895 -0.17900001 0.56 29 16 0
2.9100001 -0.178 0.55299997 30 16 0
2.924 -0.176 0.546 29 16 0
2.9330001 -0.17399999 0.53899997 28 16 0
2.9460001 -0.17299999 0.53200001 29 16 0
2.96 -0.171 0.52499998 29 16 0
2.9809999 -0.17 0.51899999 31 16 0
2.9949999 -0.168 0.51200002 29 16 0
3.013 -0.16599999 0.505 29 16 0
3.026 -0.164 0.498 29 16 0
3.0439999 -0.163 0.491 30 16 0
3.062 -0.161 0.48500001 29 16 0
3.075 -0.15899999 0.477 29 16 0
3.099 -0.15700001 0.47099999 30 16 0
3.1129999 -0.155 0.463 29 16 0
3.128 -0.153 0.45500001 30 16 0
3.1500001 -0.15099999 0.449 30 16 0
3.1619999 -0.149 0.44 30 16 0
3.1860001 -0.147 0.43399999 32 16 0
3.201 -0.145 0.426 31 16 0
3.2219999 -0.14300001 0.41800001 32 16 0
3.237 -0.14 0.41 32 16 0
3.257 -0.138 0.40200001 37 16 0
3.27 -0.13600001 0.39399999 40 16 0
3.2839999 -0.133 0.38499999 33 16 0
3.2869999 -0.13 0.375 28 16 0
3.29 -0.127 0.36500001 26 16 0
3.2939999 -0.124 0.35600001 25 16 0
3.3 -0.121 0.34599999 26 16 0
3.299 -0.117 0.336 25 16 0
3.303 -0.114 0.32600001 26 16 0
3.3050001 -0.111 0.31600001 23 16 0
3.3110001 -0.108 0.30599999 24 16 0
3.3080001 -0.105 0.29499999 23 16 0
3.3139999 -0.101 0.28600001 23 16 0
3.3210001 -0.097999997 0.27599999 23 16 0
3.3210001 -0.094999999 0.266 23 16 0
3.326 -0.092 0.25600001 24 16 0
3.323 -0.088 0.245 23 16 0
3.3310001 -0.085000001 0.236 23 16 0
3.3399999 -0.082000002 0.226 24 16 0
3.3410001 -0.078000002 0.21600001 24 16 0
3.3410001 -0.075000003 0.206 25 16 0
3.3469999 -0.071000002 0.19599999 32 16 0
3.352 -0.068000004 0.186 46 16 0
3.3440001 -0.064000003 0.175 83 16 0
3.3410001 -0.059999999 0.16500001 108 16 0
3.3310001 -0.056000002 0.154 109 16 0
3.3280001 -0.052999999 0.14399999 89 16 0
3.3199999 -0.048999999 0.133 82 16 0
3.312 -0.045000002 0.123 81 16 0
3.3 -0.041999999 0.112 73 16 0
3.2980001 -0.037999999 0.102 64 16 0
3.2909999 -0.034000002 0.092 91 16 0
3.286 -0.029999999 0.082000002 103 16 0
3.277 -0.027000001 0.071999997 93 16 0
3.2720001 -0.023 0.061999999 56 16 0
3.267 -0.018999999 0.050999999 39 16 0
3.267 -0.015 0.041999999 26 16 0
3.2590001 -0.012 0.032000002 18 16 0
3.276 -0.0080000004 0.022 15 16 0
3.2780001 -0.0040000002 0.012 15 16 0
3.279 0 0.0020000001 15 16 0
3.2809999 0.0020000001 -0.0070000002 15 16 0
3.2869999 0.0060000001 -0.017000001 16 16 0
3.2909999 0.0099999998 -0.027000001 16 16 0
3.299 0.014 -0.037 16 16 0
3.3050001 0.017999999 -0.046999998 19 16 0
3.306 0.022 -0.057 27 16 0
3.3010001 0.026000001 -0.067000002 38 16 0
3.2920001 0.029999999 -0.075999998 48 16 0
3.286 0.033 -0.086000003 48 16 0
3.277 0.037 -0.096000001 48 16 0
3.2679999 0.041000001 -0.105 48 16 0
3.2620001 0.045000002 -0.115 42 16 0
3.2609999 0.048999999 -0.124 35 16 0
3.2550001 0.052999999 -0.134 33 16 0
3.2490001 0.057 -0.14399999 37 16 0
3.244 0.061000001 -0.153 45 16 0
3.2360001 0.064999998 -0.162 51 16 0
3.234 0.068999998 -0.17200001 49 16 0
3.2260001 0.072999999 -0.18099999 49 16 0
3.2149999 0.075999998 -0.19 47 16 0
3.214 0.079999998 -0.2 61 16 0
3.207 0.083999999 -0.20900001 53 16 0
3.201 0.088 -0.21799999 60 16 0
3.194 0.092 -0.227 61 16 0
3.1830001 0.096000001 -0.236 59 16 0
3.1819999 0.1 -0.245 59 16 0
3.168 0.104 -0.25400001 52 16 0
3.1689999 0.108 -0.26300001 56 16 0
3.1619999 0.112 -0.27200001 57 16 0
3.1570001 0.116 -0.28099999 62 16 0
3.152 0.12 -0.28999999 65 16 0
3.1459999 0.124 -0.29899999 60 16 0
3.138 0.12800001 -0.30700001 59 16 0
3.1300001 0.132 -0.31600001 55 16 0
3.122 0.13600001 -0.324 59 16 0
3.1140001 0.139 -0.333 65 16 0
3.1099999 0.14399999 -0.34200001 61 16 0
3.1059999 0.148 -0.34999999 58 16 0
3.102 0.152 -0.359 61 16 0
3.0910001 0.155 -0.36700001 89 16 0
3.0880001 0.16 -0.37599999 89 16 0
3.0829999 0.164 -0.384 79 16 0
3.076 0.167 -0.39199999 85 16 0
3.072 0.17200001 -0.40099999 87 16 0
3.0610001 0.175 -0.40900001 86 16 0
3.056 0.17900001 -0.417 88 16 0
3.0510001 0.183 -0.42500001 83 16 0
3.0450001 0.18700001 -0.433 89 16 0
3.043 0.192 -0.442 88 16 0
3.0409999 0.19599999 -0.45100001 85 16 0
3.03 0.2 -0.458 82 16 0
3.0209999 0.20299999 -0.46599999 76 16 0
3.0120001 0.207 -0.47299999 80 16 0
3.01 0.211 -0.48199999 74 16 0
3.006 0.21600001 -0.49000001 72 16 0
3.003 0.22 -0.498 85 16 0
2.9960001 0.22400001 -0.50599998 76 16 0
2.9909999 0.228 -0.514 81 16 0
2.984 0.23199999 -0.52200001 98 16 0
2.974 0.236 -0.528 86 16 0
2.9719999 0.23999999 -0.537 90 16 0
2.9649999 0.244 -0.54400003 92 16 0
2.9590001 0.248 -0.55199999 85 16 0
2.954 0.252 -0.56 90 16 0
2.948 0.25600001 -0.56699997 84 16 0
2.9419999 0.25999999 -0.574 83 16 0
2.9389999 0.26499999 -0.58200002 109 16 0
2.9330001 0.26899999 -0.58999997 126 16 0
2.9260001 0.273 -0.597 119 16 0
2.924 0.27700001 -0.60500002 129 16 0
2.9159999 0.28099999 -0.61199999 135 16 0
2.9100001 0.285 -0.61900002 127 16 0
2.9000001 0.289 -0.62599999 118 16 0
2.8970001 0.29300001 -0.634 127 16 0
2.8840001 0.29699999 -0.639 115 16 0
2.882 0.301 -0.64700001 122 16 0
2.878 0.30500001 -0.65499997 136 16 0
2.8759999 0.31 -0.662 125 16 0
2.8659999 0.31400001 -0.66900003 131 16 0
2.862 0.31799999 -0.676 134 16 0
2.8599999 0.32300001 -0.68400002 133 16 0
2.858 0.32699999 -0.69199997 137 16 0
2.8499999 0.331 -0.69800001 117 16 0
2.8369999 0.33399999 -0.70300001 119 16 0
2.839 0.33899999 -0.71200001 134 16 0
2.8299999 0.34299999 -0.71799999 134 16 0
2.8239999 0.347 -0.72399998 133 16 0
2.819 0.352 -0.73100001 126 16 0
2.813 0.35600001 -0.73799998 129 16 0
2.8080001 0.36000001 -0.74400002 121 16 0
2.8050001 0.36500001 -0.75199997 123 16 0
2.802 0.36899999 -0.759 146 16 0
2.7969999 0.37400001 -0.76599997 135 16 0
2.7869999 0.377 -0.77100003 125 16 0
2.7850001 0.382 -0.77899998 141 16 0
2.78 0.38600001 -0.78500003 145 16 0
2.7739999 0.38999999 -0.79100001 150 16 0
2.7690001 0.39500001 -0.79799998 150 16 0
2.7639999 0.39899999 -0.80400002 150 16 0
2.7609999 0.40400001 -0.81099999 150 16 0
2.7479999 0.40700001 -0.815 146 16 0
2.7449999 0.412 -0.82200003 146 16 0
2.743 0.41600001 -0.829 145 16 0
2.7379999 0.421 -0.83499998 140 16 0
2.7279999 0.42399999 -0.83999997 150 16 0
2.7249999 0.42899999 -0.847 146 16 0
2.7219999 0.43399999 -0.85399997 150 16 0
2.7190001 0.43799999 -0.86000001 150 16 0
2.7160001 0.44299999 -0.86699998 146 16 0
2.7060001 0.447 -0.87099999 144 16 0
2.7 0.45100001 -0.87699997 131 16 0
2.697 0.456 -0.884 150 16 0
2.6919999 0.46000001 -0.88999999 150 16 0
2.6830001 0.46399999 -0.89399999 150 16 0
2.6800001 0.46900001 -0.90100002 150 16 0
2.675 0.47299999 -0.90600002 150 16 0
2.6700001 0.47799999 -0.912 150 16 0
2.665 0.48199999 -0.917 150 16 0
2.6619999 0.48699999 -0.92400002 150 16 0
2.6589999 0.49200001 -0.93000001 150 16 0
2.6619999 0.498 -0.93800002 22 16 0
2.654 0.50199997 -0.94300002 3 16 0
0 0 0 0 16 0
0 0 0 0 16 0
0 0 0 0 16 0
0 0 0 0 16 0
0 0 0 0 16 0
0 0 0 0 16 0
0 0 0 0 16 0
0 0 0 0 16 0
0 0 0 0 16 0
0 0 0 0 16 0
0 0 0 0 16 0
2.6589999 0.56900001 -1.03 0 16 0
2.5940001 0.56099999 -1.012 3 17 0
2.5910001 0.56599998 -1.017 23 16 0
2.5810001 0.56900001 -1.02 138 16 0
2.5769999 0.574 -1.025 150 16 0
2.5739999 0.579 -1.031 150 16 0
2.562 0.58200002 -1.033 150 16 0
2.559 0.58700001 -1.038 150 16 0
2.5510001 0.59100002 -1.041 150 16 0
2.552 0.597 -1.048 150 16 0
2.5480001 0.60100001 -1.053 150 16 0
2.54 0.60500002 -1.056 150 16 0
2.536 0.61000001 -1.061 150 16 0
2.5309999 0.61400002 -1.0650001 150 16 0
2.53 0.62 -1.071 150 16 0
2.523 0.62400001 -1.074 150 16 0
2.52 0.62900001 -1.079 150 16 0
2.5139999 0.63300002 -1.082 150 16 0
2.513 0.639 -1.0880001 150 16 0
2.51 0.64399999 -1.0930001 150 16 0
2.507 0.64899999 -1.097 150 16 0
2.5009999 0.653 -1.101 150 16 0
2.4920001 0.65600002 -1.103 150 16 0
2.4890001 0.66100001 -1.107 150 16 0
2.484 0.66600001 -1.1109999 150 16 0
2.4809999 0.671 -1.115 150 16 0
2.4779999 0.676 -1.119 150 16 0
2.4660001 0.67799997 -1.12 150 16 0
2.4619999 0.68300003 -1.123 150 16 0
2.4590001 0.68800002 -1.127 150 16 0
2.457 0.69300002 -1.132 150 16 0
2.4489999 0.69700003 -1.133 150 16 0
2.45 0.70300001 -1.1390001 150 16 0
2.441 0.70599997 -1.14 150 16 0
2.438 0.71100003 -1.1440001 150 16 0
2.4349999 0.71600002 -1.148 150 16 0
2.4360001 0.722 -1.153 150 16 0
2.4289999 0.72500002 -1.155 150 16 0
2.4230001 0.72899997 -1.1569999 150 16 0
2.421 0.73500001 -1.161 150 16 0
2.418 0.73900002 -1.164 150 16 0
2.4159999 0.745 -1.168 150 16 0
2.4130001 0.74900001 -1.1720001 150 16 0
2.4059999 0.75300002 -1.173 150 16 0
2.404 0.75800002 -1.176 150 16 0
2.4000001 0.76300001 -1.179 150 16 0
2.3970001 0.76700002 -1.182 150 16 0
2.3940001 0.77200001 -1.1849999 150 16 0
2.391 0.77700001 -1.187 150 16 0
2.3859999 0.78100002 -1.189 150 16 0
2.385 0.78600001 -1.193 150 16 0
2.3829999 0.79100001 -1.196 150 16 0
2.378 0.796 -1.198 150 16 0
2.3759999 0.801 -1.201 150 16 0
2.3710001 0.80400002 -1.202 150 16 0
2.3670001 0.80900002 -1.204 150 16 0
2.362 0.81199998 -1.205 150 16 0
2.3629999 0.81800002 -1.209 150 16 0
2.359 0.82300001 -1.21 150 16 0
2.358 0.82800001 -1.2130001 150 16 0
2.3499999 0.83099997 -1.2130001 150 16 0
2.3510001 0.83600003 -1.216 150 16 0
2.346 0.83999997 -1.217 150 16 0
2.3440001 0.84500003 -1.219 150 16 0
2.3410001 0.84899998 -1.22 150 16 0
2.336 0.85299999 -1.221 150 16 0
2.336 0.85799998 -1.224 150 16 0
2.3299999 0.861 -1.223 150 16 0
2.329 0.866 -1.225 150 16 0
2.326 0.87 -1.227 150 16 0
2.323 0.87400001 -1.228 150 16 0
2.3210001 0.87900001 -1.229 150 16 0
2.319 0.88300002 -1.23 150 16 0
2.3169999 0.88800001 -1.2309999 150 16 0
2.312 0.89099997 -1.2309999 150 16 0
2.313 0.89600003 -1.233 150 16 0
2.3069999 0.89899999 -1.232 150 16 0
2.309 0.90499997 -1.235 150 16 0
2.303 0.90799999 -1.234 150 16 0
2.3010001 0.91100001 -1.234 150 16 0
2.3 0.91600001 -1.2359999 150 16 0
2.2980001 0.92000002 -1.2359999 150 16 0
2.2969999 0.92400002 -1.237 150 16 0
2.293 0.92699999 -1.2359999 150 16 0
2.29 0.93099999 -1.235 150 16 0
2.29 0.935 -1.237 150 16 0
2.2880001 0.93900001 -1.237 150 16 0
2.286 0.94300002 -1.2359999 150 16 0
2.299 0.95300001 -1.244 150 18 0
2.3010001 0.958 -1.2460001 150 16 0
2.302 0.963 -1.247 151 16 0
2.293 0.963 -1.243 151 16 0
2.2839999 0.96399999 -1.239 150 16 0
2.2739999 0.96399999 -1.234 150 16 0
2.2720001 0.96700001 -1.233 150 16 0
2.2750001 0.97299999 -1.235 150 16 0
2.2709999 0.97500002 -1.232 150 16 0
2.2679999 0.977 -1.2309999 150 16 0
2.2720001 0.98299998 -1.233 150 16 0
2.267 0.98500001 -1.23 150 16 0
2.266 0.98799998 -1.229 150 16 0
2.2650001 0.991 -1.228 150 16 0
2.2639999 0.99400002 -1.227 150 16 0
2.263 0.99800003 -1.226 150 16 0
2.2620001 1.001 -1.225 150 16 0
2.2620001 1.0039999 -1.224 150 16 0
2.2609999 1.007 -1.222 150 16 0
2.2590001 1.0089999 -1.22 150 16 0
2.26 1.013 -1.219 150 16 0
2.2520001 1.012 -1.214 150 16 0
2.253 1.016 -1.2130001 150 16 0
2.2539999 1.0190001 -1.212 150 16 0
2.25 1.02 -1.2079999 150 16 0
2.2509999 1.024 -1.2079999 150 16 0
2.2509999 1.026 -1.206 150 16 0
2.2520001 1.029 -1.204 150 16 0
2.2509999 1.031 -1.202 150 16 0
2.2520001 1.034 -1.2 150 16 0
2.2509999 1.036 -1.198 150 16 0
2.2520001 1.039 -1.196 150 16 0
2.2509999 1.041 -1.193 150 16 0
2.2509999 1.043 -1.191 150 16 0
2.2520001 1.046 -1.189 150 16 0
2.25 1.0470001 -1.1849999 150 16 0
2.2509999 1.049 -1.183 150 16 0
2.25 1.05 -1.1799999 150 16 0
2.2509999 1.052 -1.178 150 16 0
2.2520001 1.054 -1.175 150 16 0
2.2520001 1.056 -1.1720001 150 16 0
2.2539999 1.058 -1.17 150 16 0
2.2479999 1.057 -1.164 150 16 0
2.2550001 1.061 -1.164 150 16 0
2.2520001 1.061 -1.159 150 16 0
2.2520001 1.062 -1.156 150 16 0
2.2539999 1.064 -1.153 150 16 0
2.256 1.066 -1.15 150 16 0
2.2550001 1.066 -1.146 150 16 0
2.2579999 1.069 -1.1440001 150 16 0
2.2590001 1.0700001 -1.141 150 16 0
2.2590001 1.0700001 -1.137 150 16 0
2.2609999 1.072 -1.1339999 150 16 0
2.26 1.072 -1.1289999 150 16 0
2.2609999 1.073 -1.126 150 16 0
2.263 1.073 -1.122 150 16 0
2.266 1.075 -1.12 150 16 0
2.263 1.074 -1.114 150 16 0
2.2690001 1.077 -1.112 150 16 0
2.2679999 1.076 -1.108 150 16 0
2.2720001 1.0779999 -1.105 150 16 0
2.2720001 1.077 -1.1 150 16 0
2.2739999 1.0779999 -1.096 150 16 0
2.276 1.0779999 -1.0930001 150 16 0
2.277 1.0779999 -1.0880001 150 16 0
2.277 1.0779999 -1.0829999 150 16 0
2.2809999 1.079 -1.081 150 16 0
2.2850001 1.08 -1.077 150 16 0
2.2869999 1.08 -1.073 151 16 0
2.2820001 1.076 -1.066 150 16 0
2.2869999 1.077 -1.063 150 16 0
2.29 1.0779999 -1.059 151 16 0
2.289 1.076 -1.053 151 16 0
2.293 1.077 -1.05 151 16 0
2.303 1.08 -1.049 151 16 0
2.3 1.077 -1.0420001 150 16 0
2.3 1.075 -1.0369999 150 16 0
2.302 1.075 -1.0319999 150 16 0
2.3080001 1.075 -1.029 150 16 0
2.3050001 1.072 -1.023 151 16 0
2.3099999 1.073 -1.0190001 150 16 0
2.3169999 1.074 -1.017 150 16 0
2.3199999 1.073 -1.012 150 16 0
2.3150001 1.069 -1.0039999 150 16 0
2.3169999 1.068 -0.99900001 150 16 0
2.322 1.068 -0.99599999 150 16 0
2.3239999 1.066 -0.991 150 16 0
2.3329999 1.067 -0.98799998 151 16 0
2.3369999 1.067 -0.98400003 151 16 0
2.336 1.064 -0.97799999 150 16 0
2.339 1.062 -0.97299999 150 16 0
2.342 1.061 -0.96799999 150 16 0
2.348 1.061 -0.96499997 151 16 0
2.349 1.058 -0.95899999 151 16 0
2.352 1.057 -0.954 150 16 0
2.358 1.056 -0.95099998 150 16 0
2.3640001 1.056 -0.94700003 150 16 0
2.362 1.052 -0.94 150 16 0
2.3729999 1.053 -0.93800002 150 16 0
2.3699999 1.049 -0.93000001 57 16 0
2.385 1.052 -0.93000001 25 16 0
2.375 1.044 -0.92000002 41 16 0
2.3829999 1.044 -0.917 150 16 0
2.381 1.04 -0.91000003 150 16 0
2.3840001 1.0369999 -0.90499997 150 16 0
2.388 1.035 -0.89999998 151 16 0
2.391 1.033 -0.89499998 151 16 0
2.3940001 1.03 -0.889 150 16 0
2.3989999 1.028 -0.88499999 151 16 0
2.4000001 1.025 -0.87900001 150 16 0
2.408 1.024 -0.875 151 16 0
2.4100001 1.021 -0.87 150 16 0
2.4119999 1.017 -0.86400002 150 16 0
2.4170001 1.016 -0.85900003 150 16 0
2.421 1.013 -0.85399997 150 16 0
2.4260001 1.011 -0.85000002 150 16 0
2.4289999 1.008 -0.84399998 150 16 0
2.4330001 1.0039999 -0.83899999 150 16 0
2.4349999 1.001 -0.833 150 16 0
2.4389999 0.99800003 -0.82800001 150 16 0
2.4460001 0.99599999 -0.824 150 16 0
2.447 0.99199998 -0.81800002 150 16 0
2.4560001 0.991 -0.81400001 150 16 0
2.4590001 0.98699999 -0.80900002 150 16 0
2.4619999 0.98400003 -0.80299997 150 16 0
2.4649999 0.98000002 -0.79799998 150 16 0
2.4719999 0.97799999 -0.79400003 150 16 0
2.4760001 0.97399998 -0.78799999 150 16 0
2.4920001 0.97600001 -0.787 151 16 0
2.5039999 0.97500002 -0.78399998 151 16 0
2.507 0.97100002 -0.77899998 151 16 0
2.51 0.96700001 -0.773 151 16 0
2.4960001 0.95599997 -0.76200002 150 16 0
2.497 0.95200002 -0.75599998 150 16 0
2.5009999 0.94800001 -0.75099999 150 16 0
2.5050001 0.94400001 -0.745 150 16 0
2.5079999 0.94 -0.74000001 150 16 0
2.5150001 0.93699998 -0.73500001 150 16 0
2.5179999 0.93199998 -0.73000002 150 16 0
2.5209999 0.92799997 -0.72399998 150 16 0
2.5280001 0.92500001 -0.72000003 150 16 0
2.533 0.921 -0.71499997 150 16 0
2.5380001 0.917 -0.70899999 150 16 0
2.543 0.91399997 -0.70499998 150 16 0
2.5409999 0.90700001 -0.69700003 150 16 0
2.5510001 0.90499997 -0.69400001 150 16 0
2.5539999 0.89999998 -0.68800002 150 16 0
2.556 0.89499998 -0.68199998 150 16 0
2.5599999 0.89099997 -0.67699999 150 16 0
2.5650001 0.88700002 -0.67199999 150 16 0
2.569 0.88200003 -0.66600001 150 16 0
2.573 0.87699997 -0.66100001 150 16 0
2.576 0.87199998 -0.65600002 150 16 0
2.5780001 0.86699998 -0.64999998 150 16 0
2.5829999 0.86199999 -0.64499998 150 16 0
2.586 0.85699999 -0.639 150 16 0
2.6029999 0.85699999 -0.63700002 150 16 0
2.609 0.852 -0.63200003 150 16 0
2.6059999 0.84500003 -0.625 150 16 0
2.615 0.84200001 -0.62099999 150 16 0
2.6199999 0.83700001 -0.61500001 150 16 0
2.6229999 0.83200002 -0.61000001 150 16 0
2.631 0.82800001 -0.60600001 150 16 0
2.632 0.82200003 -0.59899998 150 16 0
2.6370001 0.81699997 -0.59399998 150 16 0
2.6440001 0.81300002 -0.58999997 150 16 0
2.6470001 0.80699998 -0.58399999 150 16 0
2.6530001 0.80199999 -0.579 150 16 0
2.658 0.79699999 -0.574 150 16 0
2.6700001 0.79400003 -0.56999999 150 16 0
2.6719999 0.78799999 -0.56400001 150 16 0
2.6760001 0.78299999 -0.55900002 150 16 0
2.6800001 0.77700001 -0.55400002 150 16 0
2.6849999 0.77200001 -0.54900002 150 16 0
2.6900001 0.76700002 -0.54299998 150 16 0
2.694 0.76099998 -0.53799999 150 16 0
2.6960001 0.755 -0.53200001 150 16 0
2.704 0.75 -0.528 150 16 0
2.71 0.745 -0.523 150 16 0
2.7149999 0.74000001 -0.51800001 150 16 0
2.717 0.73299998 -0.51200002 150 16 0
2.723 0.72799999 -0.50700003 150 16 0
2.7290001 0.72299999 -0.50199997 150 16 0
2.7320001 0.71600002 -0.49599999 150 16 0
2.7379999 0.71100003 -0.491 150 16 0
2.744 0.70499998 -0.486 150 16 0
2.7550001 0.70099998 -0.48199999 150 16 0
2.757 0.69499999 -0.477 150 16 0
2.7650001 0.68900001 -0.472 150 16 0
2.773 0.68400002 -0.46700001 150 16 0
2.777 0.67799997 -0.46200001 150 16 0
2.7809999 0.67199999 -0.45699999 150 16 0
2.7839999 0.66500002 -0.45100001 150 16 0
2.789 0.65899998 -0.44600001 150 16 0
2.7920001 0.653 -0.44100001 150 16 0
2.799 0.64700001 -0.43599999 150 16 0
2.803 0.63999999 -0.43000001 150 16 0
2.812 0.63499999 -0.426 150 16 0
2.8150001 0.62800002 -0.41999999 150 16 0
2.8239999 0.62300003 -0.41600001 150 16 0
2.829 0.61699998 -0.41 150 16 0
2.832 0.61000001 -0.405 150 16 0
2.8399999 0.60399997 -0.40000001 150 16 0
2.8469999 0.59799999 -0.39500001 150 16 0
2.8499999 0.59100002 -0.38999999 150 16 0
2.8570001 0.58499998 -0.38499999 150 16 0
2.8599999 0.57800001 -0.38 150 16 0
2.8659999 0.57200003 -0.375 150 16 0
2.8740001 0.56599998 -0.37 150 16 0
2.8789999 0.55900002 -0.36500001 150 16 0
2.881 0.55199999 -0.359 150 16 0
2.888 0.546 -0.354 150 16 0
2.892 0.53899997 -0.34900001 150 16 0
2.9070001 0.53399998 -0.345 150 16 0
2.9119999 0.52700001 -0.34 150 16 0
2.9170001 0.51999998 -0.33500001 150 16 0
2.9189999 0.51200002 -0.329 150 16 0
2.925 0.50599998 -0.324 150 16 0
2.9360001 0.5 -0.31999999 150 16 0
2.9400001 0.493 -0.31400001 150 16 0
2.947 0.486 -0.30899999 150 16 0
2.951 0.479 -0.30399999 150 16 0
2.9549999 0.47099999 -0.29899999 150 16 0
2.9619999 0.46399999 -0.294 150 16 0
2.967 0.45699999 -0.289 150 16 0
2.974 0.44999999 -0.28400001 150 16 0
2.977 0.44299999 -0.278 150 16 0
2.984 0.43599999 -0.273 150 16 0
2.99 0.42899999 -0.26800001 150 16 0
2.997 0.42199999 -0.26300001 150 16 0
3.0009999 0.414 -0.25799999 150 16 0
3.01 0.40700001 -0.25299999 150 16 0
3.0150001 0.39899999 -0.248 150 16 0
3.02 0.39199999 -0.243 150 16 0
3.0250001 0.384 -0.23800001 150 16 0
3.0280001 0.377 -0.23199999 150 16 0
3.0350001 0.36899999 -0.227 150 16 0
3.043 0.36199999 -0.222 150 16 0
3.052 0.35499999 -0.21699999 150 16 0
3.056 0.347 -0.212 150 16 0
3.0639999 0.33899999 -0.207 150 16 0
3.0680001 0.331 -0.20200001 150 16 0
3.0739999 0.324 -0.197 150 16 0
3.0799999 0.31600001 -0.192 150 16 0
3.086 0.308 -0.186 150 16 0
3.095 0.30000001 -0.18099999 150 16 0
3.102 0.29300001 -0.176 150 16 0
3.108 0.285 -0.171 150 16 0
3.1199999 0.27700001 -0.16599999 135 16 0
3.1229999 0.26899999 -0.161 124 16 0
3.1259999 0.25999999 -0.156 127 16 0
3.1359999 0.25299999 -0.15099999 140 16 0
3.1459999 0.245 -0.146 150 16 0
3.1530001 0.237 -0.141 150 16 0
3.155 0.228 -0.13500001 132 16 0
3.165 0.22 -0.13 130 16 0
3.1719999 0.212 -0.125 118 16 0
3.178 0.20299999 -0.12 128 16 0
3.1830001 0.19499999 -0.115 127 16 0
3.197 0.18700001 -0.11 115 16 0
3.2 0.178 -0.104 117 16 0
3.2090001 0.17 -0.098999999 107 16 0
3.22 0.162 -0.093999997 107 16 0
3.224 0.153 -0.089000002 108 16 0
3.2320001 0.14399999 -0.083999999 116 16 0
3.243 0.13600001 -0.079000004 99 16 0
3.2460001 0.127 -0.072999999 117 16 0
3.253 0.118 -0.068000004 102 16 0
3.263 0.109 -0.063000001 99 16 0
3.267 0.1 -0.057999998 96 16 0
3.2679999 0.090999998 -0.052000001 91 16 0
3.2780001 0.082000002 -0.046999998 103 16 0
3.286 0.072999999 -0.041999999 89 16 0
3.29 0.064000003 -0.035999998 52 16 0
3.3039999 0.055 -0.030999999 48 16 0
3.3039999 0.046 -0.026000001 94 16 0
3.316 0.037 -0.021 85 16 0
3.322 0.028000001 -0.015 41 16 0
3.3110001 0.017999999 -0.0099999998 22 16 0
3.296 0.0089999996 -0.0049999999 19 16 0
3.273 0 0 18 16 0
3.2539999 -0.0089999996 0.0049999999 22 16 0
3.2520001 -0.017999999 0.0099999998 69 16 0
3.2609999 -0.027000001 0.015 150 16 0
3.266 -0.035999998 0.02 150 16 0
3.276 -0.046 0.025 149 16 0
3.277 -0.055 0.030999999 150 16 0
3.2869999 -0.064999998 0.035999998 150 16 0
3.273 -0.074000001 0.041000001 33 16 0
3.256 -0.082999997 0.045000002 30 16 0
3.237 -0.090999998 0.050000001 30 16 0
3.2190001 -0.1 0.055 28 16 0
3.2079999 -0.109 0.059999999 29 16 0
3.194 -0.117 0.064000003 30 16 0
3.1689999 -0.126 0.068999998 29 16 0
3.1500001 -0.134 0.072999999 29 16 0
3.1340001 -0.142 0.077 30 16 0
3.119 -0.15000001 0.082000002 27 16 0
3.1010001 -0.15800001 0.086000003 29 16 0
3.0899999 -0.167 0.090000004 28 16 0
3.069 -0.17399999 0.093999997 29 16 0
3.052 -0.182 0.097999997 29 16 0
3.036 -0.19 0.102 31 16 0
3.013 -0.197 0.106 32 16 0
2.9979999 -0.205 0.11 32 16 0
2.9879999 -0.213 0.114 31 16 0
2.971 -0.221 0.118 31 16 0
2.96 -0.228 0.122 32 16 0
2.941 -0.235 0.125 33 16 0
2.927 -0.243 0.12899999 33 16 0
2.908 -0.25 0.132 32 16 0
2.8929999 -0.257 0.13600001 33 16 0
2.8789999 -0.264 0.139 33 16 0
2.8640001 -0.271 0.142 32 16 0
2.849 -0.278 0.146 33 16 0
2.8380001 -0.285 0.149 35 16 0
2.8210001 -0.292 0.152 36 16 0
2.809 -0.29899999 0.156 35 16 0
2.7950001 -0.30599999 0.15899999 35 16 0
2.78 -0.31200001 0.162 35 16 0
2.7679999 -0.31900001 0.16500001 37 16 0
2.757 -0.32600001 0.168 36 16 0
2.7379999 -0.33199999 0.171 37 16 0
2.73 -0.33899999 0.17399999 38 16 0
2.717 -0.345 0.177 41 16 0
2.7090001 -0.352 0.18000001 40 16 0
2.6949999 -0.359 0.183 43 16 0
2.6830001 -0.36500001 0.186 46 16 0
2.6700001 -0.37099999 0.189 40 16 0
2.654 -0.377 0.191 48 16 0
2.6400001 -0.38299999 0.19400001 43 16 0
2.6300001 -0.389 0.19599999 43 16 0
2.615 -0.39500001 0.199 48 16 0
2.602 -0.40099999 0.20100001 50 16 0
2.5940001 -0.40700001 0.204 57 16 0
2.582 -0.41299999 0.207 57 16 0
2.569 -0.419 0.20900001 56 16 0
2.559 -0.42500001 0.212 61 16 0
2.5469999 -0.43099999 0.214 70 16 0
2.5250001 -0.435 0.215 59 16 0
2.5209999 -0.442 0.21799999 59 16 0
2.503 -0.44600001 0.22 66 16 0
2.494 -0.45199999 0.222 67 16 0
2.4890001 -0.45899999 0.22499999 72 16 0
2.474 -0.46399999 0.227 69 16 0
2.464 -0.46900001 0.229 73 16 0
2.4519999 -0.47400001 0.23100001 79 16 0
2.4419999 -0.47999999 0.233 79 16 0
2.4300001 -0.48500001 0.235 84 16 0
2.425 -0.49200001 0.23800001 82 16 0
2.415 -0.49700001 0.23999999 85 16 0
2.391 -0.5 0.23999999 85 19 0
2.3870001 -0.50599998 0.243 85 16 0
2.3759999 -0.51099998 0.245 86 16 0
2.3640001 -0.51599997 0.24600001 87 16 0
2.358 -0.52200001 0.248 100 16 0
2.3440001 -0.52600002 0.25 93 16 0
2.3299999 -0.52999997 0.25099999 82 16 0
2.3210001 -0.53600001 0.25299999 78 16 0
2.313 -0.54100001 0.255 90 16 0
2.3010001 -0.54500002 0.25600001 89 16 0
2.2939999 -0.551 0.25799999 90 16 0
2.28 -0.55500001 0.259 95 16 0
2.267 -0.55900002 0.25999999 93 16 0
2.2590001 -0.56400001 0.26199999 97 16 0
2.25 -0.56900001 0.26300001 93 16 0
2.24 -0.57300001 0.26499999 91 16 0
2.2320001 -0.57800001 0.266 94 16 0
2.221 -0.58200002 0.26699999 94 16 0
2.2090001 -0.58600003 0.26899999 98 16 0
2.204 -0.59200001 0.27000001 103 16 0
2.194 -0.59600002 0.271 96 16 0
2.1830001 -0.60000002 0.273 111 16 0
2.1760001 -0.60600001 0.27399999 108 16 0
2.1670001 -0.61000001 0.27500001 111 16 0
2.1559999 -0.61400002 0.27599999 112 16 0
2.1429999 -0.61699998 0.27700001 117 16 0
2.1400001 -0.62300003 0.278 129 16 0
2.1300001 -0.62699997 0.27900001 118 16 0
2.112 -0.62800002 0.27900001 120 16 0
2.1029999 -0.63200003 0.28 121 16 0
2.0999999 -0.639 0.28200001 118 16 0
2.0880001 -0.64099997 0.28200001 122 16 0
2.0780001 -0.64499998 0.28299999 128 16 0
2.066 -0.648 0.28299999 132 16 0
2.063 -0.65399998 0.285 126 16 0
2.0539999 -0.65799999 0.28600001 131 16 0
2.0450001 -0.662 0.28600001 141 16 0
2.0339999 -0.66500002 0.287 150 16 0
2.0250001 -0.66799998 0.287 129 16 0
2.0209999 -0.67400002 0.289 139 16 0
2.01 -0.67699999 0.289 150 16 0
2 -0.68000001 0.28999999 150 16 0
1.995 -0.685 0.29100001 150 16 0
1.984 -0.68800002 0.29100001 150 16 0
1.976 -0.69099998 0.29100001 150 16 0
1.971 -0.69599998 0.292 150 16 0
1.96 -0.699 0.292 150 16 0
1.956 -0.704 0.29300001 150 16 0
1.946 -0.70599997 0.294 150 16 0
1.9349999 -0.70899999 0.29300001 150 16 0
1.926 -0.71200001 0.294 150 16 0
1.9220001 -0.71700001 0.29499999 150 16 0
1.916 -0.72100002 0.29499999 150 16 0
1.91 -0.72500002 0.296 150 16 0
1.892 -0.72399998 0.294 150 16 0
1.8890001 -0.73000002 0.29499999 150 16 0
1.883 -0.73299998 0.296 150 16 0
1.8789999 -0.73799998 0.29699999 150 16 0
1.87 -0.741 0.29699999 150 16 0
1.86 -0.74299997 0.296 150 16 0
1.855 -0.74699998 0.29699999 150 16 0
1.845 -0.74900001 0.296 150 16 0
1.842 -0.75400001 0.29699999 150 16 0
1.8329999 -0.75700003 0.29699999 150 16 0
1.825 -0.75999999 0.29699999 150 16 0
1.816 -0.76200002 0.296 150 16 0
1.811 -0.76599997 0.29699999 150 16 0
1.808 -0.76999998 0.29699999 150 16 0
1.798 -0.77200001 0.29699999 2 0 0
1.789 -0.77399999 0.296 150 16 0
1.7819999 -0.77700001 0.296 3 0 0
1.771 -0.778 0.29499999 3 0 0
1.767 -0.78299999 0.296 2 0 0
1.762 -0.78600001 0.296 4 0 0
1.7539999 -0.78799999 0.29499999 96 0 0
1.752 -0.79299998 0.296 2 0 0
1.74 -0.79400003 0.29499999 3 0 0
1.738 -0.79799998 0.29499999 2 0 0
1.727 -0.79900002 0.294 84 0 0
1.72 -0.80199999 0.29300001 108 0 0
1.717 -0.80599999 0.294 110 0 0
1.709 -0.80800003 0.29300001 113 0 0
1.701 -0.81 0.292 83 0 0
1.697 -0.81300002 0.292 89 0 0
1.688 -0.815 0.29100001 106 0 0
1.6849999 -0.81800002 0.29100001 128 0 0
1.679 -0.82099998 0.29100001 150 16 0
1.677 -0.82499999 0.29100001 83 0 0
1.666 -0.82499999 0.289 79 0 0
1.6619999 -0.829 0.289 150 16 0
1.659 -0.833 0.289 114 0 0
1.646 -0.83200002 0.287 125 0 0
1.638 -0.833 0.28600001 150 0 0
1.635 -0.83700001 0.28600001 135 0 0
1.6289999 -0.83899999 0.285 136 0 0
1.627 -0.84299999 0.285 142 0 0
1.619 -0.84399998 0.28400001 150 0 0
1.6109999 -0.84500003 0.28299999 150 0 0
1.609 -0.84899998 0.28299999 149 0 0
1.601 -0.85000002 0.28099999 150 16 0
1.597 -0.85299999 0.28099999 150 16 0
1.595 -0.85699999 0.28 150 16 0
1.592 -0.86000001 0.28 150 16 0
1.587 -0.86199999 0.27900001 150 16 0
1.574 -0.86000001 0.27700001 150 0 0
1.572 -0.86400002 0.27599999 150 16 0
1.5700001 -0.86799997 0.27599999 150 0 0
1.554 -0.86400002 0.273 149 2 0
1.559 -0.87099999 0.27399999 143 0 0
1.553 -0.87300003 0.27200001 150 16 0
1.544 -0.87199998 0.271 150 0 0
1.5420001 -0.875 0.27000001 150 16 0
1.538 -0.87800002 0.26899999 150 16 0
1.535 -0.88099998 0.26800001 150 0 0
1.531 -0.88300002 0.26699999 150 0 0
1.527 -0.88499999 0.266 150 0 0
1.52 -0.88499999 0.26499999 150 0 0
1.518 -0.88800001 0.264 148 0 0
1.515 -0.89099997 0.26300001 150 0 0
1.513 -0.89399999 0.26199999 150 0 0
1.503 -0.89200002 0.25999999 150 0 0
1.5 -0.89399999 0.259 150 0 0
1.497 -0.89700001 0.25799999 137 0 0
1.4910001 -0.898 0.25600001 150 0 0
1.49 -0.90100002 0.255 150 0 0
1.485 -0.90200001 0.25400001 150 0 0
1.48 -0.903 0.252 150 0 0
1.479 -0.90600002 0.25099999 150 0 0
1.471 -0.90499997 0.249 150 0 0
1.467 -0.90600002 0.248 113 0 0
1.464 -0.90799999 0.24699999 143 0 0
1.4630001 -0.91100001 0.24600001 124 0 0
1.4579999 -0.91100001 0.244 150 0 0
1.456 -0.91399997 0.243 150 0 0
1.452 -0.91500002 0.241 150 0 0
1.446 -0.91399997 0.23899999 132 0 0
1.441 -0.91500002 0.237 147 0 0
1.4400001 -0.917 0.236 150 0 0
1.438 -0.91900003 0.235 136 0 0
1.436 -0.921 0.233 150 0 0
1.428 -0.91900003 0.23100001 136 0 0
1.425 -0.92000002 0.23 150 0 0
1.423 -0.92199999 0.228 150 0 0
1.419 -0.92199999 0.226 131 0 0
1.419 -0.92500001 0.22499999 150 0 0
1.415 -0.92500001 0.223 150 0 0
1.413 -0.92699999 0.222 133 0 0
1.409 -0.92699999 0.22 150 0 0
1.411 -0.93099999 0.219 150 0 0
1.4069999 -0.93099999 0.21699999 150 0 0
1.404 -0.93099999 0.215 131 0 0
1.398 -0.93000001 0.213 150 0 0
1.395 -0.93000001 0.211 137 0 0
1.395 -0.93199998 0.20999999 150 0 0
1.3940001 -0.93300003 0.208 150 0 0
1.391 -0.93400002 0.206 136 0 0
1.388 -0.93400002 0.204 146 0 0
1.385 -0.93400002 0.20200001 149 0 0
1.381 -0.93300003 0.2 142 0 0
1.381 -0.935 0.199 137 0 0
1.38 -0.93599999 0.197 134 0 0
1.377 -0.93599999 0.19499999 129 0 0
1.376 -0.93699998 0.193 119 0 0
1.378 -0.94 0.192 120 0 0
1.367 -0.93400002 0.189 136 1 0
1.3710001 -0.93800002 0.18799999 121 0 0
1.369 -0.93800002 0.186 138 0 0
1.368 -0.93900001 0.184 135 0 0
1.365 -0.93800002 0.182 133 0 0
1.365 -0.93900001 0.18000001 147 0 0
1.364 -0.94 0.178 112 0 0
1.362 -0.93900001 0.176 147 0 0
1.362 -0.94 0.17399999 150 0 0
1.3609999 -0.94 0.17200001 109 0 0
1.3609999 -0.94099998 0.171 119 0 0
1.3609999 -0.94099998 0.169 96 0 0
1.358 -0.94 0.167 115 0 0
1.3559999 -0.94 0.16500001 111 0 0
1.3559999 -0.94 0.163 114 0 0
1.36 -0.94300002 0.161 150 0 0
1.354 -0.93900001 0.15899999 100 0 0
1.354 -0.93900001 0.15700001 112 0 0
1.3559999 -0.94099998 0.155 115 0 0
1.354 -0.94 0.153 131 0 0
1.354 -0.94 0.15099999 111 0 0
1.354 -0.94 0.149 116 0 0
1.354 -0.94 0.147 99 0 0
1.355 -0.94 0.145 120 0 0
1.354 -0.94 0.14300001 102 0 0
1.352 -0.93800002 0.141 111 0 0
1.355 -0.93900001 0.139 134 0 0
1.353 -0.93800002 0.13699999 117 0 0
1.353 -0.93699998 0.13500001 126 0 0
1.354 -0.93699998 0.133 101 0 0
1.354 -0.93599999 0.131 139 0 0
1.355 -0.93599999 0.12899999 122 0 0
1.355 -0.935 0.127 119 0 0
1.355 -0.935 0.125 115 0 0
1.3559999 -0.93400002 0.123 121 0 0
1.359 -0.935 0.121 92 0 0
1.36 -0.935 0.12 120 0 0
1.358 -0.93199998 0.117 115 0 0
1.359 -0.93199998 0.115 111 0 0
1.359 -0.93099999 0.113 150 0 0
1.36 -0.93000001 0.111 116 0 0
1.362 -0.92900002 0.109 150 0 0
1.362 -0.92799997 0.107 134 0 0
1.362 -0.92699999 0.106 134 0 0
1.3660001 -0.92799997 0.104 89 0 0
1.364 -0.92500001 0.102 123 0 0
1.369 -0.926 0.1 147 0 0
1.369 -0.92400002 0.097999997 114 0 0
1.37 -0.92299998 0.096000001 132 0 0
1.3710001 -0.921 0.093999997 99 0 0
1.372 -0.92000002 0.092 112 0 0
1.374 -0.91900003 0.090000004 142 0 0
1.375 -0.91799998 0.088 142 0 0
1.376 -0.91600001 0.086000003 138 0 0
1.377 -0.91500002 0.083999999 103 0 0
1.378 -0.91299999 0.082999997 144 0 0
1.382 -0.91299999 0.081 147 0 0
1.383 -0.91100001 0.079000004 127 0 0
1.387 -0.91100001 0.077 82 0 0
1.391 -0.91100001 0.075000003 150 0 0
1.392 -0.90899998 0.072999999 117 0 0
1.395 -0.90799999 0.071999997 87 0 0
1.396 -0.90700001 0.07 95 0 0
1.398 -0.90499997 0.068000004 85 0 0
1.403 -0.90499997 0.066 113 0 0
1.403 -0.90200001 0.064000003 125 0 0
1.405 -0.90100002 0.061999999 113 0 0
1.406 -0.898 0.061000001 116 0 0
1.4119999 -0.898 0.059 107 0 0
1.415 -0.89700001 0.057 121 0 0
1.416 -0.89499998 0.055 103 0 0
1.418 -0.89200002 0.054000001 123 0 0
1.4220001 -0.89200002 0.052000001 112 0 0
1.424 -0.889 0.050000001 150 0 0
1.4299999 -0.88999999 0.048999999 119 0 0
1.4299999 -0.88599998 0.046999998 94 0 0
1.434 -0.88499999 0.045000002 121 0 0
1.4349999 -0.88200003 0.043000001 106 0 0
1.438 -0.88 0.041999999 105 0 0
1.4400001 -0.87699997 0.039999999 96 0 0
1.441 -0.875 0.037999999 77 0 0
1.446 -0.87300003 0.037 125 0 0
1.4529999 -0.87400001 0.035 125 0 0
1.457 -0.87199998 0.034000002 97 0 0
1.459 -0.86900002 0.032000002 120 0 0
1.4630001 -0.86799997 0.030999999 67 0 0
1.47 -0.86799997 0.028999999 114 0 0
1.472 -0.86500001 0.027000001 116 0 0
1.473 -0.86199999 0.026000001 116 0 0
1.477 -0.86000001 0.024 144 0 0
1.478 -0.85600001 0.023 101 0 0
1.485 -0.85600001 0.021 128 0 0
1.49 -0.85500002 0.02 110 0 0
1.4910001 -0.85100001 0.017999999 121 0 0
1.499 -0.85100001 0.017000001 107 0 0
1.5039999 -0.84899998 0.016000001 102 0 0
1.502 -0.84399998 0.014 110 0 0
1.508 -0.84200001 0.013 90 0 0
1.512 -0.83999997 0.011 110 0 0
1.518 -0.83899999 0.0099999998 130 0 0
1.522 -0.83600003 0.0080000004 132 0 0
1.53 -0.83600003 0.0070000002 115 0 0
1.536 -0.83499998 0.0060000001 87 0 0
1.538 -0.83099997 0.0040000002 86 0 0
1.541 -0.82800001 0.003 93 0 0
1.5470001 -0.82599998 0.0020000001 81 0 0
1.551 -0.824 0 67 0 0
1.558 -0.82200003 0 110 0 0
1.5599999 -0.81800002 -0.001 68 0 0
1.5650001 -0.81599998 -0.003 93 0 0
1.571 -0.81400001 -0.0040000002 68 0 0
1.577 -0.81300002 -0.0049999999 58 0 0
1.579 -0.80900002 -0.0060000001 64 0 0
1.587 -0.80699998 -0.0070000002 63 0 0
1.589 -0.80299997 -0.0089999996 66 0 0
1.595 -0.801 -0.0099999998 68 0 0
1.599 -0.79799998 -0.011 78 0 0
1.603 -0.79500002 -0.012 87 0 0
1.617 -0.796 -0.013 57 0 0
1.619 -0.792 -0.015 61 0 0
1.626 -0.79000002 -0.016000001 75 0 0
1.628 -0.78600001 -0.017000001 70 0 0
1.638 -0.78500003 -0.017999999 63 0 0
1.647 -0.78399998 -0.018999999 51 0 0
1.65 -0.77999997 -0.02 69 0 0
1.652 -0.77600002 -0.021 52 0 0
1.658 -0.773 -0.022 67 0 0
1.665 -0.76999998 -0.023 58 0 0
1.675 -0.76899999 -0.024 65 0 0
1.6799999 -0.76599997 -0.025 52 0 0
1.6849999 -0.76300001 -0.026000001 2 0 0
1.688 -0.75800002 -0.027000001 2 0 0
1.698 -0.75700003 -0.028000001 2 0 0
1.705 -0.75400001 -0.028999999 150 16 0
1.712 -0.75199997 -0.029999999 150 16 0
1.716 -0.74800003 -0.030999999 150 16 0
1.727 -0.74699998 -0.032000002 150 16 0
1.734 -0.74400002 -0.033 150 16 0
1.737 -0.73900002 -0.033 150 16 0
1.743 -0.736 -0.034000002 150 16 0
1.748 -0.73199999 -0.035 150 16 0
1.761 -0.73199999 -0.035999998 50 0 0
1.763 -0.727 -0.037 150 16 0
1.772 -0.72399998 -0.037999999 35 0 0
1.777 -0.72100002 -0.037999999 30 0 0
1.781 -0.71600002 -0.039000001 34 0 0
1.796 -0.71600002 -0.039999999 1 0 0
1.801 -0.71200001 -0.041000001 33 0 0
1.8049999 -0.70700002 -0.041000001 34 0 0
1.817 -0.70599997 -0.041999999 35 0 0
1.823 -0.70200002 -0.043000001 1 0 0
1.83 -0.69800001 -0.043000001 32 0 0
1.841 -0.69599998 -0.044 1 0 0
1.8430001 -0.69099998 -0.045000002 1 0 0
1.8559999 -0.68900001 -0.045000002 1 0 0
1.86 -0.68400002 -0.046 1 0 0
1.868 -0.68099999 -0.046999998 150 16 0
1.875 -0.67699999 -0.046999998 1 0 0
1.883 -0.67400002 -0.048 1 0 0
1.89 -0.67000002 -0.048 137 16 0
1.898 -0.66600001 -0.048999999 128 16 0
1.909 -0.66299999 -0.048999999 129 16 0
1.914 -0.65899998 -0.050000001 119 16 0
1.925 -0.65600002 -0.050000001 137 16 0
1.927 -0.64999998 -0.050999999 137 16 0
1.9349999 -0.64600003 -0.050999999 113 16 0
1.939 -0.64099997 -0.052000001 115 16 0
1.9579999 -0.64099997 -0.052000001 110 19 0
1.965 -0.63599998 -0.052999999 112 16 0
1.973 -0.63200003 -0.052999999 128 16 0
1.984 -0.62900001 -0.052999999 124 16 0
1.9910001 -0.625 -0.054000001 113 16 0
2.0020001 -0.62099999 -0.054000001 113 16 0
2.01 -0.61699998 -0.055 114 16 0
2.0150001 -0.61199999 -0.055 106 16 0
2.023 -0.60699999 -0.055 98 16 0
2.0369999 -0.60399997 -0.056000002 101 16 0
2.0469999 -0.60100001 -0.056000002 104 16 0
2.0550001 -0.59600002 -0.056000002 99 16 0
2.0680001 -0.59299999 -0.056000002 104 16 0
2.0810001 -0.58899999 -0.057 101 16 0
2.085 -0.583 -0.057 95 16 0
2.095 -0.579 -0.057 98 16 0
2.1010001 -0.574 -0.057 89 16 0
2.1159999 -0.57099998 -0.057 91 16 0
2.125 -0.56599998 -0.057999998 92 16 0
2.135 -0.56199998 -0.057999998 87 16 0
2.145 -0.55699998 -0.057999998 89 16 0
2.154 -0.55199999 -0.057999998 89 16 0
2.1630001 -0.54699999 -0.057999998 93 16 0
2.1830001 -0.54500002 -0.057999998 88 16 0
2.1930001 -0.54000002 -0.057999998 80 16 0
2.204 -0.53500003 -0.057999998 80 16 0
2.2149999 -0.53100002 -0.057999998 80 16 0
2.2290001 -0.52700001 -0.059 76 16 0
2.2390001 -0.52200001 -0.057999998 73 16 0
2.2449999 -0.51599997 -0.057999998 67 16 0
2.2550001 -0.50999999 -0.057999998 72 16 0
2.2690001 -0.50599998 -0.057999998 57 16 0
2.28 -0.50099999 -0.057999998 54 16 0
2.29 -0.495 -0.057999998 58 16 0
2.303 -0.491 -0.057999998 52 16 0
2.316 -0.486 -0.057999998 49 16 0
2.325 -0.47999999 -0.057999998 49 16 0
2.336 -0.47499999 -0.057999998 43 16 0
2.355 -0.47099999 -0.057999998 50 16 0
2.369 -0.46599999 -0.057 46 16 0
2.3829999 -0.46000001 -0.057 56 16 0
2.391 -0.454 -0.057 48 16 0
2.404 -0.449 -0.057 53 16 0
2.415 -0.44299999 -0.056000002 53 16 0
2.4319999 -0.43799999 -0.056000002 53 16 0
2.447 -0.433 -0.056000002 45 16 0
2.457 -0.426 -0.055 46 16 0
2.4619999 -0.419 -0.055 45 16 0
2.483 -0.414 -0.055 41 16 0
2.4979999 -0.40900001 -0.054000001 48 16 0
2.503 -0.40099999 -0.054000001 38 16 0
2.523 -0.396 -0.052999999 35 16 0
2.533 -0.38999999 -0.052999999 40 16 0
2.55 -0.384 -0.052000001 33 16 0
2.569 -0.37799999 -0.052000001 34 16 0
2.5780001 -0.37099999 -0.050999999 33 16 0
2.5929999 -0.36500001 -0.050999999 33 16 0
2.6099999 -0.359 -0.050000001 34 16 0
2.622 -0.352 -0.050000001 33 16 0
2.635 -0.345 -0.048999999 31 16 0
2.651 -0.33899999 -0.048 33 16 0
2.671 -0.33199999 -0.048 31 16 0
2.6819999 -0.32499999 -0.046999998 33 16 0
2.6989999 -0.31799999 -0.046 33 16 0
2.7179999 -0.31200001 -0.046 32 16 0
2.7290001 -0.30399999 -0.045000002 29 16 0
2.7390001 -0.296 -0.044 29 16 0
2.76 -0.28999999 -0.043000001 29 16 0
2.7709999 -0.28200001 -0.041999999 29 16 0
2.79 -0.27500001 -0.041000001 27 16 0
2.8050001 -0.26699999 -0.041000001 28 16 0
2.823 -0.25999999 -0.039999999 29 16 0
2.842 -0.252 -0.039000001 28 16 0
2.8640001 -0.245 -0.037999999 28 16 0
2.8770001 -0.237 -0.037 28 16 0
2.8940001 -0.229 -0.035999998 26 16 0
2.9119999 -0.221 -0.035 28 16 0
2.9330001 -0.213 -0.034000002 27 16 0
2.9530001 -0.205 -0.033 25 16 0
2.9690001 -0.197 -0.030999999 25 16 0
2.9909999 -0.189 -0.029999999 25 16 0
3.006 -0.18000001 -0.028999999 25 16 0
3.0190001 -0.171 -0.028000001 25 16 0
3.053 -0.163 -0.027000001 26 19 0
3.0699999 -0.154 -0.025 25 16 0
3.096 -0.146 -0.024 26 16 0
3.1129999 -0.13699999 -0.022 25 16 0
3.135 -0.127 -0.021 26 16 0
3.1570001 -0.118 -0.02 26 16 0
3.1819999 -0.109 -0.017999999 26 16 0
3.201 -0.098999999 -0.017000001 26 16 0
3.22 -0.090000004 -0.015 26 16 0
3.2409999 -0.079999998 -0.013 28 16 0
3.267 -0.07 -0.012 61 16 0
3.266 -0.059999999 -0.0099999998 150 16 0
3.263 -0.048999999 -0.0080000004 129 16 0
3.257 -0.039000001 -0.0060000001 128 16 0
3.2520001 -0.028000001 -0.0049999999 127 16 0
3.243 -0.017999999 -0.003 39 16 0
3.2650001 -0.0080000004 -0.001 18 16 0
3.286 0.0020000001 0 18 16 0
3.309 0.012 0.0020000001 18 16 0
3.3310001 0.023 0.0040000002 29 16 0
3.3269999 0.034000002 0.0060000001 54 16 0
3.3239999 0.044 0.0080000004 53 16 0
3.3210001 0.055 0.0099999998 40 16 0
3.312 0.064999998 0.012 50 16 0
3.3110001 0.075999998 0.014 54 16 0
3.3080001 0.086000003 0.016000001 54 16 0
3.3050001 0.097000003 0.017999999 56 16 0
3.3 0.107 0.02 51 16 0
3.2920001 0.117 0.022 58 16 0
3.2909999 0.12800001 0.024 65 16 0
3.276 0.13699999 0.026000001 45 16 0
3.2509999 0.147 0.028000001 27 16 0
3.243 0.15700001 0.029999999 24 16 0
3.237 0.167 0.032000002 23 16 0
3.23 0.177 0.034000002 24 16 0
3.2249999 0.186 0.035999998 24 16 0
3.22 0.19599999 0.037999999 25 16 0
3.2049999 0.205 0.039999999 27 16 0
3.1919999 0.215 0.041999999 75 16 0
3.1860001 0.22499999 0.045000002 111 16 0
3.1949999 0.235 0.046999998 36 16 0
3.1989999 0.24600001 0.048999999 27 16 0
3.1889999 0.255 0.050999999 26 16 0
3.188 0.26499999 0.054000001 26 16 0
3.1830001 0.27500001 0.056000002 27 16 0
3.178 0.285 0.057999998 28 16 0
3.165 0.29300001 0.059999999 28 16 0
3.161 0.303 0.061999999 29 16 0
3.155 0.31200001 0.064999998 29 16 0
3.1500001 0.322 0.067000002 30 16 0
3.1429999 0.331 0.068999998 33 16 0
3.1389999 0.34099999 0.071000002 32 16 0
3.1329999 0.34999999 0.074000001 30 16 0
3.155 0.36199999 0.077 18 16 0
3.184 0.37599999 0.079999998 56 16 0
3.177 0.38499999 0.082000002 105 16 0
3.1830001 0.396 0.085000001 98 16 0
3.1730001 0.405 0.086999997 92 16 0
3.1730001 0.41499999 0.090000004 100 16 0
3.1689999 0.42399999 0.092 102 16 0
3.1589999 0.433 0.094999999 91 16 0
3.158 0.44299999 0.097000003 100 16 0
3.1570001 0.45300001 0.1 101 16 0
3.151 0.46200001 0.102 90 16 0
3.152 0.472 0.105 95 16 0
3.1429999 0.48100001 0.107 100 16 0
3.1400001 0.49000001 0.11 100 16 0
3.1359999 0.49900001 0.113 104 16 0
3.1329999 0.509 0.115 101 16 0
3.1270001 0.51800001 0.118 108 16 0
3.125 0.52700001 0.12 110 16 0
3.122 0.537 0.123 112 16 0
3.118 0.546 0.126 80 16 0
3.1159999 0.55599999 0.12899999 74 16 0
3.1140001 0.565 0.131 82 16 0
3.108 0.574 0.134 70 16 0
3.1059999 0.583 0.13699999 67 16 0
3.1010001 0.59200001 0.14 66 16 0
3.0999999 0.602 0.142 54 16 0
3.096 0.611 0.145 54 16 0
3.095 0.62 0.148 54 16 0
3.0929999 0.63 0.15099999 51 16 0
3.079 0.63700002 0.153 49 16 0
3.0799999 0.64700001 0.15700001 47 16 0
3.075 0.65600002 0.15899999 43 16 0
3.075 0.66500002 0.162 64 16 0
3.0680001 0.67299998 0.16500001 75 16 0
3.0599999 0.68099999 0.168 84 16 0
3.052 0.68900001 0.171 96 16 0
3.053 0.699 0.17399999 120 16 0
3.05 0.708 0.177 125 16 0
3.0420001 0.71600002 0.17900001 119 16 0
3.0439999 0.72600001 0.183 136 16 0
3.0409999 0.73500001 0.186 128 16 0
3.0350001 0.74299997 0.189 125 16 0
3.0350001 0.75300002 0.192 134 16 0
3.0320001 0.76200002 0.19499999 133 16 0
3.0309999 0.77100003 0.198 150 16 0
3.026 0.77899998 0.20100001 149 16 0
3.023 0.78799999 0.205 150 16 0
3.02 0.79699999 0.208 147 16 0
3.02 0.80599999 0.211 141 16 0
3.0139999 0.81400001 0.214 130 16 0
3.0120001 0.82300001 0.21799999 122 16 0
3.003 0.82999998 0.22 97 16 0
2.9979999 0.838 0.223 54 16 0
2.994 0.847 0.227 45 16 0
2.9809999 0.85299999 0.229 40 16 0
2.98 0.861 0.233 37 16 0
2.971 0.86799997 0.236 34 16 0
2.9630001 0.875 0.23800001 33 16 0
2.9560001 0.88300002 0.242 34 16 0
2.9530001 0.89099997 0.245 31 16 0
2.9419999 0.89700001 0.248 32 16 0
2.937 0.90499997 0.25099999 33 16 0
2.9319999 0.912 0.25400001 32 16 0
2.921 0.91799998 0.257 32 16 0
2.9089999 0.92400002 0.25999999 32 16 0
2.9030001 0.93099999 0.26300001 32 16 0
2.892 0.93599999 0.266 33 16 0
2.888 0.94400001 0.26899999 34 16 0
2.878 0.94999999 0.27200001 33 16 0
2.8740001 0.958 0.27500001 39 16 0
2.8659999 0.96399999 0.278 44 16 0
2.8570001 0.97000003 0.28099999 55 16 0
2.8540001 0.97799999 0.285 89 16 0
2.8499999 0.98500001 0.28799999 135 16 0
2.8469999 0.99299997 0.292 150 16 0
2.842 1 0.29499999 150 16 0
2.839 1.008 0.29899999 150 16 0
2.8399999 1.017 0.303 150 16 0
2.836 1.024 0.30700001 150 16 0
2.8299999 1.031 0.31 150 16 0
2.8280001 1.039 0.31400001 150 16 0
2.8269999 1.0470001 0.31799999 150 16 0
2.822 1.054 0.32100001 150 16 0
2.8199999 1.062 0.32499999 150 16 0
2.8150001 1.069 0.329 150 16 0
2.8139999 1.077 0.333 150 16 0
2.8169999 1.087 0.338 150 16 0
2.816 1.095 0.34200001 150 16 0
2.8099999 1.101 0.345 150 16 0
2.8080001 1.109 0.34900001 150 16 0
2.806 1.117 0.35299999 150 16 0
2.8010001 1.123 0.35699999 150 16 0
2.8010001 1.132 0.361 150 16 0
2.802 1.141 0.366 150 16 0
2.799 1.148 0.37 150 16 0
2.7980001 1.156 0.37400001 150 16 0
2.793 1.1619999 0.37799999 150 16 0
2.7880001 1.169 0.382 150 16 0
2.7880001 1.177 0.38600001 150 16 0
2.7880001 1.1849999 0.391 150 16 0
2.7839999 1.192 0.39500001 150 16 0
2.7809999 1.199 0.39899999 150 16 0
2.777 1.205 0.403 150 16 0
2.777 1.2130001 0.40799999 150 16 0
2.7720001 1.219 0.412 150 16 0
2.7780001 1.23 0.417 150 16 0
2.7690001 1.234 0.421 150 16 0
2.7650001 1.24 0.42500001 150 16 0
2.77 1.25 0.43000001 150 16 0
2.767 1.257 0.435 150 16 0
2.7650001 1.2640001 0.43900001 150 16 0
2.766 1.273 0.44400001 150 16 0
2.763 1.279 0.44800001 150 16 0
2.763 1.2869999 0.45300001 150 16 0
2.7590001 1.293 0.458 150 16 0
2.753 1.298 0.46200001 150 16 0
2.7550001 1.306 0.46700001 150 16 0
2.757 1.3150001 0.472 150 16 0
