# .PCD v0.7 - Point Cloud Data file format
VERSION 0.7
FIELDS x y z intensity tag line
SIZE 4 4 4 4 1 1
TYPE F F F F U U
COUNT 1 1 1 1 1 1
WIDTH 1356
HEIGHT 1
VIEWPOINT 0 0 0 1 0 0 0
POINTS 1356
DATA ascii
2.013 -0.44400001 -1.03 133 16 0
2.0209999 -0.442 -1.029 131 16 0
2.026 -0.43900001 -1.027 120 16 0
2.0280001 -0.435 -1.023 118 16 0
2.039 -0.43399999 -1.023 119 16 0
2.0450001 -0.43099999 -1.021 123 16 0
2.053 -0.428 -1.02 129 16 0
2.059 -0.426 -1.018 130 16 0
2.0610001 -0.42199999 -1.0140001 116 16 0
2.0739999 -0.41999999 -1.015 130 16 0
2.0829999 -0.41800001 -1.0140001 125 16 0
2.089 -0.41499999 -1.011 123 16 0
2.0969999 -0.41299999 -1.0089999 121 16 0
2.102 -0.41 -1.006 127 16 0
2.109 -0.40700001 -1.0039999 117 16 0
2.118 -0.405 -1.003 115 16 0
2.1210001 -0.40099999 -0.99800003 119 16 0
2.1289999 -0.398 -0.99599999 117 16 0
2.135 -0.39500001 -0.99299997 118 16 0
2.1370001 -0.39199999 -0.98799998 85 16 0
2.152 -0.38999999 -0.98900002 87 16 0
2.1630001 -0.38800001 -0.98799998 82 16 0
2.165 -0.38499999 -0.98299998 82 16 0
2.177 -0.38299999 -0.98299998 77 16 0
2.1830001 -0.38 -0.97899997 101 16 0
2.191 -0.377 -0.977 95 16 0
2.1949999 -0.37400001 -0.972 92 16 0
2.2060001 -0.37200001 -0.97100002 93 16 0
2.211 -0.368 -0.96700001 97 16 0
2.223 -0.366 -0.96600002 90 16 0
2.233 -0.36399999 -0.96399999 92 16 0
2.2360001 -0.361 -0.95899999 91 16 0
2.247 -0.35800001 -0.95700002 93 16 0
2.25 -0.35499999 -0.95099998 95 16 0
2.2590001 -0.352 -0.949 94 16 0
2.2679999 -0.34999999 -0.94599998 96 16 0
2.276 -0.347 -0.94300002 96 16 0
2.2809999 -0.34400001 -0.93800002 95 16 0
2.2880001 -0.34099999 -0.93400002 86 16 0
2.3 -0.33899999 -0.93199998 78 16 0
2.302 -0.33500001 -0.926 85 16 0
2.312 -0.333 -0.92400002 75 16 0
2.3169999 -0.33000001 -0.91900003 79 16 0
2.3269999 -0.32699999 -0.91600001 84 16 0
2.3369999 -0.32499999 -0.912 84 16 0
2.3410001 -0.322 -0.90700001 75 16 0
2.349 -0.31900001 -0.903 82 16 0
2.359 -0.31600001 -0.89999998 76 16 0
2.362 -0.31299999 -0.89399999 75 16 0
2.3710001 -0.31 -0.88999999 75 16 0
2.3789999 -0.308 -0.88599998 78 16 0
2.3900001 -0.30500001 -0.88300002 72 16 0
2.3940001 -0.30199999 -0.87699997 71 16 0
2.404 -0.30000001 -0.87400001 68 16 0
2.4100001 -0.29699999 -0.86799997 63 16 0
2.4219999 -0.294 -0.86500001 70 16 0
2.4330001 -0.292 -0.86199999 69 16 0
2.438 -0.289 -0.85600001 77 16 0
2.4430001 -0.28600001 -0.85000002 69 16 0
2.451 -0.28299999 -0.84600002 60 16 0
2.4560001 -0.28 -0.83999997 70 16 0
2.4679999 -0.278 -0.83600003 68 16 0
2.474 -0.27500001 -0.83099997 70 16 0
2.4820001 -0.27200001 -0.82599998 65 16 0
2.493 -0.27000001 -0.82200003 67 16 0
2.4990001 -0.26699999 -0.81599998 66 16 0
2.5079999 -0.264 -0.81099999 65 16 0
2.5139999 -0.26100001 -0.80500001 71 16 0
2.5250001 -0.259 -0.801 64 16 0
2.5309999 -0.25600001 -0.79500002 62 16 0
2.5409999 -0.25299999 -0.79100001 64 16 0
2.5510001 -0.25099999 -0.78600001 59 16 0
2.5569999 -0.248 -0.77999997 59 16 0
2.5680001 -0.245 -0.77499998 62 16 0
2.573 -0.242 -0.76899999 49 16 0
2.5780001 -0.23899999 -0.76200002 47 16 0
2.5899999 -0.237 -0.75800002 59 16 0
2.599 -0.234 -0.75199997 60 16 0
2.6099999 -0.23199999 -0.74800003 62 16 0
2.6159999 -0.229 -0.741 58 16 0
2.6240001 -0.226 -0.73500001 51 16 0
2.632 -0.223 -0.72899997 44 16 0
2.638 -0.221 -0.72299999 48 16 0
2.6459999 -0.21799999 -0.71700001 53 16 0
2.654 -0.215 -0.70999998 38 16 0
2.6589999 -0.212 -0.70300001 37 16 0
2.665 -0.20900001 -0.69700003 36 16 0
2.6830001 -0.207 -0.69300002 38 16 0
2.687 -0.204 -0.68599999 37 16 0
2.6960001 -0.20200001 -0.68000001 39 16 0
2.704 -0.199 -0.67299998 30 16 0
2.7149999 -0.197 -0.667 30 16 0
2.721 -0.19400001 -0.66000003 29 16 0
2.73 -0.191 -0.65399998 31 16 0
2.737 -0.18799999 -0.64700001 29 16 0
2.744 -0.186 -0.63999999 29 16 0
2.7509999 -0.183 -0.63300002 30 16 0
2.767 -0.18099999 -0.62800002 30 16 0
2.7709999 -0.178 -0.62099999 29 16 0
2.7820001 -0.176 -0.61400002 29 16 0
2.789 -0.17299999 -0.60699999 29 16 0
2.7909999 -0.17 -0.59899998 29 16 0
2.8050001 -0.167 -0.59299999 28 16 0
2.8139999 -0.16500001 -0.58600003 29 16 0
2.8280001 -0.163 -0.57999998 29 16 0
2.8299999 -0.16 -0.57200003 29 16 0
2.839 -0.15700001 -0.56400001 30 16 0
2.8469999 -0.154 -0.55699998 30 16 0
2.8610001 -0.152 -0.551 30 16 0
2.8659999 -0.149 -0.54299998 30 16 0
2.8699999 -0.146 -0.53500003 30 16 0
2.882 -0.14399999 -0.528 29 16 0
2.8929999 -0.142 -0.52100003 30 16 0
2.905 -0.139 -0.514 29 16 0
2.9100001 -0.13600001 -0.50599998 30 16 0
2.9189999 -0.134 -0.498 29 16 0
2.9330001 -0.132 -0.491 30 16 0
2.9349999 -0.12899999 -0.48199999 29 16 0
2.9460001 -0.126 -0.47499999 28 16 0
2.951 -0.123 -0.46700001 29 16 0
2.9619999 -0.121 -0.45899999 28 16 0
2.97 -0.118 -0.45100001 29 16 0
2.977 -0.116 -0.44299999 29 16 0
2.994 -0.114 -0.43599999 30 16 0
3.0050001 -0.111 -0.428 30 16 0
3.016 -0.109 -0.41999999 30 16 0
3.023 -0.106 -0.41100001 31 16 0
3.0280001 -0.103 -0.403 30 16 0
3.0380001 -0.101 -0.39500001 29 16 0
3.052 -0.097999997 -0.38699999 26 16 0
3.0610001 -0.096000001 -0.37799999 27 16 0
3.0669999 -0.093000002 -0.36899999 27 16 0
3.0780001 -0.090999998 -0.361 27 16 0
3.086 -0.088 -0.352 27 16 0
3.092 -0.086000003 -0.34299999 27 16 0
3.1029999 -0.082999997 -0.33500001 27 16 0
3.1159999 -0.081 -0.32600001 29 16 0
3.1199999 -0.078000002 -0.317 33 16 0
3.132 -0.075999998 -0.30899999 49 16 0
3.135 -0.072999999 -0.29899999 109 16 0
3.1400001 -0.071000002 -0.28999999 150 16 0
3.145 -0.068000004 -0.28 150 16 0
3.148 -0.064999998 -0.271 150 16 0
3.1489999 -0.063000001 -0.26100001 150 16 0
3.148 -0.059999999 -0.25099999 150 16 0
3.1589999 -0.057999998 -0.242 150 16 0
3.1630001 -0.055 -0.23199999 150 16 0
3.1630001 -0.052999999 -0.222 150 16 0
3.171 -0.050000001 -0.213 150 16 0
3.1719999 -0.048 -0.20299999 150 16 0
3.177 -0.045000002 -0.193 150 16 0
3.177 -0.043000001 -0.183 150 16 0
3.1819999 -0.039999999 -0.17299999 150 16 0
3.184 -0.037999999 -0.163 150 16 0
3.1900001 -0.035 -0.154 150 16 0
3.1960001 -0.033 -0.14399999 150 16 0
3.1930001 -0.029999999 -0.134 150 16 0
3.1989999 -0.028000001 -0.124 150 16 0
3.201 -0.026000001 -0.114 150 16 0
3.204 -0.023 -0.104 150 16 0
3.211 -0.021 -0.093999997 128 16 0
3.21 -0.018999999 -0.083999999 66 16 0
3.217 -0.016000001 -0.074000001 45 16 0
3.2260001 -0.014 -0.064000003 36 16 0
3.2219999 -0.012 -0.054000001 29 16 0
3.2309999 -0.0089999996 -0.044 22 16 0
3.2420001 -0.0070000002 -0.033 21 16 0
3.2520001 -0.0049999999 -0.023 18 16 0
3.2650001 -0.0020000001 -0.013 19 16 0
3.2709999 0 -0.003 19 16 0
3.2820001 0.001 0.0070000002 19 16 0
3.2939999 0.003 0.017000001 20 16 0
3.299 0.0060000001 0.028000001 19 16 0
3.3110001 0.0080000004 0.037999999 20 16 0
3.3169999 0.0099999998 0.048999999 20 16 0
3.326 0.012 0.059 21 16 0
3.3399999 0.014 0.07 22 16 0
3.3429999 0.017000001 0.081 30 16 0
3.335 0.018999999 0.090999998 43 16 0
3.3110001 0.021 0.101 34 16 0
3.2880001 0.023 0.111 47 16 0
3.2780001 0.025 0.121 150 16 0
3.2780001 0.027000001 0.131 150 16 0
3.2820001 0.028999999 0.142 150 16 0
3.29 0.030999999 0.153 150 16 0
3.2909999 0.033 0.163 150 16 0
3.2950001 0.035 0.17399999 150 16 0
3.2969999 0.037 0.185 150 16 0
3.302 0.039000001 0.19499999 150 16 0
3.3069999 0.041000001 0.206 150 16 0
3.313 0.043000001 0.21699999 150 16 0
3.3080001 0.045000002 0.228 150 16 0
3.3199999 0.046999998 0.23899999 150 16 0
3.323 0.048999999 0.25 150 16 0
3.323 0.050999999 0.26100001 150 16 0
3.329 0.052999999 0.27200001 150 16 0
3.335 0.054000001 0.28299999 150 16 0
3.3369999 0.056000002 0.294 150 16 0
3.3399999 0.057999998 0.30500001 150 16 0
3.3440001 0.059999999 0.31600001 150 16 0
3.3510001 0.061999999 0.32699999 150 16 0
3.3540001 0.064000003 0.338 150 16 0
3.3610001 0.066 0.34999999 150 16 0
3.349 0.067000002 0.359 49 16 0
3.3199999 0.068000004 0.36700001 36 16 0
3.3050001 0.068999998 0.37599999 38 16 0
3.2880001 0.071000002 0.38499999 37 16 0
3.2679999 0.071999997 0.39300001 36 16 0
3.2509999 0.072999999 0.40099999 37 16 0
3.2320001 0.074000001 0.40900001 40 16 0
3.211 0.075000003 0.417 38 16 0
3.194 0.075999998 0.42500001 38 16 0
3.175 0.077 0.433 38 16 0
3.161 0.078000002 0.442 39 16 0
3.145 0.079000004 0.449 38 16 0
3.1170001 0.079999998 0.456 37 16 0
3.1059999 0.081 0.46399999 36 16 0
3.0829999 0.082000002 0.47099999 36 16 0
3.0639999 0.082000002 0.47799999 37 16 0
3.0539999 0.082999997 0.486 37 16 0
3.0350001 0.083999999 0.493 38 16 0
3.02 0.085000001 0.5 41 16 0
3.003 0.086000003 0.50700003 40 16 0
2.9909999 0.086000003 0.51499999 40 16 0
2.9749999 0.086999997 0.52200001 38 16 0
2.96 0.088 0.52899998 41 16 0
2.9400001 0.088 0.53500003 43 16 0
2.925 0.089000002 0.542 43 16 0
2.904 0.089000002 0.54799998 40 16 0
2.8889999 0.090000004 0.55400002 43 16 0
2.8770001 0.090000004 0.56099999 41 16 0
2.859 0.090999998 0.56699997 41 16 0
2.8440001 0.090999998 0.574 42 16 0
2.835 0.092 0.58099997 87 16 0
2.8169999 0.092 0.58700001 115 16 0
2.8080001 0.093000002 0.59399998 106 16 0
2.789 0.093000002 0.60000002 85 16 0
2.7750001 0.093000002 0.60600001 96 16 0
2.767 0.093999997 0.61299998 93 16 0
2.7520001 0.093999997 0.61900002 93 16 0
2.7349999 0.093999997 0.62400001 92 16 0
2.727 0.094999999 0.63099998 99 16 0
2.71 0.094999999 0.63700002 97 16 0
2.6930001 0.094999999 0.64200002 105 16 0
2.6849999 0.094999999 0.648 111 16 0
2.6760001 0.094999999 0.65499997 120 16 0
2.6570001 0.094999999 0.65899998 117 16 0
2.6429999 0.094999999 0.66500002 135 16 0
2.6359999 0.096000001 0.67199999 124 16 0
2.628 0.096000001 0.67900002 118 16 0
2.609 0.096000001 0.68199998 117 16 0
2.5969999 0.096000001 0.68800002 111 16 0
2.586 0.096000001 0.69400001 122 16 0
2.575 0.096000001 0.69999999 119 16 0
2.559 0.096000001 0.704 126 16 0
2.55 0.096000001 0.70999998 120 16 0
2.539 0.096000001 0.71499997 125 16 0
2.5250001 0.096000001 0.72000003 131 16 0
2.5120001 0.094999999 0.72500002 126 16 0
2.506 0.094999999 0.73100001 135 16 0
2.4909999 0.094999999 0.736 133 16 0
2.4790001 0.094999999 0.74000001 127 16 0
2.4690001 0.094999999 0.745 141 16 0
2.4530001 0.093999997 0.74900001 125 16 0
2.4430001 0.093999997 0.75400001 128 16 0
2.4330001 0.093999997 0.759 127 16 0
2.424 0.093999997 0.76499999 150 16 0
2.4119999 0.093000002 0.76899999 150 16 0
2.4030001 0.093000002 0.77399999 150 16 0
2.392 0.093000002 0.77899998 150 16 0
2.3859999 0.093000002 0.78500003 150 16 0
2.375 0.092 0.78899997 150 16 0
2.3659999 0.092 0.79400003 150 16 0
2.355 0.090999998 0.79900002 150 16 0
2.3499999 0.090999998 0.80500001 150 16 0
2.3340001 0.090000004 0.80800003 150 16 0
2.3269999 0.090000004 0.81300002 150 16 0
2.313 0.089000002 0.81599998 150 16 0
2.2980001 0.089000002 0.81900001 150 16 0
2.2920001 0.088 0.824 150 16 0
2.286 0.088 0.82999998 150 16 0
2.277 0.086999997 0.83399999 150 16 0
2.2650001 0.086999997 0.838 150 16 0
2.256 0.086000003 0.84200001 150 16 0
2.2449999 0.085000001 0.84500003 150 16 0
2.2390001 0.085000001 0.85100001 150 16 0
2.2309999 0.083999999 0.85500002 150 16 0
2.217 0.082999997 0.85799998 150 16 0
2.207 0.082000002 0.861 150 16 0
2.201 0.082000002 0.86699998 150 16 0
2.1900001 0.081 0.86900002 150 16 0
2.177 0.079999998 0.87199998 150 16 0
2.1730001 0.079000004 0.87800002 150 16 0
2.164 0.079000004 0.88200003 150 16 0
2.1570001 0.078000002 0.88599998 150 16 0
2.145 0.077 0.88800001 150 16 0
2.135 0.075999998 0.89200002 150 16 0
2.1270001 0.075000003 0.89499998 150 16 0
2.1240001 0.074000001 0.90100002 150 16 0
2.109 0.072999999 0.90200001 150 16 0
2.1070001 0.072999999 0.90799999 150 16 0
2.0969999 0.071999997 0.91100001 150 16 0
2.0910001 0.071000002 0.91500002 150 16 0
2.085 0.07 0.92000002 150 16 0
2.076 0.068999998 0.92299998 150 16 0
2.0680001 0.068000004 0.92699999 150 16 0
2.062 0.067000002 0.93099999 150 16 0
2.056 0.066 0.935 150 16 0
2.0469999 0.064000003 0.93800002 150 16 0
2.036 0.063000001 0.94 150 16 0
2.026 0.061999999 0.94199997 150 16 0
2.017 0.061000001 0.94400001 150 16 0
2.0109999 0.059999999 0.94800001 150 16 0
2 0.057999998 0.949 150 16 0
1.993 0.057 0.95300001 150 16 0
1.987 0.056000002 0.95700002 150 16 0
1.978 0.055 0.95899999 150 16 0
1.974 0.054000001 0.963 150 16 0
1.966 0.052000001 0.96600002 150 16 0
1.9579999 0.050999999 0.96899998 150 16 0
1.956 0.050000001 0.97399998 150 16 0
1.9450001 0.048999999 0.97500002 150 16 0
1.937 0.046999998 0.977 150 16 0
1.929 0.046 0.98000002 150 16 0
1.924 0.044 0.98299998 150 16 0
1.9170001 0.043000001 0.986 150 16 0
1.911 0.041999999 0.98900002 150 16 0
1.903 0.039999999 0.991 150 16 0
1.895 0.039000001 0.99199998 150 16 0
1.891 0.037 0.99599999 150 16 0
1.881 0.035999998 0.99699998 150 16 0
1.875 0.034000002 1 150 16 0
1.8660001 0.033 1.001 150 16 0
1.86 0.030999999 1.0039999 150 16 0
1.855 0.029999999 1.007 150 16 0
1.853 0.028000001 1.012 150 16 0
1.849 0.027000001 1.015 150 16 0
1.842 0.025 1.017 150 16 0
1.834 0.023 1.018 150 16 0
1.829 0.022 1.021 150 16 0
1.825 0.02 1.025 150 16 0
1.814 0.018999999 1.024 150 16 0
1.812 0.017000001 1.028 150 16 0
1.807 0.015 1.03 150 16 0
1.8 0.013 1.0319999 150 16 0
1.794 0.012 1.033 150 16 0
1.777 0.0099999998 1.029 150 19 0
1.775 0.0080000004 1.033 150 16 0
1.772 0.0070000002 1.0369999 150 16 0
1.765 0.0049999999 1.0369999 150 16 0
1.761 0.003 1.04 150 16 0
1.7589999 0.001 1.044 150 16 0
1.757 0 1.0470001 150 16 0
1.752 -0.001 1.049 150 16 0
1.75 -0.003 1.053 150 16 0
1.744 -0.0049999999 1.054 150 16 0
1.74 -0.0070000002 1.056 150 16 0
1.738 -0.0089999996 1.0599999 150 16 0
1.733 -0.011 1.061 150 16 0
1.728 -0.013 1.062 150 16 0
1.722 -0.015 1.064 150 16 0
1.714 -0.016000001 1.063 150 16 0
1.712 -0.017999999 1.066 150 16 0
1.706 -0.02 1.067 150 16 0
1.704 -0.022 1.069 150 16 0
1.702 -0.024 1.072 150 16 0
1.6950001 -0.026000001 1.072 150 16 0
1.692 -0.028000001 1.074 150 16 0
1.689 -0.029999999 1.076 150 16 0
1.688 -0.032000002 1.079 150 16 0
1.687 -0.035 1.082 150 16 0
1.682 -0.035999998 1.0829999 150 16 0
1.677 -0.039000001 1.0829999 150 16 0
1.673 -0.041000001 1.085 150 16 0
1.669 -0.043000001 1.085 150 16 0
1.669 -0.045000002 1.089 150 16 0
1.664 -0.046999998 1.089 150 16 0
1.663 -0.048999999 1.091 150 16 0
1.661 -0.050999999 1.094 150 16 0
1.655 -0.052999999 1.0930001 150 16 0
1.646 -0.055 1.09 150 16 0
1.645 -0.057 1.092 150 16 0
1.643 -0.059999999 1.094 150 16 0
1.64 -0.061999999 1.095 150 16 0
1.6390001 -0.064000003 1.097 150 16 0
1.638 -0.066 1.099 150 16 0
1.636 -0.068000004 1.101 150 16 0
1.633 -0.071000002 1.101 150 16 0
1.641 -0.072999999 1.108 150 19 0
1.635 -0.075000003 1.107 150 16 0
1.6339999 -0.078000002 1.109 146 16 0
1.635 -0.079999998 1.112 150 16 0
1.625 -0.082000002 1.107 150 19 0
1.62 -0.083999999 1.1059999 150 16 0
1.619 -0.086000003 1.107 150 16 0
1.612 -0.088 1.104 150 16 0
1.6109999 -0.090999998 1.1059999 150 16 0
1.61 -0.093000002 1.1059999 150 16 0
1.609 -0.094999999 1.107 150 16 0
1.608 -0.097000003 1.108 150 16 0
1.607 -0.1 1.109 150 16 0
1.605 -0.102 1.109 150 16 0
1.6059999 -0.104 1.112 150 16 0
1.605 -0.107 1.112 150 16 0
1.604 -0.109 1.112 150 16 0
1.604 -0.111 1.114 150 16 0
1.603 -0.114 1.114 150 16 0
1.596 -0.115 1.11 150 19 0
1.602 -0.118 1.115 150 16 0
1.599 -0.12 1.113 150 16 0
1.601 -0.123 1.115 150 16 0
1.598 -0.125 1.114 150 16 0
1.599 -0.127 1.115 150 16 0
1.597 -0.12899999 1.114 150 16 0
1.598 -0.132 1.115 150 16 0
1.596 -0.134 1.114 150 16 0
1.596 -0.13600001 1.114 150 16 0
1.598 -0.139 1.115 150 16 0
1.598 -0.141 1.115 150 16 0
1.597 -0.14300001 1.115 150 16 0
1.597 -0.145 1.115 150 16 0
1.599 -0.148 1.115 150 16 0
1.599 -0.15000001 1.115 150 16 0
1.599 -0.152 1.115 150 16 0
1.599 -0.154 1.114 150 16 0
1.6 -0.15700001 1.114 150 16 0
1.6 -0.15899999 1.113 150 16 0
1.599 -0.161 1.112 150 16 0
1.602 -0.163 1.113 150 16 0
1.601 -0.16500001 1.1109999 150 16 0
1.602 -0.168 1.11 150 16 0
1.602 -0.17 1.11 150 16 0
1.603 -0.17200001 1.109 150 16 0
1.607 -0.17399999 1.11 150 16 0
1.603 -0.176 1.1059999 150 16 0
1.608 -0.17900001 1.108 150 16 0
1.6109999 -0.18099999 1.108 150 16 0
1.6109999 -0.183 1.107 150 16 0
1.613 -0.185 1.107 150 16 0
1.613 -0.18700001 1.104 150 16 0
1.615 -0.189 1.104 150 16 0
1.617 -0.191 1.103 150 16 0
1.622 -0.19400001 1.105 150 16 0
1.619 -0.19499999 1.1 150 16 0
1.625 -0.198 1.102 150 16 0
1.627 -0.2 1.101 150 16 0
1.63 -0.20200001 1.101 150 16 0
1.631 -0.204 1.099 150 16 0
1.632 -0.206 1.097 150 16 0
1.633 -0.208 1.095 150 16 0
1.643 -0.211 1.099 150 19 0
1.648 -0.213 1.099 150 16 0
1.649 -0.215 1.097 150 16 0
1.652 -0.21699999 1.096 150 16 0
1.655 -0.219 1.095 150 16 0
1.655 -0.22 1.091 150 16 0
1.658 -0.222 1.091 150 16 0
1.661 -0.22400001 1.089 150 16 0
1.665 -0.226 1.0880001 150 16 0
1.663 -0.227 1.084 150 16 0
1.671 -0.23 1.085 150 16 0
1.6720001 -0.23199999 1.082 150 16 0
1.675 -0.233 1.081 150 16 0
1.6799999 -0.235 1.08 150 16 0
1.686 -0.237 1.08 150 16 0
1.687 -0.23899999 1.077 150 16 0
1.698 -0.242 1.08 150 19 0
1.7029999 -0.244 1.079 136 16 0
1.705 -0.245 1.076 118 16 0
1.7079999 -0.24699999 1.074 114 16 0
1.711 -0.248 1.072 134 16 0
1.717 -0.25 1.071 150 16 0
1.7180001 -0.252 1.068 150 16 0
1.722 -0.25299999 1.066 150 16 0
1.725 -0.255 1.063 150 16 0
1.729 -0.25600001 1.061 150 16 0
1.732 -0.25799999 1.058 150 16 0
1.735 -0.259 1.0549999 150 16 0
1.739 -0.25999999 1.053 150 16 0
1.7410001 -0.26100001 1.049 150 16 0
1.745 -0.26300001 1.0470001 150 16 0
1.761 -0.266 1.052 150 19 0
1.766 -0.26800001 1.05 150 16 0
1.771 -0.26899999 1.048 150 16 0
1.778 -0.271 1.0470001 150 16 0
1.779 -0.271 1.0420001 150 16 0
1.791 -0.27399999 1.044 150 16 0
1.793 -0.27500001 1.04 150 16 0
1.798 -0.27599999 1.038 150 16 0
1.806 -0.278 1.0369999 150 16 0
1.808 -0.27900001 1.033 150 16 0
1.816 -0.28 1.0319999 150 16 0
1.8200001 -0.28099999 1.029 150 16 0
1.824 -0.28200001 1.026 150 16 0
1.829 -0.28400001 1.023 150 16 0
1.836 -0.285 1.021 150 16 0
1.8380001 -0.28600001 1.017 150 16 0
1.849 -0.287 1.017 150 16 0
1.853 -0.28799999 1.0140001 150 16 0
1.863 -0.28999999 1.013 150 16 0
1.869 -0.29100001 1.01 150 16 0
1.876 -0.292 1.0089999 150 16 0
1.88 -0.29300001 1.005 150 16 0
1.882 -0.29300001 1 150 16 0
1.895 -0.29499999 1.001 150 16 0
1.901 -0.296 0.99800003 150 16 0
1.9069999 -0.29699999 0.995 150 16 0
1.913 -0.29800001 0.99199998 150 16 0
1.9220001 -0.29899999 0.991 150 16 0
1.929 -0.30000001 0.98799998 150 16 0
1.934 -0.301 0.98400003 150 16 0
1.9400001 -0.301 0.98100001 150 16 0
1.949 -0.303 0.97899997 150 16 0
1.9579999 -0.30399999 0.977 150 16 0
1.964 -0.30399999 0.97399998 150 16 0
1.967 -0.30399999 0.96799999 150 16 0
1.975 -0.30500001 0.96600002 150 16 0
1.979 -0.30500001 0.96100003 150 16 0
1.982 -0.30500001 0.95599997 150 16 0
2.003 -0.308 0.95999998 145 19 0
2.01 -0.30899999 0.95599997 139 16 0
2.0179999 -0.30899999 0.954 149 16 0
2.0250001 -0.31 0.94999999 141 16 0
2.0369999 -0.31099999 0.949 150 16 0
2.039 -0.31099999 0.94300002 139 16 0
2.0480001 -0.31099999 0.94099998 134 16 0
2.0550001 -0.31099999 0.93699998 141 16 0
2.0599999 -0.31099999 0.93199998 150 16 0
2.0710001 -0.31200001 0.93099999 145 16 0
2.0799999 -0.31299999 0.92799997 131 16 0
2.0829999 -0.31200001 0.92199999 144 16 0
2.0899999 -0.31299999 0.91799998 123 16 0
2.1010001 -0.31299999 0.91600001 125 16 0
2.1110001 -0.31400001 0.91299999 136 16 0
2.1159999 -0.31299999 0.90799999 132 16 0
2.1289999 -0.31400001 0.90600002 127 16 0
2.1329999 -0.31400001 0.90100002 131 16 0
2.1389999 -0.31400001 0.89600003 135 16 0
2.1530001 -0.315 0.89499998 140 16 0
2.161 -0.315 0.89099997 138 16 0
2.1689999 -0.31400001 0.88700002 128 16 0
2.177 -0.31400001 0.88300002 89 16 0
2.188 -0.315 0.88 86 16 0
2.1949999 -0.31400001 0.87599999 83 16 0
2.201 -0.31400001 0.87 83 16 0
2.211 -0.31400001 0.86699998 79 16 0
2.22 -0.31400001 0.86299998 77 16 0
2.233 -0.31400001 0.861 92 16 0
2.2460001 -0.315 0.85799998 90 16 0
2.2509999 -0.31400001 0.85299999 94 16 0
2.2579999 -0.31299999 0.84799999 95 16 0
2.27 -0.31299999 0.84500003 85 16 0
2.2750001 -0.31299999 0.83899999 87 16 0
2.2869999 -0.31299999 0.83600003 77 16 0
2.2969999 -0.31200001 0.83099997 74 16 0
2.3080001 -0.31200001 0.82800001 83 16 0
2.3180001 -0.31200001 0.824 76 16 0
2.3269999 -0.31099999 0.81900001 79 16 0
2.3380001 -0.31099999 0.815 91 16 0
2.3469999 -0.31 0.81099999 81 16 0
2.3540001 -0.30899999 0.80500001 73 16 0
2.365 -0.30899999 0.801 80 16 0
2.3759999 -0.308 0.79699999 77 16 0
2.3840001 -0.30700001 0.792 70 16 0
2.395 -0.30700001 0.78799999 73 16 0
2.4059999 -0.30599999 0.78299999 74 16 0
2.411 -0.30500001 0.77700001 72 16 0
2.4289999 -0.30500001 0.77499998 80 16 0
2.4349999 -0.30399999 0.76899999 69 16 0
2.4430001 -0.303 0.76300001 70 16 0
2.46 -0.30199999 0.75999999 61 16 0
2.4690001 -0.301 0.755 62 16 0
2.4790001 -0.30000001 0.75 67 16 0
2.4890001 -0.29899999 0.745 61 16 0
2.5020001 -0.29899999 0.741 60 16 0
2.5079999 -0.29699999 0.73500001 63 16 0
2.5250001 -0.29699999 0.73100001 63 16 0
2.5380001 -0.296 0.727 61 16 0
2.5450001 -0.294 0.72000003 56 16 0
2.556 -0.29300001 0.71499997 58 16 0
2.566 -0.292 0.70999998 57 16 0
2.5769999 -0.29100001 0.70499998 52 16 0
2.5940001 -0.28999999 0.70099998 62 16 0
2.6029999 -0.28799999 0.69499999 53 16 0
2.615 -0.287 0.69 47 16 0
2.6259999 -0.28600001 0.68400002 48 16 0
2.6370001 -0.28400001 0.67799997 36 16 0
2.6459999 -0.28200001 0.67199999 34 16 0
2.6600001 -0.28099999 0.667 34 16 0
2.6700001 -0.28 0.66100001 34 16 0
2.684 -0.278 0.65600002 29 16 0
2.6960001 -0.27700001 0.65100002 28 16 0
2.701 -0.27399999 0.64300001 29 16 0
2.72 -0.273 0.639 29 16 0
2.73 -0.271 0.63300002 29 16 0
2.7449999 -0.27000001 0.62699997 29 16 0
2.753 -0.26800001 0.62099999 29 16 0
2.77 -0.266 0.616 29 16 0
2.786 -0.26499999 0.611 28 16 0
2.799 -0.26300001 0.60500002 29 16 0
2.8110001 -0.26100001 0.59799999 28 16 0
2.8239999 -0.259 0.59200001 28 16 0
2.8340001 -0.257 0.58499998 28 16 0
2.8499999 -0.255 0.57999998 27 16 0
2.8629999 -0.25299999 0.57300001 28 16 0
2.878 -0.25099999 0.56699997 28 16 0
2.891 -0.249 0.56099999 28 16 0
2.908 -0.24699999 0.55500001 29 16 0
2.9189999 -0.244 0.54799998 27 16 0
2.9360001 -0.242 0.542 28 16 0
2.9449999 -0.23999999 0.53500003 28 16 0
2.967 -0.23800001 0.52999997 29 16 0
2.977 -0.235 0.52200001 28 16 0
2.993 -0.233 0.51599997 29 16 0
3.0039999 -0.23 0.509 30 16 0
3.03 -0.229 0.50400001 29 16 0
3.0420001 -0.226 0.49599999 28 16 0
3.053 -0.223 0.48899999 29 16 0
3.0680001 -0.22 0.48199999 28 16 0
3.0929999 -0.21799999 0.47600001 29 16 0
3.1059999 -0.215 0.46900001 34 16 0
3.122 -0.213 0.46200001 37 16 0
3.1340001 -0.20900001 0.454 36 16 0
3.1440001 -0.206 0.44600001 30 16 0
3.1489999 -0.20299999 0.43700001 25 16 0
3.158 -0.199 0.42899999 26 16 0
3.1559999 -0.19499999 0.419 25 16 0
3.1619999 -0.192 0.41 25 16 0
3.1659999 -0.18799999 0.40099999 25 16 0
3.1689999 -0.184 0.39199999 25 16 0
3.178 -0.18000001 0.38299999 25 16 0
3.181 -0.176 0.37400001 25 16 0
3.1849999 -0.17299999 0.36500001 23 16 0
3.1919999 -0.169 0.35600001 23 16 0
3.1930001 -0.16500001 0.347 23 16 0
3.2019999 -0.161 0.338 22 16 0
3.2060001 -0.15700001 0.329 21 16 0
3.21 -0.153 0.31999999 24 16 0
3.217 -0.149 0.31099999 24 16 0
3.224 -0.145 0.30199999 24 16 0
3.227 -0.141 0.29300001 24 16 0
3.2349999 -0.13699999 0.28400001 23 16 0
3.2379999 -0.133 0.27399999 24 16 0
3.25 -0.12899999 0.266 24 16 0
3.2509999 -0.124 0.25600001 24 16 0
3.2609999 -0.12 0.24699999 24 16 0
3.266 -0.116 0.23800001 24 16 0
3.27 -0.112 0.229 24 16 0
3.2709999 -0.107 0.219 23 16 0
3.283 -0.103 0.20999999 24 16 0
3.2850001 -0.098999999 0.20100001 23 16 0
3.2950001 -0.094999999 0.192 24 16 0
3.303 -0.090000004 0.183 24 16 0
3.3080001 -0.086000003 0.17299999 23 16 0
3.3099999 -0.081 0.164 23 16 0
3.3199999 -0.077 0.154 24 16 0
3.3310001 -0.071999997 0.145 32 16 0
3.325 -0.067000002 0.13500001 52 16 0
3.326 -0.063000001 0.125 107 16 0
3.319 -0.057999998 0.116 111 16 0
3.306 -0.052999999 0.105 70 16 0
3.3039999 -0.048 0.096000001 81 16 0
3.2939999 -0.043000001 0.086000003 63 16 0
3.29 -0.037999999 0.075999998 71 16 0
3.2820001 -0.034000002 0.067000002 76 16 0
3.2709999 -0.028999999 0.057 77 16 0
3.267 -0.024 0.046999998 69 16 0
3.2639999 -0.018999999 0.037999999 36 16 0
3.2579999 -0.014 0.028000001 22 16 0
3.2639999 -0.0099999998 0.018999999 16 16 0
3.276 -0.0049999999 0.0099999998 15 16 0
3.279 0 0 15 16 0
3.2909999 0.0040000002 -0.0080000004 15 16 0
3.299 0.0089999996 -0.017999999 16 16 0
3.302 0.014 -0.027000001 16 16 0
3.3099999 0.018999999 -0.037 21 16 0
3.312 0.024 -0.046 31 16 0
3.3050001 0.028999999 -0.056000002 41 16 0
3.293 0.034000002 -0.064999998 52 16 0
3.289 0.039000001 -0.074000001 52 16 0
3.283 0.044 -0.082999997 48 16 0
3.2780001 0.048999999 -0.093000002 41 16 0
3.2709999 0.054000001 -0.102 35 16 0
3.263 0.057999998 -0.111 39 16 0
3.2590001 0.063000001 -0.12 53 16 0
3.25 0.068000004 -0.12899999 53 16 0
3.2460001 0.072999999 -0.138 56 16 0
3.2390001 0.078000002 -0.147 54 16 0
3.233 0.082999997 -0.156 53 16 0
3.2279999 0.088 -0.16500001 52 16 0
3.2149999 0.093000002 -0.17299999 51 16 0
3.2149999 0.097999997 -0.182 58 16 0
3.204 0.103 -0.191 59 16 0
3.197 0.107 -0.199 54 16 0
3.1930001 0.112 -0.208 51 16 0
3.181 0.117 -0.21600001 51 16 0
3.1789999 0.122 -0.22499999 50 16 0
3.178 0.127 -0.234 59 16 0
3.165 0.132 -0.242 52 16 0
3.1559999 0.13699999 -0.25 55 16 0
3.155 0.142 -0.259 65 16 0
3.148 0.147 -0.26699999 50 16 0
3.1389999 0.15099999 -0.27500001 51 16 0
3.132 0.156 -0.28299999 60 16 0
3.1229999 0.161 -0.29100001 59 16 0
3.118 0.16599999 -0.30000001 50 16 0
3.1099999 0.171 -0.308 49 16 0
3.108 0.176 -0.31600001 66 16 0
3.102 0.18099999 -0.324 62 16 0
3.0969999 0.186 -0.333 60 16 0
3.0899999 0.19 -0.34 49 16 0
3.0799999 0.19499999 -0.34799999 64 16 0
3.0739999 0.2 -0.35600001 63 16 0
3.0699999 0.205 -0.36399999 65 16 0
3.0639999 0.20999999 -0.37200001 59 16 0
3.0550001 0.214 -0.37900001 61 16 0
3.049 0.219 -0.38699999 61 16 0
3.046 0.22400001 -0.39500001 66 16 0
3.0420001 0.229 -0.403 80 16 0
3.03 0.234 -0.41 70 16 0
3.0250001 0.23899999 -0.41800001 80 16 0
3.0220001 0.244 -0.42500001 56 16 0
3.0120001 0.248 -0.43200001 63 16 0
3.01 0.25299999 -0.44 70 16 0
3.0020001 0.25799999 -0.44800001 82 16 0
3 0.26300001 -0.45500001 79 16 0
2.993 0.26800001 -0.463 79 16 0
2.987 0.273 -0.47 83 16 0
2.9790001 0.278 -0.477 78 16 0
2.9749999 0.28200001 -0.48500001 83 16 0
2.97 0.287 -0.49200001 92 16 0
2.9619999 0.292 -0.49900001 90 16 0
2.9579999 0.29699999 -0.50599998 82 16 0
2.9530001 0.30199999 -0.51300001 120 16 0
2.9460001 0.30700001 -0.51999998 109 16 0
2.9400001 0.31200001 -0.52700001 102 16 0
2.928 0.31600001 -0.53299999 126 16 0
2.9289999 0.322 -0.542 125 16 0
2.924 0.32600001 -0.54799998 130 16 0
2.9100001 0.33000001 -0.55400002 133 16 0
2.9030001 0.33500001 -0.56 121 16 0
2.8989999 0.34 -0.56800002 119 16 0
2.8940001 0.345 -0.574 133 16 0
2.891 0.34999999 -0.58200002 113 16 0
2.8870001 0.35499999 -0.58899999 126 16 0
2.882 0.36000001 -0.59600002 116 16 0
2.8729999 0.36500001 -0.602 121 16 0
2.8699999 0.37 -0.60900003 135 16 0
2.8629999 0.375 -0.61500001 126 16 0
2.8570001 0.37900001 -0.62199998 134 16 0
2.855 0.38499999 -0.62900001 144 16 0
2.8440001 0.389 -0.634 125 16 0
2.839 0.39399999 -0.64099997 134 16 0
2.8369999 0.39899999 -0.648 133 16 0
2.8280001 0.40400001 -0.653 134 16 0
2.823 0.40900001 -0.66000003 139 16 0
2.819 0.414 -0.667 149 16 0
2.8150001 0.419 -0.67299998 124 16 0
2.806 0.42300001 -0.67799997 135 16 0
2.8 0.428 -0.685 147 16 0
2.796 0.433 -0.69099998 149 16 0
2.79 0.43799999 -0.69700003 148 16 0
2.79 0.44400001 -0.704 142 16 0
2.7820001 0.44800001 -0.70999998 150 16 0
2.777 0.45300001 -0.71600002 146 16 0
2.767 0.45699999 -0.72100002 146 16 0
2.7639999 0.463 -0.727 150 16 0
2.7590001 0.46700001 -0.73299998 145 16 0
2.7509999 0.472 -0.73799998 148 16 0
2.747 0.477 -0.745 150 16 0
2.744 0.48300001 -0.75099999 150 16 0
2.7409999 0.48800001 -0.75700003 150 16 0
2.7309999 0.49200001 -0.76200002 150 16 0
2.723 0.49599999 -0.76700002 150 16 0
2.7219999 0.50199997 -0.77399999 150 16 0
2.7130001 0.50599998 -0.778 150 16 0
2.71 0.51200002 -0.78399998 150 16 0
2.7060001 0.51700002 -0.79000002 150 16 0
2.697 0.52100003 -0.79500002 150 16 0
2.694 0.52700001 -0.801 150 16 0
2.691 0.53200001 -0.80699998 150 16 0
2.6849999 0.537 -0.81199998 150 16 0
2.677 0.54100001 -0.81599998 150 16 0
2.6789999 0.54799998 -0.824 150 16 0
2.675 0.55299997 -0.829 150 16 0
2.665 0.55699998 -0.833 150 16 0
2.6619999 0.56199998 -0.83899999 150 16 0
2.6559999 0.56699997 -0.84399998 150 16 0
2.6530001 0.57200003 -0.85000002 150 16 0
2.6459999 0.57700002 -0.85399997 150 16 0
2.641 0.58200002 -0.85900003 150 16 0
2.6359999 0.58700001 -0.86400002 150 16 0
2.6329999 0.59200001 -0.87 150 16 0
2.6270001 0.597 -0.87400001 150 16 0
2.622 0.602 -0.87900001 150 16 0
2.6140001 0.60600001 -0.88300002 150 16 0
2.618 0.61299998 -0.89099997 150 16 0
2.6040001 0.616 -0.89200002 150 16 0
2.605 0.62300003 -0.89899999 150 16 0
2.5969999 0.62699997 -0.903 150 16 0
2.599 0.634 -0.90899998 64 16 0
2.596 0.639 -0.91500002 15 16 0
2.596 0.64499998 -0.921 2 16 0
2.651 0.66500002 -0.94700003 0 17 0
2.6300001 0.66600001 -0.94599998 0 16 0
2.652 0.67799997 -0.95999998 0 16 0
2.641 0.68199998 -0.96200001 0 16 0
2.641 0.68900001 -0.96799999 0 16 0
2.6440001 0.69599998 -0.97600001 0 16 0
2.6359999 0.69999999 -0.97899997 0 16 0
2.609 0.699 -0.97500002 0 19 0
2.6199999 0.70899999 -0.98500001 0 16 0
2.6029999 0.71100003 -0.98500001 0 16 0
2.6010001 0.71600002 -0.99000001 0 16 0
2.609 0.72500002 -0.99900001 0 16 0
2.5899999 0.727 -0.99800003 0 16 0
2.598 0.73500001 -1.006 0 16 0
2.5190001 0.71899998 -0.98100001 1 17 0
2.52 0.72600001 -0.98699999 14 16 0
2.5139999 0.73000002 -0.991 46 16 0
2.5 0.73299998 -0.991 150 16 0
2.4990001 0.73900002 -0.995 150 16 0
2.4949999 0.74400002 -1 150 16 0
2.49 0.74900001 -1.003 150 16 0
2.4849999 0.75300002 -1.006 150 16 0
2.4809999 0.759 -1.01 150 16 0
2.4779999 0.764 -1.0140001 150 16 0
2.4719999 0.76899999 -1.016 150 16 0
2.47 0.77399999 -1.021 150 16 0
2.4660001 0.77899998 -1.024 150 16 0
2.46 0.78399998 -1.026 150 16 0
2.4590001 0.79000002 -1.031 150 16 0
2.4519999 0.79400003 -1.033 150 16 0
2.4489999 0.79900002 -1.036 150 16 0
2.444 0.80400002 -1.039 150 16 0
2.4419999 0.80900002 -1.043 150 16 0
2.438 0.81400001 -1.046 150 16 0
2.4349999 0.81999999 -1.049 150 16 0
2.4319999 0.82499999 -1.053 150 16 0
2.4260001 0.829 -1.0549999 150 16 0
2.4219999 0.83399999 -1.057 150 16 0
2.4189999 0.83899999 -1.0599999 150 16 0
2.4159999 0.84399998 -1.063 150 16 0
2.4130001 0.85000002 -1.066 150 16 0
2.411 0.85500002 -1.0700001 150 16 0
2.4030001 0.85900003 -1.0700001 150 16 0
2.401 0.86400002 -1.073 150 16 0
2.398 0.86900002 -1.076 150 16 0
2.392 0.87300003 -1.077 150 16 0
2.3889999 0.87800002 -1.08 150 16 0
2.388 0.884 -1.0829999 150 16 0
2.3829999 0.889 -1.085 150 16 0
2.382 0.89399999 -1.0880001 150 16 0
2.3710001 0.89600003 -1.087 150 16 0
2.369 0.90100002 -1.089 150 16 0
2.3670001 0.90700001 -1.092 150 16 0
2.3640001 0.912 -1.094 150 16 0
2.3629999 0.917 -1.096 150 16 0
2.3540001 0.92000002 -1.095 150 16 0
2.3540001 0.926 -1.098 150 16 0
2.348 0.93000001 -1.099 150 16 0
2.345 0.93400002 -1.101 150 16 0
2.346 0.94099998 -1.104 150 16 0
2.3469999 0.94700003 -1.107 150 16 0
2.3610001 0.958 -1.117 151 19 0
2.355 0.96200001 -1.1160001 151 16 0
2.3410001 0.96200001 -1.112 151 16 0
2.3299999 0.963 -1.11 150 16 0
2.329 0.96799999 -1.112 150 16 0
2.3239999 0.972 -1.112 150 16 0
2.323 0.977 -1.114 150 16 0
2.3139999 0.97899997 -1.1109999 150 16 0
2.3139999 0.98500001 -1.114 150 16 0
2.312 0.98900002 -1.115 150 16 0
2.3099999 0.99400002 -1.1160001 150 16 0
2.306 0.99800003 -1.1160001 150 16 0
2.3039999 1.002 -1.117 150 16 0
2.303 1.007 -1.118 150 16 0
2.2980001 1.01 -1.117 150 16 0
2.2969999 1.015 -1.118 150 16 0
2.293 1.0190001 -1.118 150 16 0
2.289 1.022 -1.117 150 16 0
2.289 1.027 -1.119 150 16 0
2.286 1.03 -1.118 150 16 0
2.2839999 1.035 -1.118 150 16 0
2.2809999 1.038 -1.118 150 16 0
2.28 1.043 -1.119 150 16 0
2.2780001 1.0470001 -1.119 150 16 0
2.2750001 1.05 -1.118 150 16 0
2.277 1.056 -1.119 150 16 0
2.273 1.059 -1.118 150 16 0
2.2690001 1.061 -1.117 150 16 0
2.2709999 1.067 -1.118 150 16 0
2.2679999 1.0700001 -1.117 150 16 0
2.2679999 1.074 -1.117 150 16 0
2.2639999 1.077 -1.115 150 16 0
2.2590001 1.079 -1.113 150 16 0
2.2579999 1.0829999 -1.112 150 16 0
2.2579999 1.087 -1.113 150 16 0
2.2579999 1.091 -1.112 150 16 0
2.257 1.094 -1.1109999 150 16 0
2.256 1.098 -1.11 151 16 0
2.2550001 1.101 -1.109 150 16 0
2.253 1.104 -1.108 150 16 0
2.2520001 1.107 -1.1059999 150 16 0
2.2490001 1.109 -1.104 150 16 0
2.25 1.113 -1.104 150 16 0
2.2490001 1.1160001 -1.103 150 16 0
2.2460001 1.119 -1.1 150 16 0
2.247 1.122 -1.1 151 16 0
2.2479999 1.126 -1.099 151 16 0
2.2460001 1.128 -1.096 150 16 0
2.244 1.13 -1.094 151 16 0
2.2460001 1.1339999 -1.0930001 150 16 0
2.244 1.136 -1.091 151 16 0
2.2449999 1.1390001 -1.09 151 16 0
2.2449999 1.142 -1.0880001 151 16 0
2.2420001 1.143 -1.085 151 16 0
2.244 1.147 -1.084 151 16 0
2.244 1.149 -1.082 151 16 0
2.244 1.152 -1.079 151 16 0
2.2409999 1.153 -1.076 150 16 0
2.243 1.156 -1.074 151 16 0
2.2409999 1.1569999 -1.071 151 16 0
2.2420001 1.159 -1.069 151 16 0
2.244 1.1619999 -1.068 151 16 0
2.2409999 1.163 -1.064 151 16 0
2.243 1.165 -1.062 151 16 0
2.2449999 1.168 -1.0599999 151 16 0
2.2420001 1.168 -1.056 151 16 0
2.2449999 1.171 -1.054 151 16 0
2.2460001 1.173 -1.052 151 16 0
2.2460001 1.174 -1.049 151 16 0
2.247 1.176 -1.046 151 16 0
2.2460001 1.176 -1.0420001 151 16 0
2.247 1.178 -1.039 151 16 0
2.247 1.179 -1.036 151 16 0
2.2509999 1.182 -1.034 151 16 0
2.2479999 1.181 -1.029 151 16 0
2.25 1.183 -1.027 151 16 0
2.2520001 1.184 -1.024 151 16 0
2.2520001 1.1849999 -1.02 151 16 0
2.2550001 1.186 -1.017 151 16 0
2.256 1.187 -1.0140001 151 16 0
2.2539999 1.186 -1.01 151 16 0
2.2579999 1.188 -1.007 151 16 0
2.2590001 1.189 -1.0039999 151 16 0
2.2590001 1.189 -0.99900001 151 16 0
2.263 1.1900001 -0.99699998 151 16 0
2.2620001 1.189 -0.99199998 151 16 0
2.2650001 1.191 -0.98900002 151 16 0
2.266 1.191 -0.98500001 151 16 0
2.2679999 1.191 -0.98199999 151 16 0
2.2690001 1.191 -0.97799999 151 16 0
2.2690001 1.1900001 -0.97299999 151 16 0
2.273 1.191 -0.97000003 151 16 0
2.273 1.1900001 -0.96499997 151 16 0
2.276 1.191 -0.96200001 151 16 0
2.2780001 1.1900001 -0.958 151 16 0
2.279 1.1900001 -0.954 151 16 0
2.2839999 1.191 -0.95099998 151 16 0
2.286 1.1900001 -0.94700003 151 16 0
2.2880001 1.1900001 -0.94199997 151 16 0
2.2880001 1.188 -0.93800002 151 16 0
2.29 1.187 -0.93300003 151 16 0
2.2909999 1.186 -0.92900002 150 16 0
2.293 1.1849999 -0.92400002 150 16 0
2.303 1.188 -0.92299998 151 16 0
2.3010001 1.1849999 -0.917 151 16 0
2.3039999 1.1849999 -0.91299999 150 16 0
2.312 1.186 -0.91100001 138 16 0
2.3169999 1.186 -0.90700001 19 16 0
2.3210001 1.186 -0.90399998 4 16 0
2.336 1.191 -0.90399998 3 16 0
2.3369999 1.189 -0.89899999 3 16 0
2.3399999 1.188 -0.89499998 3 16 0
2.3440001 1.187 -0.89099997 3 16 0
2.3410001 1.182 -0.884 3 16 0
2.346 1.182 -0.88 3 16 0
2.3529999 1.182 -0.87699997 3 16 0
2.359 1.182 -0.87400001 2 16 0
2.358 1.179 -0.86799997 1 16 0
2.3540001 1.173 -0.861 1 16 0
2.3510001 1.168 -0.85399997 1 16 0
2.355 1.1670001 -0.85000002 1 16 0
2.3529999 1.163 -0.84299999 1 16 0
2.372 1.168 -0.84399998 1 19 0
2.3829999 1.17 -0.84200001 2 16 0
2.3770001 1.163 -0.83399999 3 16 0
2.372 1.1569999 -0.82700002 17 16 0
2.372 1.153 -0.82099998 106 16 0
2.3729999 1.15 -0.81599998 150 16 0
2.3729999 1.145 -0.81 151 16 0
2.3759999 1.143 -0.80500001 150 16 0
2.3789999 1.14 -0.80000001 150 16 0
2.3800001 1.136 -0.79400003 150 16 0
2.385 1.135 -0.79100001 150 16 0
2.3870001 1.131 -0.78500003 150 16 0
2.392 1.1289999 -0.78100002 150 16 0
2.3970001 1.127 -0.77700001 150 16 0
2.402 1.125 -0.77200001 150 16 0
2.4030001 1.1210001 -0.76700002 150 16 0
2.4059999 1.117 -0.76200002 150 16 0
2.4100001 1.114 -0.75700003 150 16 0
2.415 1.112 -0.75300002 150 16 0
2.418 1.108 -0.74800003 150 16 0
2.4230001 1.1059999 -0.74299997 150 16 0
2.425 1.102 -0.73799998 150 16 0
2.428 1.098 -0.73299998 150 16 0
2.438 1.097 -0.73000002 150 16 0
2.441 1.0930001 -0.72500002 150 16 0
2.4430001 1.089 -0.72000003 150 16 0
2.448 1.086 -0.71499997 150 16 0
2.45 1.082 -0.70999998 150 16 0
2.4530001 1.0779999 -0.70499998 150 16 0
2.46 1.075 -0.70099998 150 16 0
2.4649999 1.072 -0.69599998 150 16 0
2.471 1.069 -0.69199997 150 16 0
2.4719999 1.064 -0.68599999 150 16 0
2.4749999 1.0599999 -0.68099999 150 16 0
2.4790001 1.056 -0.676 150 16 0
2.487 1.053 -0.67299998 150 16 0
2.4860001 1.0470001 -0.66600001 150 16 0
2.4890001 1.0420001 -0.66100001 150 16 0
2.497 1.04 -0.65799999 150 16 0
2.503 1.036 -0.653 150 16 0
2.506 1.0319999 -0.648 150 16 0
2.5090001 1.027 -0.64300001 150 16 0
2.5139999 1.023 -0.63800001 150 16 0
2.5150001 1.018 -0.63300002 150 16 0
2.5220001 1.0140001 -0.62900001 150 16 0
2.5250001 1.0089999 -0.62400001 150 16 0
2.53 1.005 -0.61900002 150 16 0
2.5320001 0.99900001 -0.61400002 150 16 0
2.5369999 0.995 -0.60900003 150 16 0
2.5450001 0.99199998 -0.60500002 150 16 0
2.5469999 0.986 -0.60000002 150 16 0
2.55 0.98100001 -0.59500003 150 16 0
2.553 0.97600001 -0.58999997 150 16 0
2.566 0.97399998 -0.58700001 150 16 0
2.5899999 0.97600001 -0.58700001 150 16 0
2.5880001 0.96899998 -0.57999998 150 16 0
2.582 0.95999998 -0.57300001 150 16 0
2.5799999 0.95300001 -0.56699997 150 16 0
2.5880001 0.949 -0.56300002 150 16 0
2.5910001 0.94300002 -0.55800003 150 16 0
2.5940001 0.93800002 -0.55299997 150 16 0
2.599 0.93300003 -0.54799998 150 16 0
2.6029999 0.92699999 -0.54299998 150 16 0
2.6099999 0.92299998 -0.53899997 150 16 0
2.6140001 0.917 -0.53399998 150 16 0
2.6170001 0.912 -0.52899998 150 16 0
2.6199999 0.90600002 -0.52399999 150 16 0
2.628 0.90100002 -0.51999998 150 16 0
2.6340001 0.89700001 -0.51599997 150 16 0
2.6370001 0.89099997 -0.51099998 150 16 0
2.6400001 0.88499999 -0.50599998 150 16 0
2.6470001 0.88 -0.50199997 150 16 0
2.654 0.875 -0.498 150 16 0
2.6589999 0.86900002 -0.493 150 16 0
2.6619999 0.86299998 -0.48800001 150 16 0
2.6670001 0.85799998 -0.484 150 16 0
2.674 0.852 -0.479 150 16 0
2.6789999 0.847 -0.47499999 150 16 0
2.6819999 0.83999997 -0.47 150 16 0
2.6860001 0.83399999 -0.465 150 16 0
2.6930001 0.829 -0.461 150 16 0
2.697 0.82300001 -0.456 150 16 0
2.704 0.81699997 -0.45199999 150 16 0
2.704 0.81 -0.447 150 16 0
2.7090001 0.80400002 -0.442 150 16 0
2.7149999 0.79799998 -0.43799999 150 16 0
2.723 0.79299998 -0.43399999 150 16 0
2.7260001 0.78600001 -0.42899999 150 16 0
2.7309999 0.77999997 -0.42399999 150 16 0
2.737 0.77399999 -0.41999999 150 16 0
2.7449999 0.76899999 -0.41600001 150 16 0
2.75 0.76300001 -0.41100001 150 16 0
2.756 0.75700003 -0.40700001 150 16 0
2.763 0.75099999 -0.403 150 16 0
2.7690001 0.745 -0.398 150 16 0
2.7720001 0.73799998 -0.39399999 150 16 0
2.776 0.73100001 -0.389 150 16 0
2.7820001 0.72500002 -0.38499999 150 16 0
2.789 0.71899998 -0.38 150 16 0
2.789 0.71100003 -0.375 150 16 0
2.8 0.70599997 -0.37099999 150 16 0
2.8050001 0.699 -0.36700001 150 16 0
2.806 0.69099998 -0.36199999 150 16 0
2.8169999 0.68599999 -0.35800001 150 16 0
2.822 0.67900002 -0.354 150 16 0
2.826 0.67199999 -0.34900001 150 16 0
2.8280001 0.66500002 -0.34400001 150 16 0
2.8410001 0.66000003 -0.34099999 150 16 0
2.8429999 0.65200001 -0.336 150 16 0
2.8510001 0.64600003 -0.33199999 150 16 0
2.8499999 0.63700002 -0.32699999 150 16 0
2.8540001 0.63 -0.322 150 16 0
2.8640001 0.62400001 -0.31799999 150 16 0
2.8710001 0.61799997 -0.31400001 150 16 0
2.875 0.61000001 -0.31 150 16 0
2.881 0.60299999 -0.30500001 150 16 0
2.8840001 0.59600002 -0.301 150 16 0
2.8889999 0.58899999 -0.296 150 16 0
2.891 0.58099997 -0.292 150 16 0
2.9059999 0.57499999 -0.28799999 150 16 0
2.9119999 0.56800002 -0.28400001 150 16 0
2.915 0.56 -0.27900001 150 16 0
2.9260001 0.55400002 -0.27599999 150 16 0
2.928 0.546 -0.271 150 16 0
2.938 0.54000002 -0.26699999 150 16 0
2.9400001 0.53100002 -0.26199999 150 16 0
2.9419999 0.523 -0.25799999 150 16 0
2.95 0.51599997 -0.25400001 150 16 0
2.9590001 0.509 -0.25 150 16 0
2.9649999 0.50199997 -0.245 150 16 0
2.967 0.49399999 -0.241 150 16 0
2.9760001 0.486 -0.237 150 16 0
2.983 0.479 -0.23199999 150 16 0
2.987 0.47099999 -0.228 150 16 0
2.9890001 0.463 -0.223 150 16 0
2.9979999 0.45500001 -0.219 150 16 0
3.003 0.447 -0.215 150 16 0
3.0050001 0.43900001 -0.211 150 16 0
3.0139999 0.43200001 -0.206 150 16 0
3.0220001 0.42399999 -0.20200001 150 16 0
3.0309999 0.41600001 -0.198 150 16 0
3.027 0.40700001 -0.193 150 16 0
3.04 0.40000001 -0.19 150 16 0
3.049 0.39199999 -0.185 150 16 0
3.053 0.384 -0.18099999 150 16 0
3.0539999 0.375 -0.176 150 16 0
3.063 0.36700001 -0.17200001 150 16 0
3.0669999 0.359 -0.168 150 16 0
3.0780001 0.35100001 -0.164 150 16 0
3.079 0.34200001 -0.15899999 148 16 0
3.0869999 0.33399999 -0.155 146 16 0
3.0999999 0.32699999 -0.15099999 142 16 0
3.1040001 0.31799999 -0.147 141 16 0
3.112 0.31 -0.14300001 128 16 0
3.1159999 0.301 -0.139 134 16 0
3.122 0.29300001 -0.134 133 16 0
3.1289999 0.28400001 -0.13 122 16 0
3.135 0.27599999 -0.126 103 16 0
3.1440001 0.26699999 -0.122 112 16 0
3.1500001 0.25799999 -0.117 137 16 0
3.161 0.25 -0.113 117 16 0
3.1670001 0.241 -0.109 118 16 0
3.171 0.23199999 -0.105 118 16 0
3.175 0.223 -0.101 102 16 0
3.1860001 0.215 -0.096000001 113 16 0
3.1900001 0.205 -0.092 106 16 0
3.198 0.197 -0.088 104 16 0
3.2090001 0.18799999 -0.083999999 100 16 0
3.2130001 0.17900001 -0.079000004 103 16 0
3.223 0.17 -0.075000003 113 16 0
3.2320001 0.161 -0.071000002 117 16 0
3.2360001 0.15099999 -0.067000002 108 16 0
3.244 0.142 -0.063000001 98 16 0
3.247 0.133 -0.057999998 105 16 0
3.2539999 0.123 -0.054000001 105 16 0
3.2550001 0.114 -0.050000001 94 16 0
3.267 0.105 -0.046 92 16 0
3.277 0.094999999 -0.041000001 88 16 0
3.283 0.086000003 -0.037 80 16 0
3.289 0.075999998 -0.033 84 16 0
3.2939999 0.066 -0.028999999 56 16 0
3.302 0.057 -0.024 47 16 0
3.3099999 0.046999998 -0.02 95 16 0
3.3180001 0.037 -0.016000001 79 16 0
3.3310001 0.028000001 -0.012 41 16 0
3.3110001 0.017999999 -0.0070000002 21 16 0
3.2850001 0.0080000004 -0.003 18 16 0
3.2709999 -0.001 0 18 16 0
3.2460001 -0.011 0.0040000002 24 16 0
3.25 -0.02 0.0080000004 112 16 0
3.2609999 -0.029999999 0.013 146 16 0
3.2650001 -0.039999999 0.017000001 150 16 0
3.266 -0.050000001 0.021 150 16 0
3.277 -0.059999999 0.025 150 16 0
3.2809999 -0.07 0.028999999 54 16 0
3.256 -0.079000004 0.033 33 16 0
3.237 -0.088 0.037 32 16 0
3.2179999 -0.097000003 0.039999999 31 16 0
3.2030001 -0.107 0.044 32 16 0
3.1830001 -0.115 0.046999998 31 16 0
3.165 -0.124 0.050999999 31 16 0
3.1400001 -0.133 0.054000001 31 16 0
3.1300001 -0.142 0.057999998 31 16 0
3.112 -0.15000001 0.061000001 31 16 0
3.0899999 -0.15800001 0.064999998 30 16 0
3.073 -0.167 0.068000004 30 16 0
3.0539999 -0.175 0.071000002 31 16 0
3.0350001 -0.183 0.074000001 30 16 0
3.026 -0.192 0.077 31 16 0
3 -0.199 0.079999998 31 16 0
2.9790001 -0.207 0.082999997 30 16 0
2.9660001 -0.215 0.086000003 31 16 0
2.9549999 -0.223 0.089000002 32 16 0
2.9330001 -0.23100001 0.092 32 16 0
2.918 -0.23800001 0.094999999 33 16 0
2.908 -0.24600001 0.097999997 34 16 0
2.888 -0.25299999 0.1 31 16 0
2.8729999 -0.26100001 0.103 32 16 0
2.8559999 -0.26800001 0.106 31 16 0
2.842 -0.27500001 0.108 33 16 0
2.8239999 -0.28200001 0.111 33 16 0
2.809 -0.28999999 0.113 34 16 0
2.7969999 -0.29699999 0.116 35 16 0
2.7839999 -0.30399999 0.118 33 16 0
2.767 -0.31099999 0.121 35 16 0
2.756 -0.31799999 0.123 33 16 0
2.7379999 -0.324 0.125 35 16 0
2.727 -0.331 0.12800001 35 16 0
2.7190001 -0.33899999 0.13 38 16 0
2.7049999 -0.345 0.132 36 16 0
2.6860001 -0.35100001 0.134 38 16 0
2.6760001 -0.35800001 0.13600001 42 16 0
2.6589999 -0.36399999 0.138 39 16 0
2.645 -0.37099999 0.14 42 16 0
2.631 -0.377 0.142 41 16 0
2.6199999 -0.38299999 0.14399999 45 16 0
2.6070001 -0.38999999 0.146 50 16 0
2.5899999 -0.39500001 0.148 48 16 0
2.579 -0.40200001 0.15000001 47 16 0
2.5710001 -0.40799999 0.152 55 16 0
2.5550001 -0.414 0.154 52 16 0
2.5369999 -0.419 0.155 59 16 0
2.527 -0.42500001 0.15700001 69 16 0
2.5190001 -0.43200001 0.15899999 55 16 0
2.5050001 -0.43799999 0.161 72 16 0
2.4949999 -0.44400001 0.162 60 16 0
2.48 -0.449 0.164 66 16 0
2.47 -0.45500001 0.16500001 68 16 0
2.457 -0.46000001 0.167 83 16 0
2.4449999 -0.46599999 0.168 78 16 0
2.434 -0.47099999 0.17 77 16 0
2.425 -0.477 0.17200001 80 16 0
2.4130001 -0.48300001 0.17299999 84 16 0
2.4000001 -0.48800001 0.17399999 78 16 0
2.388 -0.493 0.175 84 16 0
2.3740001 -0.498 0.177 82 16 0
2.3659999 -0.50300002 0.178 85 16 0
2.3529999 -0.50800002 0.17900001 97 16 0
2.3440001 -0.514 0.18099999 79 16 0
2.3299999 -0.51800001 0.182 78 16 0
2.3210001 -0.52399999 0.183 87 16 0
2.306 -0.528 0.184 90 16 0
2.3 -0.53399998 0.185 88 16 0
2.2869999 -0.53799999 0.186 91 16 0
2.273 -0.542 0.18700001 93 16 0
2.2639999 -0.54699999 0.18799999 88 16 0
2.2550001 -0.55299997 0.189 88 16 0
2.2409999 -0.55699998 0.19 85 16 0
2.234 -0.56199998 0.191 94 16 0
2.223 -0.56699997 0.192 103 16 0
2.2149999 -0.57200003 0.193 103 16 0
2.2060001 -0.57599998 0.19400001 98 16 0
2.194 -0.57999998 0.19499999 94 16 0
2.1860001 -0.58600003 0.19599999 99 16 0
2.1719999 -0.58899999 0.19599999 104 16 0
2.168 -0.59500003 0.197 115 16 0
2.1570001 -0.59899998 0.198 105 16 0
2.145 -0.60299999 0.199 109 16 0
2.128 -0.60500002 0.199 120 16 0
2.1210001 -0.61000001 0.199 117 16 0
2.115 -0.61500001 0.2 122 16 0
2.1040001 -0.61900002 0.20100001 121 16 0
2.092 -0.62300003 0.20100001 120 16 0
2.0869999 -0.62800002 0.20200001 130 16 0
2.0769999 -0.63200003 0.20299999 145 16 0
2.066 -0.63499999 0.20299999 119 16 0
2.0610001 -0.63999999 0.204 150 16 0
2.05 -0.64399999 0.204 150 16 0
2.04 -0.648 0.204 150 16 0
2.0320001 -0.65200001 0.205 150 16 0
2.016 -0.65399998 0.205 150 16 0
2.0120001 -0.65899998 0.205 150 16 0
2.0050001 -0.66299999 0.206 150 16 0
1.992 -0.66600001 0.206 150 16 0
1.9859999 -0.67000002 0.206 150 16 0
1.983 -0.676 0.207 150 16 0
1.974 -0.68000001 0.207 150 16 0
1.964 -0.68300003 0.207 150 16 0
1.954 -0.68599999 0.207 150 16 0
1.9450001 -0.68900001 0.208 150 16 0
1.9400001 -0.69400001 0.208 150 16 0
1.932 -0.69700003 0.208 150 16 0
1.915 -0.69800001 0.207 150 16 0
1.909 -0.70200002 0.208 150 16 0
1.905 -0.70700002 0.208 150 16 0
1.898 -0.71100003 0.208 150 16 0
1.888 -0.71399999 0.208 150 16 0
1.883 -0.71799999 0.208 150 16 0
1.8710001 -0.72000003 0.208 2 0 0
1.8660001 -0.72399998 0.208 3 0 0
1.859 -0.72799999 0.208 150 16 0
1.851 -0.73100001 0.208 150 16 0
1.846 -0.73500001 0.208 3 0 0
1.84 -0.73900002 0.208 2 0 0
1.825 -0.73900002 0.207 3 0 0
1.826 -0.74599999 0.208 3 0 0
1.809 -0.745 0.207 2 3 0
1.807 -0.75 0.207 3 0 0
1.802 -0.75400001 0.207 3 0 0
1.793 -0.75700003 0.207 3 0 0
1.789 -0.76099998 0.207 3 0 0
1.784 -0.76499999 0.207 2 0 0
1.775 -0.76700002 0.206 3 0 0
1.768 -0.76999998 0.206 2 0 0
1.757 -0.77100003 0.205 2 0 0
1.753 -0.77499998 0.205 2 0 0
1.7410001 -0.77499998 0.204 3 0 0
1.7359999 -0.77999997 0.204 99 0 0
1.733 -0.78399998 0.204 1 0 0
1.723 -0.78500003 0.20299999 121 0 0
1.715 -0.787 0.20200001 3 0 0
1.712 -0.792 0.20200001 1 0 0
1.707 -0.79500002 0.20200001 126 0 0
1.7029999 -0.79900002 0.20100001 2 0 0
1.698 -0.80199999 0.20100001 135 0 0
1.686 -0.80199999 0.2 150 0 0
1.677 -0.80400002 0.199 128 0 0
1.675 -0.80800003 0.198 128 0 0
1.666 -0.80900002 0.197 100 0 0
1.6619999 -0.81300002 0.197 150 0 0
1.654 -0.815 0.19599999 145 0 0
1.648 -0.81699997 0.19499999 141 0 0
1.6440001 -0.81999999 0.19499999 126 0 0
1.635 -0.82200003 0.19400001 105 0 0
1.63 -0.824 0.193 131 0 0
1.623 -0.82599998 0.192 77 0 0
1.618 -0.829 0.192 87 0 0
1.6160001 -0.833 0.191 85 0 0
1.6059999 -0.833 0.19 128 0 0
1.599 -0.83399999 0.189 150 0 0
1.597 -0.83899999 0.18799999 150 0 0
1.584 -0.83700001 0.186 150 0 0
1.58 -0.83999997 0.186 150 0 0
1.5779999 -0.84399998 0.185 150 0 0
1.571 -0.84500003 0.184 150 0 0
1.566 -0.84799999 0.183 148 0 0
1.562 -0.85100001 0.182 117 0 0
1.557 -0.852 0.18099999 150 0 0
1.5549999 -0.85600001 0.18099999 150 0 0
1.552 -0.85900003 0.18000001 150 0 0
1.545 -0.86000001 0.178 150 0 0
1.543 -0.86400002 0.178 150 0 0
1.5369999 -0.86500001 0.176 150 0 0
1.53 -0.866 0.175 150 0 0
1.5190001 -0.86400002 0.17299999 136 0 0
1.52 -0.86900002 0.17299999 129 0 0
1.5190001 -0.87400001 0.17200001 120 0 0
1.513 -0.875 0.171 134 0 0
1.505 -0.875 0.169 131 0 0
1.503 -0.87800002 0.168 132 0 0
