# .PCD v0.7 - Point Cloud Data file format
VERSION 0.7
FIELDS x y z intensity tag line
SIZE 4 4 4 4 1 1
TYPE F F F F U U
COUNT 1 1 1 1 1 1
WIDTH 1357
HEIGHT 1
VIEWPOINT 0 0 0 1 0 0 0
POINTS 1357
DATA ascii
3.1930001 0.123 -0.192 50 16 0
3.1900001 0.12899999 -0.2 51 16 0
3.181 0.134 -0.208 50 16 0
3.1760001 0.14 -0.21699999 50 16 0
3.1659999 0.145 -0.22499999 60 16 0
3.1589999 0.15099999 -0.233 59 16 0
3.1570001 0.15700001 -0.241 60 16 0
3.1440001 0.162 -0.248 50 16 0
3.1400001 0.167 -0.25600001 51 16 0
3.1329999 0.17299999 -0.264 50 16 0
3.125 0.178 -0.27200001 56 16 0
3.119 0.184 -0.28 54 16 0
3.1110001 0.189 -0.287 49 16 0
3.109 0.19499999 -0.29499999 54 16 0
3.095 0.2 -0.30199999 50 16 0
3.0940001 0.205 -0.31 55 16 0
3.086 0.211 -0.31799999 65 16 0
3.0810001 0.21600001 -0.32499999 64 16 0
3.076 0.222 -0.333 65 16 0
3.069 0.227 -0.34099999 63 16 0
3.0569999 0.23199999 -0.347 60 16 0
3.0539999 0.23800001 -0.35499999 72 16 0
3.05 0.243 -0.36300001 81 16 0
3.0450001 0.249 -0.37 82 16 0
3.0380001 0.25400001 -0.377 82 16 0
3.03 0.259 -0.384 72 16 0
3.0250001 0.26499999 -0.39199999 85 16 0
3.0150001 0.27000001 -0.398 77 16 0
3.013 0.27599999 -0.40599999 61 16 0
3.0079999 0.28099999 -0.41299999 88 16 0
3.0039999 0.287 -0.421 77 16 0
2.9920001 0.29100001 -0.42699999 70 16 0
2.99 0.29699999 -0.43399999 80 16 0
2.9820001 0.30199999 -0.44100001 76 16 0
2.9749999 0.308 -0.44800001 89 16 0
2.9679999 0.31299999 -0.454 91 16 0
2.9649999 0.31900001 -0.46200001 91 16 0
2.9590001 0.324 -0.46900001 91 16 0
2.9519999 0.329 -0.47499999 74 16 0
2.9460001 0.33399999 -0.48199999 89 16 0
2.9430001 0.34 -0.48899999 104 16 0
2.9349999 0.345 -0.495 100 16 0
2.927 0.34999999 -0.50199997 105 16 0
2.925 0.35600001 -0.509 99 16 0
2.9130001 0.361 -0.514 92 16 0
2.9059999 0.366 -0.52100003 111 16 0
2.904 0.37200001 -0.528 109 16 0
2.8970001 0.377 -0.53399998 102 16 0
2.891 0.382 -0.54000002 115 16 0
2.888 0.38800001 -0.54699999 103 16 0
2.8800001 0.39300001 -0.55299997 116 16 0
2.878 0.39899999 -0.56 112 16 0
2.8740001 0.405 -0.56699997 115 16 0
2.8629999 0.40900001 -0.57200003 112 16 0
2.8610001 0.41499999 -0.579 111 16 0
2.8469999 0.419 -0.583 103 16 0
2.845 0.42500001 -0.58999997 127 16 0
2.8410001 0.43000001 -0.59600002 133 16 0
2.8340001 0.43599999 -0.602 128 16 0
2.829 0.44100001 -0.60799998 141 16 0
2.8239999 0.44600001 -0.61400002 128 16 0
2.8169999 0.45100001 -0.62 129 16 0
2.812 0.45699999 -0.62599999 145 16 0
2.8080001 0.46200001 -0.63200003 150 16 0
2.806 0.46799999 -0.639 149 16 0
2.796 0.47299999 -0.64399999 142 16 0
2.7939999 0.479 -0.64999998 150 16 0
2.7909999 0.48500001 -0.65700001 150 16 0
2.776 0.48800001 -0.66000003 150 16 0
2.7720001 0.49399999 -0.66600001 150 16 0
2.7679999 0.49900001 -0.67199999 150 16 0
2.7639999 0.505 -0.67799997 150 16 0
2.7579999 0.50999999 -0.68300003 150 16 0
2.7539999 0.51599997 -0.68900001 150 16 0
2.7479999 0.52100003 -0.69400001 150 16 0
2.7420001 0.52600002 -0.69999999 150 16 0
2.7379999 0.53200001 -0.70499998 150 16 0
2.734 0.537 -0.71100003 150 16 0
2.7279999 0.54299998 -0.71600002 150 16 0
2.72 0.54699999 -0.72100002 150 16 0
2.7160001 0.55299997 -0.72600001 150 16 0
2.7079999 0.55800003 -0.73100001 150 16 0
2.707 0.56400001 -0.73699999 150 16 0
2.6989999 0.56900001 -0.74199998 150 16 0
2.6960001 0.574 -0.74699998 150 16 0
2.6930001 0.57999998 -0.75300002 150 16 0
2.6849999 0.58499998 -0.75700003 150 16 0
2.6789999 0.58999997 -0.76200002 150 16 0
2.6760001 0.59600002 -0.76800001 150 16 0
2.6730001 0.602 -0.773 150 16 0
2.6700001 0.60699999 -0.778 150 16 0
2.6619999 0.61199999 -0.78299999 150 16 0
2.6570001 0.61799997 -0.787 150 16 0
2.6500001 0.62300003 -0.792 150 16 0
2.6470001 0.62800002 -0.79699999 150 16 0
2.6440001 0.634 -0.80199999 150 16 0
2.6400001 0.63999999 -0.80699998 150 16 0
2.6289999 0.64399999 -0.81 150 16 0
2.6229999 0.64899999 -0.81400001 150 16 0
2.619 0.65399998 -0.81900001 150 16 0
2.6170001 0.66000003 -0.824 150 16 0
2.609 0.66500002 -0.82800001 150 16 0
2.605 0.671 -0.833 150 16 0
2.5999999 0.676 -0.83700001 150 16 0
2.5969999 0.68099999 -0.84200001 150 16 0
2.5929999 0.68699998 -0.847 150 16 0
2.5899999 0.69300002 -0.85100001 150 16 0
2.586 0.699 -0.85600001 150 16 0
2.5829999 0.704 -0.861 150 16 0
2.576 0.70899999 -0.86400002 150 16 0
2.563 0.71200001 -0.86500001 150 16 0
2.5599999 0.71799999 -0.87 150 16 0
2.5550001 0.72299999 -0.87400001 150 16 0
2.552 0.72899997 -0.87800002 150 16 0
2.55 0.73500001 -0.88300002 150 16 0
2.549 0.741 -0.88800001 150 16 0
2.549 0.74800003 -0.89399999 30 16 0
2.543 0.75300002 -0.89700001 11 16 0
2.5539999 0.76300001 -0.90600002 2 16 0
2.608 0.78600001 -0.93099999 0 16 0
2.5999999 0.79100001 -0.93400002 0 16 0
2.5969999 0.79699999 -0.93800002 0 16 0
2.5650001 0.79400003 -0.93199998 0 18 0
2.447 0.764 -0.89399999 3 18 0
2.447 0.76999998 -0.89899999 8 16 0
2.4430001 0.77499998 -0.90200001 12 16 0
2.4400001 0.78100002 -0.90600002 12 16 0
2.448 0.79000002 -0.91399997 11 16 0
2.4909999 0.81 -0.935 12 16 0
2.4960001 0.81900001 -0.94099998 30 16 0
2.483 0.82099998 -0.94099998 150 16 0
2.477 0.82599998 -0.94400001 150 16 0
2.474 0.83200002 -0.94800001 150 16 0
2.47 0.83700001 -0.95099998 150 16 0
2.4660001 0.84200001 -0.954 150 16 0
2.4619999 0.84799999 -0.95700002 150 16 0
2.4579999 0.85299999 -0.95999998 150 16 0
2.4549999 0.85799998 -0.963 150 16 0
2.4489999 0.86299998 -0.96499997 150 16 0
2.4460001 0.86900002 -0.96799999 150 16 0
2.4430001 0.87400001 -0.97100002 150 16 0
2.438 0.87900001 -0.97399998 150 16 0
2.434 0.88499999 -0.977 150 16 0
2.4300001 0.88999999 -0.97899997 150 16 0
2.427 0.89499998 -0.98199999 150 16 0
2.424 0.90100002 -0.98500001 150 16 0
2.4189999 0.90499997 -0.98699999 150 16 0
2.418 0.91100001 -0.99000001 150 16 0
2.415 0.917 -0.99299997 150 16 0
2.4059999 0.92000002 -0.99299997 150 16 0
2.404 0.926 -0.99599999 150 16 0
2.3989999 0.93099999 -0.99800003 150 16 0
2.395 0.935 -0.99900001 150 16 0
2.3900001 0.94 -1.001 150 16 0
2.3929999 0.94800001 -1.006 150 16 0
2.4070001 0.95999998 -1.015 151 19 0
2.402 0.96399999 -1.016 151 16 0
2.3870001 0.96399999 -1.013 151 16 0
2.3729999 0.96499997 -1.011 150 16 0
2.372 0.97100002 -1.013 150 16 0
2.372 0.977 -1.016 150 16 0
2.362 0.98000002 -1.015 150 16 0
2.359 0.98500001 -1.017 150 16 0
2.3559999 0.99000001 -1.018 150 16 0
2.3529999 0.995 -1.02 150 16 0
2.3510001 1 -1.022 150 16 0
2.348 1.005 -1.023 150 16 0
2.3429999 1.0089999 -1.024 150 16 0
2.3440001 1.016 -1.027 150 16 0
2.336 1.018 -1.026 150 16 0
2.3299999 1.022 -1.025 150 16 0
2.3280001 1.027 -1.027 150 16 0
2.332 1.034 -1.031 150 16 0
2.322 1.036 -1.029 150 16 0
2.322 1.0420001 -1.03 150 16 0
2.319 1.046 -1.031 150 16 0
2.312 1.049 -1.03 150 16 0
2.312 1.0549999 -1.0319999 151 16 0
2.3099999 1.059 -1.033 150 16 0
2.3080001 1.064 -1.034 151 16 0
2.3069999 1.069 -1.035 150 16 0
2.3039999 1.074 -1.035 151 16 0
2.3010001 1.0779999 -1.035 150 16 0
2.2980001 1.082 -1.035 151 16 0
2.2980001 1.087 -1.0369999 151 16 0
2.2939999 1.091 -1.036 151 16 0
2.2920001 1.095 -1.036 151 16 0
2.2880001 1.099 -1.036 151 16 0
2.2880001 1.104 -1.036 151 16 0
2.286 1.108 -1.0369999 151 16 0
2.2850001 1.113 -1.0369999 151 16 0
2.2820001 1.1160001 -1.036 151 16 0
2.28 1.1210001 -1.036 151 16 0
2.2780001 1.124 -1.036 151 16 0
2.276 1.128 -1.035 151 16 0
2.2750001 1.133 -1.035 151 16 0
2.273 1.137 -1.035 151 16 0
2.2690001 1.1390001 -1.033 151 16 0
2.2690001 1.1440001 -1.033 151 16 0
2.2679999 1.148 -1.033 151 16 0
2.2639999 1.15 -1.031 151 16 0
2.2609999 1.153 -1.03 151 16 0
2.2650001 1.159 -1.031 151 16 0
2.2579999 1.16 -1.028 151 16 0
2.2620001 1.166 -1.029 151 16 0
2.2590001 1.169 -1.027 151 16 0
2.2579999 1.1720001 -1.026 151 16 0
2.257 1.176 -1.025 151 16 0
2.2550001 1.179 -1.024 151 16 0
2.2539999 1.182 -1.022 151 16 0
2.253 1.1849999 -1.021 151 16 0
2.2539999 1.189 -1.021 151 16 0
2.2509999 1.192 -1.018 151 16 0
2.2509999 1.1950001 -1.017 151 16 0
2.2520001 1.199 -1.016 151 16 0
2.247 1.199 -1.013 151 16 0
2.2490001 1.204 -1.012 151 16 0
2.2449999 1.205 -1.0089999 151 16 0
2.2479999 1.21 -1.0089999 151 16 0
2.247 1.212 -1.007 151 16 0
2.2460001 1.214 -1.005 151 16 0
2.2449999 1.216 -1.002 151 16 0
2.2460001 1.219 -1 151 16 0
2.2449999 1.222 -0.99800003 151 16 0
2.244 1.224 -0.99599999 151 16 0
2.244 1.226 -0.99400002 151 16 0
2.244 1.228 -0.991 151 16 0
2.244 1.23 -0.98900002 151 16 0
2.244 1.232 -0.986 151 16 0
2.244 1.234 -0.98400003 151 16 0
2.2420001 1.235 -0.98100001 151 16 0
2.2420001 1.237 -0.97799999 151 16 0
2.244 1.24 -0.97600001 151 16 0
2.244 1.242 -0.97399998 151 16 0
2.243 1.242 -0.97000003 151 16 0
2.243 1.244 -0.96700001 151 16 0
2.2420001 1.245 -0.96399999 151 16 0
2.243 1.247 -0.96100003 151 16 0
2.247 1.25 -0.95999998 151 16 0
2.2460001 1.25 -0.95599997 150 16 0
2.247 1.252 -0.95300001 151 16 0
2.2479999 1.253 -0.94999999 151 16 0
2.2479999 1.2539999 -0.94700003 151 16 0
2.2490001 1.255 -0.94400001 151 16 0
2.25 1.256 -0.94099998 151 16 0
2.2509999 1.257 -0.93800002 151 16 0
2.2520001 1.258 -0.93400002 151 16 0
2.253 1.2589999 -0.93099999 151 16 0
2.2539999 1.2589999 -0.92799997 151 16 0
2.2550001 1.26 -0.92400002 151 16 0
2.253 1.2589999 -0.92000002 150 16 0
2.2579999 1.261 -0.91799998 150 16 0
2.2579999 1.261 -0.91399997 150 16 0
2.2609999 1.262 -0.91100001 150 16 0
2.2620001 1.263 -0.90700001 150 16 0
2.267 1.265 -0.90499997 151 16 0
2.2679999 1.2640001 -0.90100002 150 16 0
2.2750001 1.267 -0.89899999 150 16 0
2.2750001 1.267 -0.89499998 36 16 0
2.2839999 1.271 -0.89399999 13 16 0
2.2809999 1.268 -0.88800001 3 16 0
2.29 1.272 -0.88800001 1 16 0
2.286 1.268 -0.88099998 1 16 0
2.2950001 1.272 -0.88 1 16 0
2.306 1.276 -0.88 1 16 0
2.303 1.273 -0.87400001 2 16 0
2.3039999 1.272 -0.86900002 2 16 0
2.3099999 1.273 -0.86699998 3 16 0
2.309 1.271 -0.86199999 3 16 0
2.306 1.267 -0.85600001 3 16 0
2.313 1.2690001 -0.85399997 3 16 0
2.3169999 1.2690001 -0.85000002 3 16 0
2.3150001 1.266 -0.84399998 3 16 0
2.3210001 1.267 -0.84100002 3 16 0
2.325 1.266 -0.838 2 16 0
2.3299999 1.266 -0.83399999 2 16 0
2.3239999 1.26 -0.82700002 1 16 0
2.326 1.258 -0.82300001 1 16 0
2.336 1.261 -0.82099998 2 16 0
2.3239999 1.252 -0.81099999 6 16 0
2.329 1.252 -0.80800003 28 16 0
2.3310001 1.25 -0.80400002 150 16 0
2.329 1.2460001 -0.79799998 150 16 0
2.3329999 1.245 -0.79400003 150 16 0
2.339 1.244 -0.79100001 150 16 0
2.3410001 1.242 -0.78600001 150 16 0
2.339 1.237 -0.77999997 150 16 0
2.3429999 1.2359999 -0.77600002 150 16 0
2.346 1.234 -0.77100003 150 16 0
2.352 1.233 -0.76800001 150 16 0
2.3540001 1.2309999 -0.76300001 150 16 0
2.3610001 1.23 -0.75999999 150 16 0
2.3629999 1.227 -0.755 150 16 0
2.3640001 1.224 -0.75 150 16 0
2.368 1.222 -0.74599999 150 16 0
2.372 1.22 -0.74199998 150 16 0
2.375 1.217 -0.73699999 150 16 0
2.375 1.2130001 -0.73199999 150 16 0
2.378 1.21 -0.727 150 16 0
2.3840001 1.2079999 -0.72299999 150 16 0
2.385 1.204 -0.71799999 150 16 0
2.391 1.2029999 -0.71399999 150 16 0
2.392 1.199 -0.70899999 150 16 0
2.3970001 1.196 -0.70499998 150 16 0
2.3959999 1.191 -0.699 150 16 0
2.398 1.187 -0.69400001 150 16 0
2.4100001 1.188 -0.69199997 55 16 0
2.4089999 1.182 -0.68599999 30 16 0
2.4130001 1.179 -0.68199998 43 16 0
2.4119999 1.174 -0.676 150 16 0
2.4189999 1.1720001 -0.67199999 150 16 0
2.4200001 1.1670001 -0.667 150 16 0
2.4260001 1.164 -0.66299999 150 16 0
2.431 1.161 -0.65899998 150 16 0
2.4360001 1.159 -0.65499997 150 16 0
2.441 1.155 -0.64999998 150 16 0
2.4449999 1.151 -0.64600003 150 16 0
2.4430001 1.145 -0.63999999 150 16 0
2.451 1.143 -0.63599998 150 16 0
2.454 1.1390001 -0.63200003 150 16 0
2.461 1.136 -0.62800002 150 16 0
2.461 1.13 -0.62199998 150 16 0
2.471 1.1289999 -0.61900002 150 16 0
2.47 1.123 -0.61400002 150 16 0
2.4760001 1.12 -0.61000001 150 16 0
2.477 1.114 -0.60399997 150 16 0
2.484 1.1109999 -0.60000002 150 16 0
2.4909999 1.108 -0.597 150 16 0
2.4920001 1.102 -0.59100002 150 16 0
2.4949999 1.097 -0.58700001 150 16 0
2.4979999 1.092 -0.58200002 150 16 0
2.5050001 1.089 -0.57800001 150 16 0
2.507 1.0829999 -0.57300001 150 16 0
2.5120001 1.079 -0.56900001 150 16 0
2.516 1.074 -0.56400001 150 16 0
2.5190001 1.069 -0.56 150 16 0
2.5250001 1.0650001 -0.55500001 150 16 0
2.5280001 1.0599999 -0.551 150 16 0
2.5320001 1.0549999 -0.546 150 16 0
2.5369999 1.05 -0.542 150 16 0
2.5380001 1.044 -0.537 150 16 0
2.5420001 1.039 -0.53200001 150 16 0
2.546 1.034 -0.528 150 16 0
2.559 1.0319999 -0.52499998 150 16 0
2.562 1.026 -0.51999998 150 16 0
2.5650001 1.021 -0.51599997 150 16 0
2.575 1.018 -0.51200002 150 16 0
2.5780001 1.012 -0.50800002 150 16 0
2.5810001 1.006 -0.50300002 150 16 0
2.585 1.001 -0.49900001 150 16 0
2.592 0.99599999 -0.495 150 16 0
2.596 0.99000001 -0.49000001 150 16 0
2.602 0.986 -0.486 150 16 0
2.602 0.97799999 -0.48100001 150 16 0
2.6140001 0.97600001 -0.47799999 150 16 0
2.635 0.97600001 -0.477 150 16 0
2.6359999 0.96899998 -0.472 150 16 0
2.625 0.958 -0.465 150 16 0
2.6240001 0.94999999 -0.45899999 150 16 0
2.6289999 0.94499999 -0.45500001 150 16 0
2.641 0.94199997 -0.45199999 150 16 0
2.641 0.93400002 -0.447 150 16 0
2.6500001 0.93000001 -0.44400001 150 16 0
2.6530001 0.92299998 -0.43900001 150 16 0
2.6559999 0.917 -0.435 150 16 0
2.6630001 0.912 -0.43099999 150 16 0
2.6689999 0.90600002 -0.42699999 150 16 0
2.6719999 0.89899999 -0.42199999 150 16 0
2.674 0.89300001 -0.41800001 150 16 0
2.6830001 0.88800001 -0.414 150 16 0
2.6860001 0.88099998 -0.41 150 16 0
2.691 0.875 -0.405 150 16 0
2.6960001 0.86900002 -0.40099999 150 16 0
2.701 0.86299998 -0.39700001 150 16 0
2.7049999 0.85600001 -0.39300001 150 16 0
2.711 0.85000002 -0.389 150 16 0
2.7149999 0.84399998 -0.38499999 150 16 0
2.72 0.83700001 -0.38100001 150 16 0
2.723 0.82999998 -0.37599999 150 16 0
2.734 0.82499999 -0.373 150 16 0
2.733 0.81699997 -0.368 150 16 0
2.7420001 0.81199998 -0.36500001 150 16 0
2.7479999 0.80599999 -0.361 150 16 0
2.7590001 0.801 -0.35699999 150 16 0
2.7620001 0.79400003 -0.35299999 150 16 0
2.767 0.787 -0.34900001 150 16 0
2.767 0.77899998 -0.34400001 150 16 0
2.7750001 0.773 -0.34099999 150 16 0
2.78 0.76599997 -0.33700001 150 16 0
2.7869999 0.75999999 -0.333 150 16 0
2.7939999 0.75300002 -0.329 150 16 0
2.7950001 0.74599999 -0.32499999 150 16 0
2.8039999 0.74000001 -0.32100001 150 16 0
2.8080001 0.73199999 -0.317 150 16 0
2.816 0.72600001 -0.31400001 150 16 0
2.819 0.71899998 -0.30899999 150 16 0
2.8269999 0.71200001 -0.30599999 150 16 0
2.8310001 0.70499998 -0.30199999 150 16 0
2.836 0.69800001 -0.29800001 150 16 0
2.8410001 0.69 -0.294 150 16 0
2.8429999 0.68300003 -0.289 150 16 0
2.849 0.676 -0.28600001 150 16 0
2.8559999 0.66900003 -0.28200001 150 16 0
2.858 0.66100001 -0.278 150 16 0
2.8670001 0.65399998 -0.27399999 150 16 0
2.8710001 0.64700001 -0.27000001 150 16 0
2.875 0.639 -0.266 150 16 0
2.8789999 0.63099998 -0.26199999 150 16 0
2.8840001 0.62400001 -0.25799999 150 16 0
2.8989999 0.61799997 -0.255 150 16 0
2.9000001 0.61000001 -0.25099999 150 16 0
2.9070001 0.60299999 -0.248 150 16 0
2.9100001 0.59500003 -0.244 150 16 0
2.9159999 0.58700001 -0.23999999 150 16 0
2.9200001 0.579 -0.236 150 16 0
2.931 0.57300001 -0.233 150 16 0
2.9349999 0.565 -0.229 150 16 0
2.947 0.55800003 -0.22499999 150 16 0
2.9460001 0.54900002 -0.221 150 16 0
2.951 0.54100001 -0.21699999 150 16 0
2.9530001 0.53299999 -0.213 150 16 0
2.964 0.52600002 -0.20999999 150 16 0
2.97 0.51800001 -0.206 150 16 0
2.977 0.50999999 -0.20299999 150 16 0
2.983 0.50199997 -0.199 150 16 0
2.9860001 0.49399999 -0.19499999 150 16 0
2.993 0.486 -0.191 150 16 0
3 0.47799999 -0.18799999 150 16 0
3.0009999 0.47 -0.184 150 16 0
3.0109999 0.46200001 -0.18000001 150 16 0
3.0120001 0.45300001 -0.176 150 16 0
3.0209999 0.44499999 -0.17299999 150 16 0
3.027 0.43700001 -0.169 147 16 0
3.0380001 0.43000001 -0.16599999 150 16 0
3.039 0.421 -0.162 135 16 0
3.0480001 0.41299999 -0.15800001 150 16 0
3.0539999 0.40400001 -0.155 143 16 0
3.0550001 0.39500001 -0.15099999 150 16 0
3.0650001 0.38699999 -0.147 150 16 0
3.0699999 0.37900001 -0.14399999 144 16 0
3.0769999 0.37 -0.14 134 16 0
3.0829999 0.36199999 -0.13600001 133 16 0
3.0929999 0.354 -0.133 150 16 0
3.098 0.345 -0.12899999 130 16 0
3.102 0.336 -0.126 132 16 0
3.112 0.32699999 -0.122 125 16 0
3.115 0.31799999 -0.118 114 16 0
3.1240001 0.31 -0.115 115 16 0
3.128 0.301 -0.111 107 16 0
3.1370001 0.292 -0.108 96 16 0
3.145 0.28299999 -0.104 112 16 0
3.1489999 0.27399999 -0.101 150 16 0
3.1530001 0.26499999 -0.097000003 108 16 0
3.165 0.25600001 -0.093999997 108 16 0
3.1719999 0.24699999 -0.090000004 122 16 0
3.174 0.23800001 -0.086000003 116 16 0
3.1819999 0.229 -0.082999997 120 16 0
3.194 0.22 -0.079000004 101 16 0
3.1960001 0.20999999 -0.075999998 101 16 0
3.204 0.20100001 -0.071999997 98 16 0
3.2130001 0.192 -0.068999998 104 16 0
3.221 0.183 -0.064999998 103 16 0
3.2279999 0.17299999 -0.061999999 102 16 0
3.2360001 0.164 -0.057999998 105 16 0
3.2390001 0.154 -0.054000001 88 16 0
3.247 0.145 -0.050999999 95 16 0
3.25 0.13500001 -0.046999998 90 16 0
3.2550001 0.125 -0.044 88 16 0
3.2639999 0.116 -0.039999999 83 16 0
3.273 0.106 -0.037 88 16 0
3.2739999 0.096000001 -0.033 79 16 0
3.2850001 0.086000003 -0.029999999 73 16 0
3.2920001 0.077 -0.026000001 89 16 0
3.2939999 0.067000002 -0.023 63 16 0
3.306 0.057 -0.018999999 44 16 0
3.3080001 0.046999998 -0.016000001 75 16 0
3.319 0.037 -0.012 75 16 0
3.3280001 0.027000001 -0.0089999996 39 16 0
3.312 0.016000001 -0.0049999999 21 16 0
3.2820001 0.0060000001 -0.0020000001 18 16 0
3.2679999 -0.003 0.001 18 16 0
3.2479999 -0.013 0.0040000002 31 16 0
3.25 -0.023 0.0070000002 145 16 0
3.2609999 -0.033 0.011 150 16 0
3.266 -0.043000001 0.014 150 16 0
3.2709999 -0.052999999 0.017000001 150 16 0
3.277 -0.063000001 0.021 150 16 0
3.273 -0.072999999 0.024 37 16 0
3.2460001 -0.082999997 0.027000001 33 16 0
3.227 -0.092 0.029999999 31 16 0
3.2119999 -0.102 0.033 31 16 0
3.191 -0.111 0.035999998 31 16 0
3.1689999 -0.12 0.039000001 31 16 0
3.1500001 -0.12899999 0.041999999 32 16 0
3.128 -0.138 0.045000002 31 16 0
3.1140001 -0.147 0.046999998 30 16 0
3.0940001 -0.155 0.050000001 31 16 0
3.0780001 -0.164 0.052999999 30 16 0
3.0580001 -0.17299999 0.055 30 16 0
3.0380001 -0.18099999 0.057999998 31 16 0
3.0109999 -0.189 0.059999999 29 16 0
2.9990001 -0.197 0.063000001 31 16 0
2.983 -0.205 0.064999998 30 16 0
2.967 -0.214 0.067000002 30 16 0
2.947 -0.221 0.07 30 16 0
2.934 -0.229 0.071999997 31 16 0
2.9130001 -0.237 0.074000001 32 16 0
2.9000001 -0.245 0.077 33 16 0
2.885 -0.25299999 0.079000004 32 16 0
2.8670001 -0.25999999 0.081 32 16 0
2.8469999 -0.26699999 0.082999997 32 16 0
2.8340001 -0.27500001 0.085000001 33 16 0
2.8199999 -0.28200001 0.086999997 35 16 0
2.802 -0.289 0.089000002 34 16 0
2.7920001 -0.29699999 0.090999998 34 16 0
2.77 -0.303 0.093000002 34 16 0
2.753 -0.31 0.093999997 34 16 0
2.74 -0.317 0.096000001 36 16 0
2.7309999 -0.32499999 0.097999997 35 16 0
2.7179999 -0.33199999 0.1 36 16 0
2.707 -0.33899999 0.102 36 16 0
2.691 -0.34599999 0.103 36 16 0
2.678 -0.35299999 0.105 37 16 0
2.661 -0.359 0.107 46 16 0
2.6440001 -0.36500001 0.108 39 16 0
2.6340001 -0.37200001 0.11 40 16 0
2.622 -0.37900001 0.111 51 16 0
2.5999999 -0.384 0.112 46 16 0
2.5899999 -0.38999999 0.114 41 16 0
2.5780001 -0.39700001 0.116 52 16 0
2.5650001 -0.403 0.117 53 16 0
2.5510001 -0.40900001 0.118 44 16 0
2.5350001 -0.41499999 0.119 58 16 0
2.527 -0.421 0.121 55 16 0
2.51 -0.42699999 0.122 59 16 0
2.4990001 -0.433 0.123 68 16 0
2.4879999 -0.43900001 0.125 71 16 0
2.4760001 -0.44400001 0.126 71 16 0
2.4630001 -0.44999999 0.127 75 16 0
2.454 -0.456 0.12800001 73 16 0
2.4400001 -0.46200001 0.12899999 68 16 0
2.424 -0.46700001 0.13 65 16 0
2.415 -0.47299999 0.131 65 16 0
2.404 -0.47799999 0.132 68 16 0
2.3929999 -0.484 0.133 70 16 0
2.3789999 -0.48899999 0.134 67 16 0
2.369 -0.49399999 0.13500001 76 16 0
2.358 -0.5 0.13600001 84 16 0
2.345 -0.505 0.13699999 65 16 0
2.3329999 -0.50999999 0.138 70 16 0
2.322 -0.51499999 0.139 73 16 0
2.3110001 -0.51999998 0.139 78 16 0
2.296 -0.52399999 0.14 81 16 0
2.2850001 -0.52899998 0.141 89 16 0
2.2739999 -0.53399998 0.142 83 16 0
2.266 -0.53899997 0.142 82 16 0
2.253 -0.54400003 0.14300001 95 16 0
2.2409999 -0.54799998 0.14399999 96 16 0
2.2320001 -0.55400002 0.14399999 100 16 0
2.2249999 -0.55900002 0.145 96 16 0
2.2119999 -0.56300002 0.146 92 16 0
2.204 -0.56800002 0.146 102 16 0
2.1900001 -0.57200003 0.147 105 16 0
2.178 -0.57599998 0.147 108 16 0
2.171 -0.58099997 0.148 99 16 0
2.1630001 -0.58700001 0.148 107 16 0
2.1489999 -0.58999997 0.148 107 16 0
2.1329999 -0.59200001 0.148 107 16 0
2.1259999 -0.59799999 0.149 105 16 0
2.122 -0.60399997 0.15000001 148 16 0
2.112 -0.60799998 0.15000001 146 16 0
2.0999999 -0.611 0.15000001 146 16 0
2.089 -0.61500001 0.15099999 149 16 0
2.0799999 -0.61900002 0.15099999 149 16 0
2.0710001 -0.62400001 0.15099999 150 16 0
2.062 -0.62800002 0.15099999 137 16 0
2.0580001 -0.634 0.152 150 16 0
2.04 -0.63499999 0.152 150 16 0
2.0369999 -0.64099997 0.152 150 16 0
2.0239999 -0.64399999 0.152 149 16 0
2.013 -0.64700001 0.152 150 16 0
2.0079999 -0.65200001 0.152 147 16 0
1.999 -0.65600002 0.152 150 16 0
1.993 -0.66100001 0.153 150 16 0
1.983 -0.66399997 0.153 150 16 0
1.974 -0.66799998 0.153 150 16 0
1.964 -0.671 0.153 150 16 0
1.954 -0.67400002 0.153 150 16 0
1.946 -0.67799997 0.153 150 16 0
1.942 -0.68300003 0.153 150 16 0
1.923 -0.68300003 0.152 150 19 0
1.9170001 -0.68699998 0.152 150 16 0
1.9119999 -0.69199997 0.152 150 16 0
1.908 -0.69700003 0.152 150 16 0
1.899 -0.69999999 0.152 150 16 0
1.888 -0.70300001 0.152 150 16 0
1.881 -0.70599997 0.152 150 16 0
1.875 -0.71100003 0.152 150 16 0
1.864 -0.713 0.15099999 150 16 0
1.859 -0.71700001 0.15099999 150 16 0
1.85 -0.72000003 0.15099999 150 16 0
1.846 -0.72399998 0.15099999 150 16 0
1.839 -0.72799999 0.15099999 150 16 0
1.835 -0.73299998 0.15000001 150 16 0
1.821 -0.73299998 0.15000001 150 16 0
1.8150001 -0.73699999 0.149 150 16 0
1.807 -0.74000001 0.149 150 16 0
1.796 -0.74199998 0.148 150 16 0
1.793 -0.74599999 0.148 2 0 0
1.788 -0.75099999 0.148 67 0 0
1.783 -0.75400001 0.148 84 0 0
1.768 -0.75400001 0.146 95 0 0
1.765 -0.759 0.146 100 0 0
1.756 -0.76099998 0.146 96 0 0
1.744 -0.76200002 0.145 74 0 0
1.7410001 -0.76599997 0.14399999 71 0 0
1.7359999 -0.76999998 0.14399999 105 0 0
1.7309999 -0.77399999 0.14399999 88 0 0
1.725 -0.77700001 0.14300001 95 0 0
1.717 -0.77899998 0.142 105 0 0
1.7130001 -0.78299999 0.142 94 0 0
1.704 -0.78500003 0.141 63 0 0
1.694 -0.78600001 0.14 97 0 0
1.6900001 -0.78899997 0.14 93 0 0
1.6799999 -0.79100001 0.139 111 0 0
1.678 -0.79500002 0.138 125 0 0
1.669 -0.79699999 0.13699999 81 0 0
1.663 -0.79900002 0.13699999 135 0 0
1.66 -0.80299997 0.13600001 150 0 0
1.653 -0.80500001 0.13500001 121 0 0
1.643 -0.80599999 0.134 130 0 0
1.643 -0.81199998 0.134 133 0 0
1.635 -0.81300002 0.133 104 0 0
1.628 -0.815 0.132 115 0 0
1.6210001 -0.81699997 0.131 141 0 0
1.6160001 -0.81900001 0.13 113 0 0
1.61 -0.82200003 0.12899999 134 0 0
1.603 -0.82300001 0.12800001 104 0 0
1.59 -0.82200003 0.126 115 0 0
1.5880001 -0.82599998 0.126 102 0 0
1.586 -0.82999998 0.125 140 0 0
1.58 -0.83200002 0.124 91 0 0
1.576 -0.83499998 0.123 121 0 0
1.5700001 -0.83700001 0.122 143 0 0
1.5650001 -0.83899999 0.121 114 0 0
1.564 -0.84399998 0.12 150 0 0
1.559 -0.84600002 0.119 139 0 0
1.546 -0.84399998 0.117 112 0 0
1.544 -0.84799999 0.117 125 0 0
1.541 -0.85100001 0.116 145 0 0
1.5369999 -0.85299999 0.114 130 0 0
1.53 -0.85399997 0.113 128 0 0
1.522 -0.85500002 0.112 113 0 0
1.52 -0.85799998 0.111 141 0 0
1.516 -0.86000001 0.11 130 0 0
1.51 -0.86199999 0.108 128 0 0
1.507 -0.86400002 0.107 138 0 0
1.501 -0.866 0.106 150 0 0
1.499 -0.86900002 0.105 118 0 0
1.492 -0.86900002 0.103 135 0 0
1.487 -0.87099999 0.102 114 0 0
1.483 -0.87199998 0.101 137 0 0
1.478 -0.87400001 0.098999999 140 0 0
1.477 -0.87699997 0.097999997 150 0 0
1.47 -0.87699997 0.097000003 150 0 0
1.4680001 -0.88 0.094999999 150 0 0
1.4579999 -0.87900001 0.093999997 150 0 0
1.46 -0.884 0.093000002 150 0 0
1.452 -0.88300002 0.090999998 146 0 0
1.451 -0.88599998 0.090000004 150 0 0
1.448 -0.889 0.088 150 0 0
1.442 -0.889 0.086999997 108 0 0
1.442 -0.89300001 0.085000001 135 0 0
1.434 -0.89099997 0.083999999 150 0 0
1.431 -0.89300001 0.082000002 148 0 0
1.4299999 -0.89600003 0.081 150 0 0
1.421 -0.89399999 0.079000004 150 0 0
1.418 -0.89600003 0.078000002 123 0 0
1.4170001 -0.898 0.075999998 148 0 0
1.415 -0.90100002 0.075000003 150 0 0
1.4069999 -0.89899999 0.072999999 140 0 0
1.4069999 -0.903 0.071000002 119 0 0
1.403 -0.903 0.07 106 0 0
1.396 -0.90200001 0.068000004 118 0 0
1.4 -0.90700001 0.067000002 150 0 0
1.3940001 -0.90700001 0.064999998 139 0 0
1.3890001 -0.90700001 0.063000001 150 0 0
1.388 -0.90899998 0.061999999 140 0 0
1.385 -0.91000003 0.059999999 140 0 0
1.383 -0.91100001 0.057999998 150 0 0
1.3789999 -0.912 0.057 144 0 0
1.376 -0.91299999 0.055 139 0 0
1.374 -0.91399997 0.052999999 131 0 0
1.374 -0.91600001 0.052000001 150 0 0
1.369 -0.91500002 0.050000001 124 0 0
1.368 -0.917 0.048 125 0 0
1.367 -0.91900003 0.046999998 125 0 0
1.363 -0.91900003 0.045000002 135 0 0
1.36 -0.91900003 0.043000001 134 0 0
1.358 -0.92000002 0.041000001 150 0 0
1.357 -0.92199999 0.039999999 120 0 0
1.357 -0.92299998 0.037999999 148 0 0
1.3559999 -0.92500001 0.035999998 150 0 0
1.351 -0.92299998 0.034000002 128 0 0
1.354 -0.92699999 0.033 150 0 0
1.346 -0.92400002 0.030999999 126 0 0
1.345 -0.92500001 0.028999999 116 0 0
1.342 -0.92500001 0.027000001 150 0 0
1.3430001 -0.92699999 0.025 117 0 0
1.34 -0.926 0.023 140 0 0
1.342 -0.92900002 0.021 118 0 0
1.3380001 -0.92799997 0.02 134 0 0
1.339 -0.93000001 0.017999999 112 0 0
1.335 -0.92799997 0.016000001 141 0 0
1.332 -0.92799997 0.014 126 0 0
1.334 -0.93000001 0.012 131 0 0
1.33 -0.92900002 0.0099999998 103 0 0
1.3329999 -0.93099999 0.0089999996 130 0 0
1.33 -0.93000001 0.0070000002 129 0 0
1.329 -0.93000001 0.0049999999 130 0 0
1.329 -0.93099999 0.003 105 0 0
1.3279999 -0.93099999 0.001 134 0 0
1.326 -0.93099999 0 116 0 0
1.314 -0.92199999 -0.0020000001 87 1 0
1.327 -0.93300003 -0.0040000002 110 3 0
1.325 -0.93099999 -0.0049999999 150 0 0
1.325 -0.93199998 -0.0070000002 113 0 0
1.322 -0.93000001 -0.0089999996 134 0 0
1.322 -0.93000001 -0.011 138 0 0
1.312 -0.92299998 -0.013 107 1 0
1.309 -0.921 -0.015 104 0 0
1.322 -0.93000001 -0.017000001 129 0 0
1.319 -0.92799997 -0.017999999 109 0 0
1.322 -0.93000001 -0.02 116 0 0
1.3200001 -0.92799997 -0.022 130 0 0
1.309 -0.92000002 -0.024 103 1 0
1.3200001 -0.92699999 -0.026000001 136 0 0
1.307 -0.91799998 -0.027000001 124 0 0
1.323 -0.92799997 -0.029999999 124 0 0
1.3099999 -0.91900003 -0.030999999 91 0 0
1.321 -0.926 -0.033 140 0 0
1.324 -0.92699999 -0.035 107 0 0
1.311 -0.917 -0.037 86 1 0
1.3099999 -0.91500002 -0.037999999 107 0 0
1.325 -0.92500001 -0.041000001 142 1 0
1.325 -0.92400002 -0.043000001 145 0 0
1.323 -0.92199999 -0.044 129 0 0
1.313 -0.91399997 -0.046 106 1 0
1.327 -0.92199999 -0.048 118 3 0
1.325 -0.91900003 -0.050000001 150 0 0
1.3279999 -0.92000002 -0.050999999 150 0 0
1.332 -0.921 -0.052999999 150 0 0
1.329 -0.91799998 -0.055 131 0 0
1.33 -0.917 -0.057 150 0 0
1.332 -0.91600001 -0.057999998 134 0 0
1.332 -0.91500002 -0.059999999 150 0 0
1.3329999 -0.91399997 -0.061999999 117 0 0
1.3329999 -0.912 -0.064000003 150 0 0
1.335 -0.91100001 -0.066 150 0 0
1.34 -0.912 -0.067000002 150 0 0
1.339 -0.91000003 -0.068999998 150 0 0
1.342 -0.91000003 -0.071000002 133 0 0
1.3430001 -0.90799999 -0.071999997 150 0 0
1.344 -0.90700001 -0.074000001 145 0 0
1.349 -0.90700001 -0.075999998 146 0 0
1.35 -0.90600002 -0.078000002 133 0 0
1.347 -0.90100002 -0.079000004 150 0 0
1.352 -0.90200001 -0.081 146 0 0
1.355 -0.90200001 -0.082000002 150 0 0
1.3559999 -0.89999998 -0.083999999 142 0 0
1.362 -0.90100002 -0.086000003 149 0 0
1.3660001 -0.90100002 -0.088 122 0 0
1.362 -0.89499998 -0.089000002 150 0 0
1.364 -0.89399999 -0.090000004 138 0 0
1.369 -0.89499998 -0.092 150 0 0
1.3710001 -0.89200002 -0.093999997 150 0 0
1.372 -0.88999999 -0.094999999 150 0 0
1.374 -0.889 -0.097000003 150 0 0
1.377 -0.88700002 -0.097999997 150 0 0
1.381 -0.88700002 -0.1 150 0 0
1.383 -0.884 -0.101 150 0 0
1.385 -0.88200003 -0.103 138 0 0
1.3890001 -0.88200003 -0.104 150 0 0
1.3890001 -0.87800002 -0.105 150 0 0
1.392 -0.87699997 -0.107 143 0 0
1.392 -0.87300003 -0.108 145 0 0
1.396 -0.87199998 -0.109 149 0 0
1.4 -0.87099999 -0.111 150 0 0
1.399 -0.86699998 -0.112 150 0 0
1.4069999 -0.86799997 -0.114 150 0 0
1.41 -0.866 -0.115 150 0 0
1.415 -0.866 -0.117 150 0 0
1.415 -0.861 -0.118 141 0 0
1.416 -0.85799998 -0.119 133 0 0
1.425 -0.86000001 -0.12 144 0 0
1.426 -0.85699999 -0.122 150 0 0
1.431 -0.85500002 -0.123 150 0 0
1.432 -0.852 -0.124 150 0 0
1.433 -0.84799999 -0.125 150 0 0
1.4400001 -0.84799999 -0.126 150 0 0
1.444 -0.84600002 -0.12800001 150 0 0
1.447 -0.84399998 -0.12899999 150 0 0
1.452 -0.84299999 -0.13 150 0 0
1.4579999 -0.84200001 -0.131 147 0 0
1.461 -0.83899999 -0.133 124 0 0
1.471 -0.83999997 -0.134 138 0 0
1.474 -0.838 -0.13500001 143 0 0
1.476 -0.83399999 -0.13600001 120 0 0
1.478 -0.83099997 -0.13699999 129 0 0
1.48 -0.82700002 -0.138 127 0 0
1.487 -0.82700002 -0.139 128 0 0
1.489 -0.82300001 -0.14 95 0 0
1.495 -0.82200003 -0.141 138 0 0
1.499 -0.81900001 -0.142 147 0 0
1.5039999 -0.81800002 -0.14300001 114 0 0
1.511 -0.81599998 -0.14399999 133 0 0
1.5140001 -0.81300002 -0.145 127 0 0
1.516 -0.80900002 -0.146 136 0 0
1.528 -0.81099999 -0.147 147 0 0
1.534 -0.80900002 -0.148 147 0 0
1.5369999 -0.80599999 -0.149 136 0 0
1.54 -0.80199999 -0.15000001 134 0 0
1.5470001 -0.801 -0.15099999 150 0 0
1.55 -0.79699999 -0.15099999 116 0 0
1.5599999 -0.79699999 -0.153 92 0 0
1.564 -0.79500002 -0.153 126 0 0
1.569 -0.792 -0.154 138 0 0
1.569 -0.787 -0.154 120 0 0
1.579 -0.78600001 -0.155 119 0 0
1.587 -0.78500003 -0.156 104 0 0
1.592 -0.78200001 -0.15700001 125 0 0
1.595 -0.778 -0.15800001 150 0 0
1.599 -0.77499998 -0.15800001 89 0 0
1.603 -0.77200001 -0.15899999 6 0 0
1.612 -0.76999998 -0.16 96 0 0
1.614 -0.76599997 -0.16 138 0 0
1.618 -0.76300001 -0.16 124 0 0
1.6289999 -0.76300001 -0.161 122 0 0
1.633 -0.759 -0.162 133 0 0
1.6390001 -0.75599998 -0.162 88 0 0
1.647 -0.75400001 -0.163 144 0 0
1.652 -0.75099999 -0.164 2 0 0
1.66 -0.74900001 -0.164 94 0 0
1.666 -0.74599999 -0.16500001 2 0 0
1.673 -0.74299997 -0.16500001 2 0 0
1.678 -0.74000001 -0.16500001 2 0 0
1.686 -0.73699999 -0.16599999 150 16 0
1.6900001 -0.73400003 -0.16599999 150 16 0
1.699 -0.73199999 -0.167 76 0 0
1.704 -0.72799999 -0.167 70 0 0
1.711 -0.72500002 -0.168 150 16 0
1.723 -0.72399998 -0.168 47 0 0
1.729 -0.72100002 -0.169 78 0 0
1.7309999 -0.71600002 -0.168 60 0 0
1.745 -0.71600002 -0.169 62 0 0
1.748 -0.71100003 -0.169 61 0 0
1.758 -0.70899999 -0.17 64 0 0
1.765 -0.70599997 -0.17 2 0 0
1.7690001 -0.70200002 -0.17 3 0 0
1.774 -0.69800001 -0.17 53 0 0
1.785 -0.69599998 -0.171 2 0 0
1.791 -0.69199997 -0.171 150 16 0
1.802 -0.69 -0.171 150 16 0
1.809 -0.68699998 -0.171 2 0 0
1.8150001 -0.68300003 -0.171 150 16 0
1.822 -0.68000001 -0.171 150 16 0
1.8279999 -0.676 -0.171 150 16 0
1.837 -0.67299998 -0.171 150 16 0
1.841 -0.66799998 -0.171 150 16 0
1.858 -0.66799998 -0.17200001 150 16 0
1.863 -0.66299999 -0.17200001 150 16 0
1.874 -0.66100001 -0.17200001 150 16 0
1.875 -0.65499997 -0.171 143 16 0
1.886 -0.65200001 -0.171 150 16 0
1.892 -0.648 -0.171 150 16 0
1.903 -0.64499998 -0.171 150 16 0
1.911 -0.64200002 -0.171 150 16 0
1.9170001 -0.63700002 -0.17 150 16 0
1.926 -0.634 -0.17 150 16 0
1.931 -0.62900001 -0.17 142 16 0
1.938 -0.625 -0.169 136 16 0
1.956 -0.62400001 -0.17 132 19 0
1.962 -0.61900002 -0.17 130 16 0
1.969 -0.61500001 -0.169 133 16 0
1.973 -0.60900003 -0.168 124 16 0
1.985 -0.60600001 -0.168 128 16 0
1.994 -0.602 -0.168 131 16 0
2.007 -0.60000002 -0.168 133 16 0
2.017 -0.59600002 -0.168 128 16 0
2.0209999 -0.59100002 -0.167 108 16 0
2.0309999 -0.58700001 -0.16599999 105 16 0
2.046 -0.58399999 -0.16599999 98 16 0
2.0510001 -0.579 -0.16599999 104 16 0
2.0599999 -0.57499999 -0.16500001 102 16 0
2.075 -0.57200003 -0.16500001 108 16 0
2.0829999 -0.56699997 -0.164 112 16 0
2.0929999 -0.56300002 -0.164 102 16 0
2.099 -0.55800003 -0.163 99 16 0
2.1099999 -0.55400002 -0.162 95 16 0
2.1240001 -0.55000001 -0.162 94 16 0
2.1340001 -0.546 -0.161 94 16 0
2.1400001 -0.54000002 -0.16 96 16 0
2.152 -0.53600001 -0.16 91 16 0
2.1600001 -0.53100002 -0.15899999 93 16 0
2.1800001 -0.52899998 -0.15899999 94 16 0
2.1900001 -0.52399999 -0.15800001 93 16 0
2.2 -0.51999998 -0.15700001 82 16 0
2.211 -0.51499999 -0.156 82 16 0
2.2219999 -0.50999999 -0.155 79 16 0
2.233 -0.505 -0.154 77 16 0
2.243 -0.5 -0.153 73 16 0
2.2539999 -0.49599999 -0.153 71 16 0
2.267 -0.491 -0.152 71 16 0
2.276 -0.486 -0.15099999 59 16 0
2.289 -0.48100001 -0.15000001 61 16 0
2.3 -0.47600001 -0.149 61 16 0
2.313 -0.47099999 -0.148 64 16 0
2.3269999 -0.46599999 -0.147 56 16 0
2.336 -0.461 -0.145 57 16 0
2.3510001 -0.456 -0.14399999 52 16 0
2.3640001 -0.45100001 -0.14300001 50 16 0
2.3759999 -0.44600001 -0.142 46 16 0
2.3870001 -0.44 -0.141 58 16 0
2.395 -0.43399999 -0.139 47 16 0
2.415 -0.43000001 -0.138 55 16 0
2.428 -0.42500001 -0.13699999 58 16 0
2.4360001 -0.41800001 -0.13500001 54 16 0
2.4530001 -0.41299999 -0.134 53 16 0
2.461 -0.40700001 -0.133 49 16 0
2.4779999 -0.40200001 -0.131 43 16 0
2.4890001 -0.396 -0.13 43 16 0
2.506 -0.38999999 -0.12800001 45 16 0
2.5179999 -0.384 -0.127 36 16 0
2.5320001 -0.37799999 -0.125 40 16 0
2.543 -0.37200001 -0.124 30 16 0
2.559 -0.366 -0.122 30 16 0
2.576 -0.36000001 -0.12 31 16 0
2.5899999 -0.354 -0.119 30 16 0
2.6010001 -0.34799999 -0.117 29 16 0
2.6210001 -0.34200001 -0.115 30 16 0
2.632 -0.33500001 -0.113 31 16 0
2.6459999 -0.329 -0.111 29 16 0
2.671 -0.324 -0.11 28 16 0
2.6789999 -0.31600001 -0.108 29 16 0
2.6960001 -0.31 -0.106 29 16 0
2.7149999 -0.303 -0.104 29 16 0
2.7260001 -0.296 -0.102 28 16 0
2.7360001 -0.289 -0.1 27 16 0
2.7579999 -0.28200001 -0.097999997 28 16 0
2.77 -0.27500001 -0.094999999 27 16 0
2.7869999 -0.26800001 -0.093000002 27 16 0
2.803 -0.26100001 -0.090999998 27 16 0
2.8210001 -0.25400001 -0.089000002 28 16 0
2.8380001 -0.24699999 -0.086999997 26 16 0
2.8529999 -0.23899999 -0.083999999 27 16 0
2.8670001 -0.23100001 -0.082000002 27 16 0
2.8889999 -0.22400001 -0.079000004 27 16 0
2.908 -0.21699999 -0.077 27 16 0
2.9219999 -0.20900001 -0.074000001 26 16 0
2.9460001 -0.20100001 -0.071999997 26 16 0
2.9619999 -0.193 -0.068999998 26 16 0
2.9779999 -0.185 -0.066 26 16 0
3.0020001 -0.177 -0.064000003 25 16 0
3.017 -0.169 -0.061000001 25 16 0
3.046 -0.161 -0.057999998 26 16 0
3.066 -0.153 -0.055 26 16 0
3.086 -0.145 -0.052000001 25 16 0
3.1029999 -0.13600001 -0.048999999 26 16 0
3.1259999 -0.127 -0.046 26 16 0
3.1459999 -0.119 -0.043000001 26 16 0
3.1689999 -0.11 -0.039999999 26 16 0
3.1900001 -0.101 -0.037 26 16 0
3.21 -0.092 -0.034000002 27 16 0
3.234 -0.082000002 -0.029999999 28 16 0
3.2579999 -0.072999999 -0.027000001 41 16 0
3.2650001 -0.063000001 -0.023 150 16 0
3.263 -0.052999999 -0.02 132 16 0
3.2579999 -0.044 -0.016000001 125 16 0
3.253 -0.034000002 -0.012 109 16 0
3.2490001 -0.024 -0.0089999996 99 16 0
3.243 -0.014 -0.0049999999 27 16 0
3.2720001 -0.0040000002 -0.001 17 16 0
3.2920001 0.0049999999 0.0020000001 18 16 0
3.316 0.015 0.0049999999 19 16 0
3.3369999 0.025 0.0089999996 37 16 0
3.3310001 0.035 0.013 59 16 0
3.325 0.045000002 0.017000001 65 16 0
3.3269999 0.055 0.021 43 16 0
3.323 0.064999998 0.025 47 16 0
3.3210001 0.075000003 0.028999999 68 16 0
3.3150001 0.085000001 0.033 65 16 0
3.3139999 0.094999999 0.037 61 16 0
3.3080001 0.105 0.041000001 57 16 0
3.3110001 0.115 0.045000002 70 16 0
3.2950001 0.124 0.048999999 84 16 0
3.247 0.132 0.052000001 117 18 0
3.2309999 0.141 0.055 112 16 0
3.2290001 0.15099999 0.059 101 16 0
3.2260001 0.16 0.063000001 105 16 0
3.2190001 0.17 0.067000002 95 16 0
3.2160001 0.17900001 0.071000002 100 16 0
3.211 0.18799999 0.075000003 86 16 0
3.21 0.198 0.079000004 93 16 0
3.207 0.207 0.082999997 94 16 0
3.201 0.21699999 0.086999997 86 16 0
3.1989999 0.226 0.090999998 96 16 0
3.198 0.235 0.094999999 93 16 0
3.2030001 0.245 0.098999999 102 16 0
3.204 0.255 0.103 103 16 0
3.2019999 0.264 0.108 54 16 0
3.198 0.27399999 0.112 42 16 0
3.2079999 0.28400001 0.116 34 16 0
3.221 0.29499999 0.121 33 16 0
3.2320001 0.30500001 0.126 59 16 0
3.237 0.31600001 0.13 75 16 0
3.227 0.324 0.134 47 16 0
3.22 0.333 0.138 39 16 0
3.211 0.34200001 0.142 38 16 0
3.204 0.35100001 0.146 36 16 0
3.1889999 0.35800001 0.15000001 32 16 0
3.1860001 0.368 0.154 30 16 0
3.1730001 0.375 0.15800001 31 16 0
3.1619999 0.384 0.161 31 16 0
3.151 0.39199999 0.16500001 31 16 0
3.145 0.40000001 0.169 32 16 0
3.1289999 0.40700001 0.17299999 31 16 0
3.122 0.41499999 0.177 36 16 0
3.115 0.42399999 0.18099999 37 16 0
3.102 0.43099999 0.184 43 16 0
3.096 0.43900001 0.18799999 70 16 0
3.089 0.44800001 0.192 108 16 0
3.0840001 0.456 0.19599999 150 16 0
3.0840001 0.465 0.20100001 150 16 0
3.0840001 0.47400001 0.205 150 16 0
3.079 0.48300001 0.20999999 150 16 0
3.076 0.491 0.214 150 16 0
3.069 0.49900001 0.21799999 150 16 0
3.0680001 0.50800002 0.222 150 16 0
3.0639999 0.51599997 0.227 150 16 0
3.063 0.52499998 0.23100001 150 16 0
3.062 0.53399998 0.236 150 16 0
3.0599999 0.54299998 0.23999999 150 16 0
3.056 0.551 0.244 150 16 0
3.0539999 0.56 0.249 150 16 0
3.053 0.56800002 0.25299999 150 16 0
3.05 0.57700002 0.25799999 150 16 0
3.049 0.58600003 0.26199999 150 16 0
3.046 0.59399998 0.26699999 150 16 0
3.0439999 0.60299999 0.271 150 16 0
3.0409999 0.611 0.27599999 150 16 0
3.039 0.61900002 0.28099999 150 16 0
3.04 0.62900001 0.285 150 16 0
3.027 0.63499999 0.289 150 16 0
3.033 0.64499998 0.294 150 16 0
3.03 0.653 0.29899999 150 16 0
3.029 0.662 0.30399999 150 16 0
3.027 0.67000002 0.308 150 16 0
3.0239999 0.67799997 0.31299999 150 16 0
3.0220001 0.68699998 0.31799999 150 16 0
3.017 0.69400001 0.322 150 16 0
3.0139999 0.70300001 0.32699999 150 16 0
3.0139999 0.71100003 0.33199999 150 16 0
3.0109999 0.71899998 0.33700001 150 16 0
3.01 0.72799999 0.34200001 150 16 0
3.006 0.736 0.34599999 150 16 0
3.0050001 0.74400002 0.35100001 150 16 0
3.0039999 0.75199997 0.35600001 150 16 0
3 0.75999999 0.361 150 16 0
2.9960001 0.76800001 0.36500001 150 16 0
2.994 0.77600002 0.37 150 16 0
2.994 0.78399998 0.375 150 16 0
2.9879999 0.792 0.38 150 16 0
2.9909999 0.801 0.38499999 150 16 0
2.9849999 0.80800003 0.38999999 150 16 0
2.9879999 0.81800002 0.396 150 16 0
2.9860001 0.82499999 0.40099999 150 16 0
2.9849999 0.83399999 0.40599999 150 16 0
2.9820001 0.84100002 0.41100001 150 16 0
2.9820001 0.85000002 0.41600001 150 16 0
2.9790001 0.85799998 0.421 150 16 0
2.9760001 0.86500001 0.426 150 16 0
2.9779999 0.87400001 0.43200001 150 16 0
2.967 0.88 0.43599999 150 16 0
2.9719999 0.88999999 0.442 150 16 0
2.971 0.898 0.447 150 16 0
2.9679999 0.90499997 0.45199999 150 16 0
2.9649999 0.91299999 0.458 150 16 0
2.9649999 0.921 0.463 150 16 0
2.9590001 0.92799997 0.46799999 150 16 0
2.9560001 0.935 0.47299999 150 16 0
2.9549999 0.94300002 0.47799999 150 16 0
2.954 0.95099998 0.484 150 16 0
2.9530001 0.95899999 0.48899999 150 16 0
2.9519999 0.96700001 0.495 150 16 0
2.95 0.97500002 0.5 150 16 0
2.9449999 0.98100001 0.505 150 16 0
2.944 0.98900002 0.51099998 150 16 0
2.9389999 0.995 0.51599997 150 16 0
2.937 1.003 0.52100003 116 16 0
2.9300001 1.0089999 0.52600002 48 16 0
2.918 1.013 0.52899998 41 16 0
2.911 1.018 0.53399998 40 16 0
2.8989999 1.022 0.53799999 39 16 0
2.8859999 1.025 0.54100001 39 16 0
2.8770001 1.03 0.54500002 39 16 0
2.8710001 1.036 0.55000001 40 16 0
2.8570001 1.039 0.55400002 39 16 0
2.8510001 1.044 0.55800003 40 16 0
2.842 1.049 0.56199998 42 16 0
2.835 1.053 0.56699997 39 16 0
2.822 1.056 0.56999999 39 16 0
2.8110001 1.059 0.574 40 16 0
2.802 1.064 0.57800001 41 16 0
2.796 1.069 0.58200002 41 16 0
2.7839999 1.072 0.58600003 43 16 0
2.777 1.076 0.58999997 40 16 0
2.7650001 1.079 0.59399998 41 16 0
2.753 1.081 0.597 50 16 0
2.7390001 1.0829999 0.60000002 52 16 0
2.7320001 1.087 0.60399997 47 16 0
2.723 1.091 0.60799998 46 16 0
2.7149999 1.094 0.61199999 43 16 0
2.71 1.1 0.61699998 45 16 0
2.7019999 1.103 0.62099999 48 16 0
2.6889999 1.105 0.62400001 47 16 0
2.684 1.109 0.62900001 45 16 0
2.6700001 1.1109999 0.63200003 53 16 0
2.661 1.114 0.63599998 49 16 0
2.655 1.118 0.63999999 45 16 0
2.645 1.12 0.64399999 47 16 0
2.6400001 1.124 0.648 44 16 0
2.6259999 1.125 0.65100002 48 16 0
2.6199999 1.1289999 0.65499997 47 16 0
2.608 1.13 0.65799999 47 16 0
2.598 1.132 0.662 45 16 0
2.592 1.135 0.66600001 53 16 0
2.5810001 1.136 0.66900003 46 16 0
2.5769999 1.141 0.67400002 49 16 0
2.569 1.143 0.67799997 52 16 0
2.5569999 1.1440001 0.68099999 41 16 0
2.5480001 1.146 0.68400002 43 16 0
2.5409999 1.149 0.68800002 40 16 0
2.5320001 1.15 0.69199997 42 16 0
2.526 1.153 0.69599998 44 16 0
2.517 1.155 0.69999999 42 16 0
2.5109999 1.158 0.704 41 16 0
2.5 1.158 0.70700002 50 16 0
2.493 1.16 0.71100003 56 16 0
2.4860001 1.1619999 0.71399999 50 16 0
2.473 1.161 0.71700001 42 16 0
2.47 1.165 0.72100002 50 16 0
2.4590001 1.165 0.72399998 41 16 0
2.45 1.166 0.727 48 16 0
2.448 1.17 0.73199999 44 16 0
2.4349999 1.169 0.73400003 45 16 0
2.425 1.169 0.73699999 46 16 0
2.421 1.1720001 0.74199998 50 16 0
2.4100001 1.171 0.74400002 43 16 0
2.4059999 1.174 0.74900001 53 16 0
2.402 1.176 0.75300002 47 16 0
2.391 1.176 0.755 47 16 0
2.385 1.177 0.759 46 16 0
2.3740001 1.176 0.76099998 45 16 0
2.3659999 1.176 0.764 55 16 0
2.3629999 1.179 0.76899999 55 16 0
2.355 1.179 0.77200001 54 16 0
2.3499999 1.181 0.77600002 61 16 0
2.345 1.182 0.77999997 61 16 0
2.335 1.181 0.78200001 54 16 0
2.332 1.183 0.787 62 16 0
2.325 1.183 0.79000002 67 16 0
2.316 1.182 0.792 67 16 0
2.3069999 1.182 0.79500002 64 16 0
2.299 1.181 0.79699999 63 16 0
2.2920001 1.181 0.80000001 62 16 0
2.286 1.181 0.80299997 54 16 0
2.2809999 1.182 0.80699998 60 16 0
2.276 1.182 0.81099999 57 16 0
2.2650001 1.179 0.81199998 55 16 0
2.26 1.1799999 0.815 61 16 0
2.253 1.179 0.81800002 64 16 0
2.247 1.179 0.82099998 61 16 0
2.2349999 1.175 0.82200003 62 16 0
2.2320001 1.176 0.82599998 64 16 0
2.2249999 1.175 0.82800001 59 16 0
2.2219999 1.176 0.83200002 67 16 0
2.214 1.174 0.83399999 57 16 0
2.207 1.1720001 0.83600003 61 16 0
2.2049999 1.174 0.83999997 63 16 0
2.198 1.1720001 0.84299999 65 16 0
2.191 1.171 0.84500003 61 16 0
2.1849999 1.169 0.847 62 16 0
2.181 1.169 0.85000002 66 16 0
2.1760001 1.168 0.85299999 63 16 0
2.168 1.165 0.85500002 61 16 0
2.165 1.165 0.85799998 61 16 0
2.158 1.163 0.86000001 61 16 0
2.1530001 1.1619999 0.86199999 43 16 0
2.148 1.16 0.86400002 31 16 0
2.1400001 1.1569999 0.866 25 16 0
2.135 1.155 0.86799997 22 16 0
2.1329999 1.155 0.87099999 21 16 0
2.1300001 1.154 0.87400001 19 16 0
2.119 1.149 0.87400001 19 19 0
2.1129999 1.147 0.87599999 22 16 0
2.1110001 1.146 0.87900001 27 16 0
2.109 1.146 0.88200003 34 16 0
2.108 1.146 0.88499999 55 16 0
2.0969999 1.14 0.88499999 75 19 0
2.095 1.1390001 0.88800001 94 16 0
2.089 1.136 0.889 93 16 0
2.085 1.1339999 0.89099997 88 16 0
2.0810001 1.132 0.89300001 81 16 0
2.0810001 1.131 0.89600003 85 16 0
2.0739999 1.128 0.89700001 87 16 0
2.069 1.125 0.898 91 16 0
2.0680001 1.124 0.90100002 94 16 0
2.063 1.1210001 0.90200001 82 16 0
2.063 1.12 0.90600002 94 16 0
2.0580001 1.1160001 0.90600002 89 16 0
2.052 1.113 0.90700001 80 16 0
2.0510001 1.1109999 0.90899998 90 16 0
2.046 1.108 0.91000003 90 16 0
2.0450001 1.1059999 0.91299999 91 16 0
2.0420001 1.103 0.91399997 88 16 0
2.0380001 1.1 0.91500002 93 16 0
2.0380001 1.099 0.91799998 91 16 0
2.0369999 1.097 0.92000002 94 16 0
2.03 1.091 0.91900003 96 19 0
2.0239999 1.087 0.91900003 93 16 0
2.026 1.086 0.92199999 92 16 0
2.0239999 1.0829999 0.92400002 97 16 0
2.0190001 1.079 0.92400002 97 16 0
2.0190001 1.077 0.926 100 16 0
2.017 1.074 0.92699999 97 16 0
2.0109999 1.069 0.92699999 104 16 0
2.0079999 1.0650001 0.92699999 94 16 0
2.0090001 1.064 0.92900002 106 16 0
2.01 1.062 0.93099999 97 16 0
2.0050001 1.057 0.93099999 99 16 0
2.0050001 1.054 0.93199998 98 16 0
2 1.049 0.93199998 93 16 0
2.0009999 1.0470001 0.93400002 95 16 0
1.997 1.0420001 0.93300003 101 16 0
1.997 1.04 0.935 98 16 0
1.997 1.0369999 0.93599999 101 16 0
1.995 1.033 0.93599999 104 16 0
1.99 1.028 0.935 105 16 0
1.992 1.025 0.93699998 108 16 0
1.992 1.022 0.93800002 107 16 0
1.989 1.017 0.93699998 87 16 0
1.993 1.016 0.94 119 16 0
1.99 1.011 0.93900001 90 16 0
1.989 1.008 0.93900001 106 16 0
1.989 1.0039999 0.94 96 16 0
1.988 1 0.94 102 16 0
1.987 0.99599999 0.93900001 102 16 0
1.983 0.991 0.93800002 95 16 0
1.9859999 0.98799998 0.94 100 16 0
1.9859999 0.98400003 0.93900001 106 16 0
1.9859999 0.98100001 0.94 106 16 0
1.99 0.97899997 0.94099998 108 16 0
1.987 0.97399998 0.94 110 16 0
1.985 0.96899998 0.93900001 106 16 0
1.985 0.96499997 0.93900001 111 16 0
1.9859999 0.96100003 0.93900001 115 16 0
1.99 0.95899999 0.94 119 16 0
1.985 0.95200002 0.93699998 125 16 0
1.9859999 0.94800001 0.93699998 119 16 0
1.988 0.94499999 0.93699998 119 16 0
1.989 0.94099998 0.93800002 120 16 0
1.9910001 0.93800002 0.93800002 107 16 0
1.992 0.93400002 0.93699998 109 16 0
1.994 0.93000001 0.93699998 105 16 0
1.9960001 0.92699999 0.93699998 109 16 0
1.994 0.921 0.935 106 16 0
1.998 0.91900003 0.93599999 108 16 0
1.999 0.91399997 0.935 113 16 0
1.997 0.90899998 0.93300003 109 16 0
2.0009999 0.90600002 0.93300003 107 16 0
2.0039999 0.90200001 0.93300003 115 16 0
2.003 0.89700001 0.93099999 108 16 0
2.0050001 0.89300001 0.93099999 115 16 0
2.006 0.88800001 0.92900002 119 16 0
2.0109999 0.88599998 0.93000001 122 16 0
2.016 0.88300002 0.93000001 118 16 0
2.0179999 0.87900001 0.92900002 118 16 0
2.0139999 0.87199998 0.926 114 16 0
2.016 0.86799997 0.92500001 123 16 0
2.0190001 0.86400002 0.92400002 120 16 0
2.0209999 0.86000001 0.92299998 115 16 0
2.029 0.85799998 0.92400002 119 16 0
2.029 0.85299999 0.92199999 120 16 0
2.0350001 0.85000002 0.92199999 130 16 0
2.036 0.84600002 0.921 130 16 0
2.039 0.84100002 0.91900003 121 16 0
2.0409999 0.83700001 0.91799998 121 16 0
2.0450001 0.833 0.917 120 16 0
2.046 0.82800001 0.91500002 120 16 0
2.0510001 0.82499999 0.91399997 119 16 0
2.052 0.81999999 0.912 111 16 0
2.0539999 0.81599998 0.91000003 108 16 0
2.0580001 0.81199998 0.90899998 106 16 0
2.062 0.80800003 0.90799999 113 16 0
2.063 0.80299997 0.90600002 111 16 0
2.069 0.80000001 0.90499997 102 16 0
2.0699999 0.79500002 0.90200001 108 16 0
2.075 0.79100001 0.90100002 118 16 0
2.082 0.78799999 0.90100002 133 16 0
2.0780001 0.78100002 0.89600003 113 16 0
2.0829999 0.77700001 0.89499998 120 16 0
2.096 0.77700001 0.89700001 132 16 0
2.1010001 0.773 0.89600003 135 16 0
2.099 0.76700002 0.89099997 130 16 0
2.1040001 0.76300001 0.88999999 129 16 0
2.108 0.759 0.88800001 131 16 0
2.1140001 0.755 0.88700002 134 16 0
2.119 0.75099999 0.88499999 131 16 0
2.1259999 0.74800003 0.884 147 16 0
2.1259999 0.74299997 0.88099998 129 16 0
2.132 0.73900002 0.87900001 134 16 0
2.138 0.73500001 0.87800002 134 16 0
2.142 0.73100001 0.875 128 16 0
2.145 0.72600001 0.87300003 133 16 0
2.1530001 0.72299999 0.87099999 141 16 0
2.154 0.71799999 0.86799997 134 16 0
2.1619999 0.71499997 0.86699998 124 16 0
2.1689999 0.71100003 0.866 137 16 0
2.1689999 0.70599997 0.861 140 16 0
2.1789999 0.70300001 0.861 135 16 0
2.1819999 0.69800001 0.85799998 117 16 0
2.188 0.69499999 0.85600001 133 16 0
2.191 0.69 0.852 137 16 0
2.198 0.68599999 0.85000002 136 16 0
2.2049999 0.68300003 0.84899998 118 16 0
2.2119999 0.67900002 0.847 134 16 0
2.22 0.676 0.84500003 133 16 0
2.22 0.67000002 0.83999997 130 16 0
2.2290001 0.667 0.83899999 131 16 0
2.2360001 0.66299999 0.83700001 124 16 0
2.2420001 0.65899998 0.83399999 129 16 0
2.2479999 0.65499997 0.83200002 130 16 0
2.257 0.65200001 0.82999998 118 16 0
2.2609999 0.64700001 0.82700002 118 16 0
2.2650001 0.64300001 0.82300001 117 16 0
2.273 0.639 0.82099998 118 16 0
2.2780001 0.63499999 0.81800002 107 16 0
2.2820001 0.63 0.81400001 102 16 0
2.2909999 0.62699997 0.81199998 110 16 0
2.2969999 0.62199998 0.80900002 104 16 0
2.302 0.61799997 0.80599999 102 16 0
2.3099999 0.61400002 0.80299997 125 16 0
2.312 0.60900003 0.79900002 148 16 0
2.3210001 0.60600001 0.796 66 16 0
2.355 0.60900003 0.80199999 27 18 0
2.3970001 0.61400002 0.81099999 29 16 0
2.421 0.61400002 0.81400001 24 16 0
