# .PCD v0.7 - Point Cloud Data file format
VERSION 0.7
FIELDS x y z intensity tag line
SIZE 4 4 4 4 1 1
TYPE F F F F U U
COUNT 1 1 1 1 1 1
WIDTH 1350
HEIGHT 1
VIEWPOINT 0 0 0 1 0 0 0
POINTS 1350
DATA ascii
1.848 0.66299999 1 150 16 0
1.851 0.66000003 1 150 16 0
1.852 0.65600002 0.99800003 150 16 0
1.8559999 0.65399998 0.99800003 150 16 0
1.857 0.64999998 0.99599999 150 16 0
1.862 0.64700001 0.99599999 150 16 0
1.864 0.64399999 0.99400002 147 16 0
1.868 0.64099997 0.99400002 150 16 0
1.87 0.63800001 0.99299997 150 16 0
1.874 0.63499999 0.99199998 150 16 0
1.876 0.63099998 0.99000001 150 16 0
1.878 0.62699997 0.98900002 150 16 0
1.88 0.62400001 0.98699999 150 16 0
1.882 0.62 0.98500001 150 16 0
1.888 0.61799997 0.98500001 150 16 0
1.888 0.61299998 0.98199999 150 16 0
1.892 0.61000001 0.98100001 150 16 0
1.902 0.60900003 0.98299998 150 16 0
1.897 0.60299999 0.977 150 16 0
1.909 0.602 0.98000002 150 16 0
1.911 0.59899998 0.977 150 16 0
1.9119999 0.59399998 0.97500002 150 16 0
1.916 0.59100002 0.97299999 150 16 0
1.921 0.588 0.972 150 16 0
1.9299999 0.58600003 0.97299999 150 16 0
1.926 0.58099997 0.96700001 150 16 0
1.931 0.57800001 0.96600002 150 16 0
1.938 0.57499999 0.96499997 150 16 0
1.9400001 0.57200003 0.963 150 16 0
1.95 0.56999999 0.96399999 150 16 0
1.955 0.56699997 0.96200001 150 16 0
1.956 0.56300002 0.95899999 143 16 0
1.959 0.55900002 0.95599997 139 16 0
1.969 0.55699998 0.95700002 150 16 0
1.969 0.55299997 0.95300001 150 16 0
1.974 0.54900002 0.95099998 150 16 0
1.979 0.546 0.949 150 16 0
1.983 0.54299998 0.94599998 150 16 0
1.993 0.54100001 0.94599998 150 16 0
1.997 0.537 0.94400001 150 16 0
2 0.53399998 0.94099998 150 16 0
2.0020001 0.52999997 0.93699998 150 16 0
2.0109999 0.52700001 0.93699998 150 16 0
2.0139999 0.52399999 0.93300003 145 16 0
2.017 0.51999998 0.93000001 147 16 0
2.023 0.51700002 0.92799997 150 16 0
2.026 0.51300001 0.92500001 150 16 0
2.0339999 0.50999999 0.92299998 146 16 0
2.0380001 0.50700003 0.921 150 16 0
2.0510001 0.50599998 0.921 149 16 0
2.053 0.50199997 0.917 149 16 0
2.0569999 0.498 0.91399997 150 16 0
2.062 0.495 0.91100001 139 16 0
2.0699999 0.49200001 0.91000003 150 16 0
2.073 0.48800001 0.90600002 147 16 0
2.0769999 0.484 0.90200001 147 16 0
2.086 0.48199999 0.90100002 145 16 0
2.092 0.479 0.898 144 16 0
2.098 0.47600001 0.89499998 148 16 0
2.1059999 0.47299999 0.89300001 149 16 0
2.1110001 0.46900001 0.88999999 150 16 0
2.118 0.46599999 0.88700002 136 16 0
2.122 0.463 0.884 136 16 0
2.132 0.46000001 0.88200003 138 16 0
2.1389999 0.45699999 0.87900001 134 16 0
2.142 0.454 0.875 132 16 0
2.1530001 0.45100001 0.87400001 137 16 0
2.1589999 0.44800001 0.87 137 16 0
2.1700001 0.44600001 0.86900002 136 16 0
2.1730001 0.442 0.86500001 135 16 0
2.1819999 0.43900001 0.86199999 132 16 0
2.188 0.43599999 0.85900003 127 16 0
2.198 0.433 0.85600001 139 16 0
2.2019999 0.43000001 0.852 131 16 0
2.2130001 0.42699999 0.85000002 137 16 0
2.2179999 0.42399999 0.84600002 139 16 0
2.227 0.421 0.84299999 132 16 0
2.237 0.41800001 0.84100002 143 16 0
2.244 0.41499999 0.838 138 16 0
2.2509999 0.412 0.83399999 127 16 0
2.2590001 0.40900001 0.83099997 133 16 0
2.267 0.40599999 0.82700002 126 16 0
2.273 0.403 0.82300001 124 16 0
2.2880001 0.40099999 0.82200003 127 16 0
2.2909999 0.39700001 0.81699997 117 16 0
2.3010001 0.39399999 0.81400001 117 16 0
2.3110001 0.39199999 0.81099999 117 16 0
2.3180001 0.38800001 0.80699998 118 16 0
2.3280001 0.38600001 0.80400002 111 16 0
2.335 0.382 0.79900002 111 16 0
2.346 0.38 0.796 116 16 0
2.355 0.377 0.79299998 101 16 0
2.358 0.373 0.787 118 16 0
2.369 0.37 0.78399998 115 16 0
2.382 0.368 0.78100002 105 16 0
2.385 0.36399999 0.77600002 105 16 0
2.3959999 0.361 0.77200001 112 16 0
2.408 0.359 0.76899999 109 16 0
2.411 0.35499999 0.76300001 109 16 0
2.424 0.352 0.75999999 111 16 0
2.4319999 0.34900001 0.75599998 102 16 0
2.4389999 0.34599999 0.75099999 80 16 0
2.4519999 0.34299999 0.74800003 76 16 0
2.464 0.34099999 0.74400002 71 16 0
2.474 0.338 0.74000001 68 16 0
2.483 0.33500001 0.736 68 16 0
2.49 0.331 0.73100001 69 16 0
2.4960001 0.32800001 0.72500002 71 16 0
2.5120001 0.32600001 0.722 67 16 0
2.517 0.322 0.71600002 61 16 0
2.5339999 0.31999999 0.71399999 65 16 0
2.5420001 0.317 0.70899999 49 16 0
2.5539999 0.31400001 0.70499998 63 16 0
2.5610001 0.31 0.699 60 16 0
2.5699999 0.30700001 0.69400001 48 16 0
2.585 0.30500001 0.69 29 16 0
2.599 0.30199999 0.68599999 40 16 0
2.6110001 0.29899999 0.68199998 56 16 0
2.6170001 0.29499999 0.676 52 16 0
2.631 0.29300001 0.67199999 52 16 0
2.6429999 0.28999999 0.667 58 16 0
2.6500001 0.28600001 0.66100001 56 16 0
2.661 0.28299999 0.65600002 48 16 0
2.671 0.28 0.64999998 45 16 0
2.6789999 0.27700001 0.64399999 46 16 0
2.694 0.27399999 0.63999999 48 16 0
2.7049999 0.271 0.634 46 16 0
2.714 0.26800001 0.62800002 41 16 0
2.733 0.26499999 0.625 61 16 0
2.7420001 0.26199999 0.61900002 72 16 0
2.75 0.259 0.61199999 51 16 0
2.767 0.25600001 0.60799998 37 16 0
2.7780001 0.25299999 0.602 40 16 0
2.79 0.25 0.59600002 37 16 0
2.809 0.24699999 0.59200001 35 16 0
2.819 0.244 0.58600003 34 16 0
2.829 0.23999999 0.579 33 16 0
2.8429999 0.23800001 0.574 35 16 0
2.855 0.234 0.56800002 34 16 0
2.8699999 0.23100001 0.56199998 34 16 0
2.882 0.228 0.55599999 34 16 0
2.9000001 0.22499999 0.551 33 16 0
2.9130001 0.222 0.54400003 33 16 0
2.925 0.219 0.53799999 34 16 0
2.9349999 0.215 0.53100002 33 16 0
2.9449999 0.212 0.52399999 32 16 0
2.9649999 0.20900001 0.51899999 34 16 0
2.983 0.206 0.51300001 35 16 0
2.9979999 0.20299999 0.50700003 34 16 0
3.0139999 0.2 0.5 34 16 0
3.0250001 0.197 0.493 34 16 0
3.0409999 0.19400001 0.48699999 33 16 0
3.063 0.191 0.48100001 33 16 0
3.072 0.18700001 0.47299999 33 16 0
3.0880001 0.184 0.46599999 33 16 0
3.1110001 0.18099999 0.461 32 16 0
3.1259999 0.178 0.45300001 33 16 0
3.142 0.175 0.44600001 34 16 0
3.1589999 0.171 0.43900001 32 16 0
3.181 0.168 0.433 36 16 0
3.198 0.16500001 0.42500001 35 16 0
3.2119999 0.162 0.41800001 36 16 0
3.2279999 0.15800001 0.41 33 16 0
3.2449999 0.155 0.40200001 33 16 0
3.26 0.15099999 0.39500001 33 16 0
3.28 0.148 0.38699999 34 16 0
3.2920001 0.14399999 0.37799999 35 16 0
3.3169999 0.141 0.37099999 56 16 0
3.323 0.13699999 0.36199999 150 16 0
3.316 0.133 0.35100001 150 16 0
3.3169999 0.12899999 0.34099999 149 16 0
3.3169999 0.125 0.331 149 16 0
3.313 0.121 0.32100001 127 16 0
3.309 0.116 0.31099999 129 16 0
3.309 0.112 0.301 150 16 0
3.3050001 0.108 0.28999999 144 16 0
3.3010001 0.104 0.28 134 16 0
3.2950001 0.1 0.27000001 139 16 0
3.2939999 0.096000001 0.259 150 16 0
3.2950001 0.092 0.25 92 16 0
3.293 0.088 0.23899999 121 16 0
3.293 0.083999999 0.229 114 16 0
3.2880001 0.079999998 0.219 103 16 0
3.289 0.075999998 0.20900001 103 16 0
3.283 0.071999997 0.199 102 16 0
3.2809999 0.068000004 0.189 105 16 0
3.277 0.064000003 0.17900001 116 16 0
3.277 0.061000001 0.169 125 16 0
3.277 0.057 0.15899999 122 16 0
3.267 0.052999999 0.148 124 16 0
3.267 0.048999999 0.138 116 16 0
3.2639999 0.046 0.12800001 86 16 0
3.2739999 0.041999999 0.119 37 16 0
3.2909999 0.039000001 0.109 26 16 0
3.322 0.035 0.1 26 16 0
3.3399999 0.032000002 0.090999998 29 16 0
3.3599999 0.028000001 0.081 51 16 0
3.3629999 0.025 0.071000002 39 16 0
3.348 0.021 0.059999999 24 16 0
3.3440001 0.017000001 0.050000001 20 16 0
3.3239999 0.014 0.039999999 18 16 0
3.3139999 0.0099999998 0.028999999 17 16 0
3.302 0.0060000001 0.018999999 16 16 0
3.2869999 0.003 0.0089999996 16 16 0
3.28 0 0 16 16 0
3.2650001 -0.003 -0.0099999998 16 16 0
3.2550001 -0.0060000001 -0.02 16 16 0
3.2420001 -0.0099999998 -0.029999999 17 16 0
3.23 -0.013 -0.039999999 20 16 0
3.2219999 -0.016000001 -0.048999999 27 16 0
3.2190001 -0.02 -0.059 39 16 0
3.211 -0.023 -0.068999998 47 16 0
3.214 -0.026000001 -0.079000004 100 16 0
3.2019999 -0.028999999 -0.088 109 16 0
3.2019999 -0.033 -0.097999997 117 16 0
3.201 -0.035999998 -0.108 107 16 0
3.194 -0.039000001 -0.118 105 16 0
3.2 -0.041999999 -0.12800001 129 16 0
3.1930001 -0.045000002 -0.13699999 115 16 0
3.188 -0.048 -0.147 139 16 0
3.184 -0.050999999 -0.15700001 121 16 0
3.1830001 -0.054000001 -0.167 123 16 0
3.1800001 -0.057 -0.176 142 16 0
3.1789999 -0.059999999 -0.186 141 16 0
3.1730001 -0.063000001 -0.19599999 150 16 0
3.1789999 -0.066 -0.206 150 16 0
3.1670001 -0.068999998 -0.215 150 16 0
3.1689999 -0.071999997 -0.22499999 107 16 0
3.1630001 -0.075000003 -0.234 54 16 0
3.1500001 -0.078000002 -0.243 36 16 0
3.1429999 -0.079999998 -0.252 28 16 0
3.135 -0.082999997 -0.26199999 26 16 0
3.1240001 -0.086000003 -0.27000001 25 16 0
3.1129999 -0.088 -0.27900001 24 16 0
3.1059999 -0.090999998 -0.28799999 23 16 0
3.0940001 -0.093000002 -0.29699999 24 16 0
3.0880001 -0.096000001 -0.30599999 24 16 0
3.0780001 -0.097999997 -0.315 24 16 0
3.0699999 -0.101 -0.32300001 24 16 0
3.063 -0.103 -0.33199999 23 16 0
3.053 -0.105 -0.34099999 24 16 0
3.0420001 -0.108 -0.34900001 23 16 0
3.0309999 -0.11 -0.35800001 24 16 0
3.026 -0.112 -0.36700001 24 16 0
3.0179999 -0.114 -0.375 27 16 0
3.0109999 -0.117 -0.384 25 16 0
3.006 -0.119 -0.39199999 26 16 0
2.984 -0.121 -0.39899999 26 16 0
2.977 -0.123 -0.40799999 26 16 0
2.974 -0.125 -0.41600001 26 16 0
2.964 -0.127 -0.42500001 25 16 0
2.96 -0.12899999 -0.433 26 16 0
2.9519999 -0.131 -0.442 26 16 0
2.9400001 -0.133 -0.449 26 16 0
2.937 -0.13500001 -0.458 25 16 0
2.927 -0.13699999 -0.46599999 26 16 0
2.9230001 -0.139 -0.47499999 25 16 0
2.9119999 -0.141 -0.48199999 25 16 0
2.908 -0.14300001 -0.491 25 16 0
2.902 -0.145 -0.49900001 26 16 0
2.8859999 -0.146 -0.50599998 25 16 0
2.878 -0.148 -0.514 26 16 0
2.8729999 -0.15000001 -0.52200001 26 16 0
2.8710001 -0.152 -0.53100002 26 16 0
2.8599999 -0.153 -0.53799999 26 16 0
2.852 -0.155 -0.546 26 16 0
2.845 -0.15700001 -0.55299997 26 16 0
2.8429999 -0.15899999 -0.56199998 26 16 0
2.8340001 -0.16 -0.56999999 25 16 0
2.825 -0.161 -0.57700002 24 16 0
2.8180001 -0.163 -0.58499998 25 16 0
2.8110001 -0.16500001 -0.59200001 27 16 0
2.806 -0.16599999 -0.60100001 26 16 0
2.796 -0.167 -0.60799998 27 16 0
2.7920001 -0.169 -0.616 26 16 0
2.786 -0.171 -0.62400001 27 16 0
2.7839999 -0.17200001 -0.63200003 29 16 0
2.7780001 -0.17399999 -0.63999999 29 16 0
2.77 -0.175 -0.64700001 27 16 0
2.763 -0.176 -0.65499997 27 16 0
2.7520001 -0.177 -0.66100001 27 16 0
2.7490001 -0.17900001 -0.66900003 27 16 0
2.7449999 -0.18000001 -0.67699999 28 16 0
2.7349999 -0.18099999 -0.68400002 27 16 0
2.7309999 -0.182 -0.69199997 27 16 0
2.7279999 -0.184 -0.69999999 28 16 0
2.72 -0.185 -0.70700002 27 16 0
2.714 -0.186 -0.71399999 27 16 0
2.711 -0.18700001 -0.72299999 29 16 0
2.701 -0.18799999 -0.72899997 27 16 0
2.6989999 -0.189 -0.73799998 27 16 0
2.6930001 -0.19 -0.745 27 16 0
2.688 -0.191 -0.75199997 27 16 0
2.6830001 -0.192 -0.75999999 26 16 0
2.6789999 -0.19400001 -0.76800001 27 16 0
2.6730001 -0.19400001 -0.77499998 26 16 0
2.671 -0.19599999 -0.78299999 27 16 0
2.6600001 -0.19599999 -0.78899997 27 16 0
2.6570001 -0.197 -0.79699999 27 16 0
2.655 -0.198 -0.80500001 27 16 0
2.648 -0.199 -0.81199998 28 16 0
2.642 -0.2 -0.81900001 27 16 0
2.6400001 -0.20100001 -0.82700002 27 16 0
2.635 -0.20100001 -0.83399999 28 16 0
2.632 -0.20200001 -0.84299999 29 16 0
2.6270001 -0.20299999 -0.85000002 27 16 0
2.6210001 -0.204 -0.85699999 28 16 0
2.6159999 -0.204 -0.86400002 27 16 0
2.6129999 -0.205 -0.87199998 27 16 0
2.6040001 -0.205 -0.87699997 28 16 0
2.6010001 -0.206 -0.88499999 28 16 0
2.596 -0.207 -0.89300001 27 16 0
2.5929999 -0.207 -0.89999998 26 16 0
2.585 -0.207 -0.90600002 26 16 0
2.582 -0.208 -0.91399997 26 16 0
2.5829999 -0.20900001 -0.92299998 32 16 0
2.5769999 -0.20900001 -0.92900002 31 16 0
2.5739999 -0.20999999 -0.93699998 35 16 0
2.5699999 -0.20999999 -0.94400001 35 16 0
2.566 -0.20999999 -0.95099998 36 16 0
2.562 -0.211 -0.95899999 36 16 0
2.562 -0.211 -0.96700001 36 16 0
2.5569999 -0.212 -0.97399998 36 16 0
2.5539999 -0.212 -0.98199999 35 16 0
2.55 -0.212 -0.98900002 36 16 0
2.5469999 -0.212 -0.99599999 36 16 0
2.5439999 -0.213 -1.0039999 37 16 0
2.5409999 -0.213 -1.011 36 16 0
2.5380001 -0.213 -1.0190001 37 16 0
2.5350001 -0.213 -1.026 36 16 0
2.5320001 -0.213 -1.034 37 16 0
2.526 -0.213 -1.04 36 16 0
2.5239999 -0.213 -1.048 36 16 0
2.5239999 -0.214 -1.056 37 16 0
2.52 -0.213 -1.063 36 16 0
2.517 -0.213 -1.0700001 37 16 0
2.5150001 -0.213 -1.0779999 36 16 0
2.5120001 -0.213 -1.085 37 16 0
2.506 -0.213 -1.091 36 16 0
2.5039999 -0.213 -1.099 35 16 0
2.5009999 -0.213 -1.1059999 35 16 0
2.4979999 -0.212 -1.113 34 16 0
2.4949999 -0.212 -1.12 35 16 0
2.4920001 -0.212 -1.127 35 16 0
2.49 -0.212 -1.135 34 16 0
2.487 -0.211 -1.142 35 16 0
2.4820001 -0.211 -1.148 35 16 0
2.4790001 -0.20999999 -1.155 35 16 0
2.48 -0.20999999 -1.164 35 16 0
2.477 -0.20999999 -1.171 34 16 0
2.473 -0.20900001 -1.177 34 16 0
2.473 -0.20900001 -1.1849999 34 16 0
2.4719999 -0.208 -1.193 33 16 0
2.4679999 -0.207 -1.2 32 16 0
2.4649999 -0.207 -1.206 32 16 0
2.4690001 -0.207 -1.217 35 16 0
2.4649999 -0.206 -1.223 32 16 0
2.4679999 -0.206 -1.232 34 16 0
2.4630001 -0.205 -1.238 32 16 0
2.46 -0.204 -1.245 32 16 0
2.4579999 -0.20299999 -1.252 32 16 0
2.4579999 -0.20200001 -1.26 32 16 0
2.457 -0.20100001 -1.267 38 16 0
2.4549999 -0.20100001 -1.274 38 16 0
2.4519999 -0.199 -1.281 37 16 0
2.451 -0.199 -1.288 37 16 0
2.457 -0.198 -1.299 39 16 0
2.451 -0.197 -1.304 37 16 0
2.4519999 -0.19599999 -1.312 37 16 0
2.4519999 -0.19499999 -1.3200001 38 16 0
2.4519999 -0.19400001 -1.3279999 37 16 0
2.4519999 -0.193 -1.335 38 16 0
2.451 -0.192 -1.3430001 35 16 0
2.448 -0.19 -1.349 35 16 0
2.448 -0.189 -1.357 37 16 0
2.447 -0.18799999 -1.363 37 16 0
2.4449999 -0.186 -1.37 35 16 0
2.4489999 -0.185 -1.38 36 16 0
2.4430001 -0.184 -1.3839999 35 16 0
2.4489999 -0.183 -1.395 34 16 0
2.4489999 -0.18099999 -1.402 35 16 0
2.45 -0.18000001 -1.41 33 16 0
2.45 -0.178 -1.4170001 33 16 0
2.448 -0.177 -1.424 34 16 0
2.4460001 -0.175 -1.429 33 16 0
2.4449999 -0.17299999 -1.436 33 16 0
2.454 -0.17200001 -1.448 34 16 0
2.4519999 -0.17 -1.454 35 16 0
2.4530001 -0.169 -1.462 36 16 0
2.451 -0.167 -1.4680001 32 16 0
2.451 -0.16500001 -1.475 34 16 0
2.457 -0.163 -1.485 35 16 0
2.454 -0.161 -1.49 34 16 0
2.454 -0.15899999 -1.4960001 34 16 0
2.4519999 -0.15700001 -1.502 33 16 0
2.454 -0.155 -1.51 31 16 0
2.4630001 -0.154 -1.522 34 16 0
2.461 -0.152 -1.527 32 16 0
2.4619999 -0.149 -1.535 32 16 0
2.4649999 -0.147 -1.5420001 32 16 0
2.4649999 -0.145 -1.548 32 16 0
2.4679999 -0.14300001 -1.557 31 16 0
2.4690001 -0.141 -1.564 31 16 0
2.47 -0.138 -1.5700001 30 16 0
2.474 -0.13600001 -1.579 31 16 0
2.4779999 -0.134 -1.587 32 16 0
2.4760001 -0.132 -1.592 32 16 0
2.4779999 -0.12899999 -1.599 31 16 0
2.483 -0.127 -1.607 32 16 0
2.4860001 -0.124 -1.615 32 16 0
2.4890001 -0.122 -1.622 32 16 0
2.4920001 -0.119 -1.63 31 16 0
2.493 -0.116 -1.636 30 16 0
2.4949999 -0.114 -1.642 29 16 0
2.4990001 -0.111 -1.65 31 16 0
2.5 -0.108 -1.656 30 16 0
2.5079999 -0.106 -1.666 30 16 0
2.5120001 -0.103 -1.674 31 16 0
2.5139999 -0.1 -1.6799999 33 16 0
2.523 -0.097999997 -1.6900001 47 16 0
2.5239999 -0.094999999 -1.696 100 16 0
2.5209999 -0.092 -1.698 146 16 0
2.516 -0.088 -1.699 150 16 0
2.5179999 -0.085000001 -1.704 150 16 0
2.5120001 -0.082000002 -1.705 150 16 0
2.513 -0.079000004 -1.709 146 16 0
2.5109999 -0.075999998 -1.712 143 16 0
2.5039999 -0.071999997 -1.71 133 16 0
2.5009999 -0.068999998 -1.712 135 16 0
2.5009999 -0.066 -1.715 137 16 0
2.4979999 -0.063000001 -1.716 133 16 0
2.4949999 -0.059 -1.7180001 129 16 0
2.49 -0.056000002 -1.717 145 16 0
2.4879999 -0.052000001 -1.719 132 16 0
2.4860001 -0.048999999 -1.72 100 16 0
2.4749999 -0.045000002 -1.715 45 16 0
2.4809999 -0.041999999 -1.722 31 16 0
2.4849999 -0.039000001 -1.728 24 16 0
2.49 -0.035999998 -1.733 19 16 0
2.4960001 -0.032000002 -1.739 18 16 0
2.503 -0.028999999 -1.747 18 16 0
2.5050001 -0.025 -1.75 18 16 0
2.51 -0.022 -1.755 18 16 0
2.5139999 -0.018999999 -1.76 19 16 0
2.516 -0.015 -1.763 19 16 0
2.529 -0.012 -1.773 21 18 0
2.5350001 -0.0080000004 -1.779 22 16 0
2.546 -0.0049999999 -1.7869999 32 16 0
2.5409999 -0.001 -1.785 40 16 0
2.5439999 0.0020000001 -1.788 64 16 0
2.5409999 0.0049999999 -1.7869999 76 16 0
2.5369999 0.0089999996 -1.784 77 16 0
2.5280001 0.012 -1.779 70 16 0
2.5309999 0.016000001 -1.78 59 16 0
2.529 0.02 -1.779 79 16 0
2.529 0.023 -1.779 48 16 0
2.53 0.027000001 -1.78 45 16 0
2.529 0.029999999 -1.779 45 16 0
2.529 0.034000002 -1.779 44 16 0
2.5280001 0.037 -1.777 70 16 0
2.526 0.041000001 -1.776 83 16 0
2.526 0.044 -1.774 98 16 0
2.5220001 0.048 -1.771 95 16 0
2.52 0.050999999 -1.768 92 16 0
2.5209999 0.055 -1.768 91 16 0
2.517 0.057999998 -1.7640001 97 16 0
2.516 0.061999999 -1.762 93 16 0
2.517 0.064999998 -1.76 96 16 0
2.52 0.068999998 -1.76 98 16 0
2.513 0.071999997 -1.7539999 99 16 0
2.516 0.075000003 -1.7539999 104 16 0
2.5150001 0.079000004 -1.751 99 16 0
2.513 0.082000002 -1.747 99 16 0
2.5139999 0.086000003 -1.7460001 99 16 0
2.5150001 0.089000002 -1.743 107 16 0
2.5090001 0.092 -1.737 105 16 0
2.513 0.096000001 -1.737 103 16 0
2.5109999 0.098999999 -1.732 109 16 0
2.5120001 0.102 -1.73 108 16 0
2.507 0.105 -1.723 115 16 0
2.5079999 0.108 -1.72 116 16 0
2.5090001 0.112 -1.7180001 117 16 0
2.51 0.115 -1.715 111 16 0
2.51 0.118 -1.711 111 16 0
2.507 0.121 -1.705 118 16 0
2.5090001 0.124 -1.702 127 16 0
2.513 0.127 -1.701 124 16 0
2.506 0.13 -1.693 122 16 0
2.5109999 0.133 -1.691 121 16 0
2.513 0.13600001 -1.688 126 16 0
2.5120001 0.139 -1.683 120 16 0
2.5139999 0.142 -1.6799999 121 16 0
2.51 0.145 -1.6720001 133 16 0
2.513 0.148 -1.67 122 16 0
2.5120001 0.15000001 -1.664 128 16 0
2.5179999 0.153 -1.663 140 16 0
2.5139999 0.156 -1.655 133 16 0
2.5120001 0.15800001 -1.649 125 16 0
2.517 0.161 -1.647 147 16 0
2.52 0.164 -1.643 150 16 0
2.51 0.16599999 -1.631 134 16 0
2.513 0.169 -1.627 140 16 0
2.513 0.171 -1.622 144 16 0
2.516 0.17399999 -1.618 145 16 0
2.5179999 0.176 -1.613 147 16 0
2.516 0.17900001 -1.6059999 150 16 0
2.5190001 0.18099999 -1.602 150 16 0
2.5209999 0.184 -1.597 150 16 0
2.5239999 0.186 -1.5930001 150 16 0
2.527 0.18799999 -1.5880001 150 16 0
2.526 0.19 -1.581 150 16 0
2.529 0.193 -1.576 150 16 0
2.5320001 0.19499999 -1.572 150 16 0
2.5350001 0.197 -1.567 150 16 0
2.5380001 0.2 -1.562 150 16 0
2.5350001 0.20100001 -1.553 150 16 0
2.5380001 0.204 -1.548 150 16 0
2.536 0.205 -1.54 150 16 0
2.5439999 0.208 -1.538 150 16 0
2.543 0.20999999 -1.53 150 16 0
2.5439999 0.211 -1.524 150 16 0
2.549 0.214 -1.5190001 150 16 0
2.5469999 0.215 -1.511 150 16 0
2.549 0.21699999 -1.505 150 16 0
2.552 0.219 -1.499 150 16 0
2.5510001 0.22 -1.4910001 150 16 0
2.553 0.222 -1.485 150 16 0
2.5580001 0.22400001 -1.48 150 16 0
2.5599999 0.22499999 -1.473 150 16 0
2.5610001 0.227 -1.466 150 16 0
2.566 0.229 -1.462 150 16 0
2.5650001 0.23 -1.4529999 150 16 0
2.569 0.23100001 -1.447 150 16 0
2.5680001 0.23199999 -1.439 150 16 0
2.573 0.234 -1.434 150 16 0
2.572 0.235 -1.426 150 16 0
2.576 0.236 -1.419 150 16 0
2.582 0.23800001 -1.415 150 16 0
2.582 0.23899999 -1.4069999 150 16 0
2.5829999 0.23999999 -1.399 150 16 0
2.5840001 0.241 -1.391 150 16 0
2.5869999 0.242 -1.385 150 16 0
2.5899999 0.243 -1.378 150 16 0
2.5940001 0.244 -1.372 150 16 0
2.5969999 0.245 -1.365 150 16 0
2.6010001 0.24699999 -1.358 150 16 0
2.5999999 0.24699999 -1.35 150 16 0
2.605 0.248 -1.344 150 16 0
2.6059999 0.249 -1.336 150 16 0
2.6099999 0.25 -1.329 150 16 0
2.615 0.25099999 -1.323 150 16 0
2.6140001 0.25099999 -1.314 150 16 0
2.6170001 0.252 -1.307 150 16 0
2.6210001 0.25299999 -1.3 150 16 0
2.625 0.25299999 -1.293 150 16 0
2.6259999 0.25400001 -1.285 150 16 0
2.6300001 0.25400001 -1.278 150 16 0
2.635 0.255 -1.272 150 16 0
2.635 0.255 -1.263 150 16 0
2.6389999 0.25600001 -1.256 150 16 0
2.645 0.25600001 -1.25 150 16 0
2.645 0.257 -1.2410001 150 16 0
2.6470001 0.257 -1.233 150 16 0
2.648 0.257 -1.225 150 16 0
2.655 0.257 -1.219 150 16 0
2.6600001 0.25799999 -1.212 150 16 0
2.6589999 0.25799999 -1.2029999 150 16 0
2.6659999 0.25799999 -1.197 150 16 0
2.6689999 0.25799999 -1.189 150 16 0
2.6730001 0.25799999 -1.182 150 16 0
2.6760001 0.25799999 -1.175 150 16 0
2.6789999 0.25799999 -1.1670001 150 16 0
2.6819999 0.25799999 -1.159 150 16 0
2.684 0.25799999 -1.151 150 16 0
2.6900001 0.25799999 -1.1440001 150 16 0
2.6930001 0.25799999 -1.136 150 16 0
2.694 0.25799999 -1.128 150 16 0
2.7 0.25799999 -1.1210001 150 16 0
2.7049999 0.25799999 -1.114 150 16 0
2.704 0.257 -1.104 150 16 0
2.7079999 0.257 -1.097 150 16 0
2.7149999 0.257 -1.09 150 16 0
2.7219999 0.257 -1.084 150 16 0
2.737 0.25799999 -1.08 150 16 0
2.7460001 0.25799999 -1.075 21 16 0
2.9619999 0.27700001 -1.149 0 17 0
2.994 0.27900001 -1.151 0 16 0
3.0929999 0.287 -1.179 0 16 0
3.086 0.28600001 -1.166 0 16 0
3.0209999 0.27900001 -1.131 0 17 0
3.0320001 0.27900001 -1.124 0 16 0
3.0050001 0.27500001 -1.104 0 19 0
3.0090001 0.27500001 -1.096 0 16 0
3.007 0.273 -1.085 0 16 0
2.7909999 0.25299999 -0.99699998 27 17 0
2.7750001 0.25 -0.98199999 82 16 0
2.7750001 0.249 -0.97299999 150 16 0
2.779 0.248 -0.96499997 150 16 0
2.78 0.24699999 -0.95599997 150 16 0
2.786 0.24600001 -0.949 150 16 0
2.7909999 0.24600001 -0.94099998 150 16 0
2.7920001 0.244 -0.93199998 150 16 0
2.7950001 0.243 -0.92299998 150 16 0
2.8010001 0.243 -0.91600001 150 16 0
2.802 0.241 -0.90700001 150 16 0
2.8099999 0.241 -0.89999998 150 16 0
2.813 0.23899999 -0.89099997 150 16 0
2.8169999 0.23800001 -0.88300002 150 16 0
2.8199999 0.237 -0.875 150 16 0
2.8239999 0.236 -0.866 150 16 0
2.8269999 0.235 -0.85799998 150 16 0
2.8280001 0.233 -0.84899998 150 16 0
2.832 0.23199999 -0.84100002 150 16 0
2.839 0.23100001 -0.833 150 16 0
2.8510001 0.23 -0.82700002 150 16 0
2.8540001 0.229 -0.81900001 150 16 0
2.859 0.228 -0.81099999 150 16 0
2.8629999 0.226 -0.80199999 150 16 0
2.868 0.22499999 -0.79400003 150 16 0
2.868 0.223 -0.78399998 150 16 0
2.875 0.222 -0.77700001 150 16 0
2.881 0.22 -0.76899999 150 16 0
2.892 0.219 -0.76300001 150 16 0
2.8929999 0.21799999 -0.75300002 150 16 0
2.895 0.21600001 -0.74400002 150 16 0
2.901 0.214 -0.736 150 16 0
2.9070001 0.213 -0.72799999 150 16 0
2.9119999 0.211 -0.72000003 150 16 0
2.915 0.20900001 -0.71100003 150 16 0
2.9200001 0.208 -0.70300001 150 16 0
2.924 0.206 -0.69400001 150 16 0
2.9260001 0.204 -0.685 150 16 0
2.9330001 0.20299999 -0.67699999 150 16 0
2.9400001 0.20100001 -0.66900003 150 16 0
2.9430001 0.199 -0.66000003 150 16 0
2.9449999 0.197 -0.65100002 150 16 0
2.954 0.19499999 -0.64300001 150 16 0
2.9549999 0.193 -0.634 150 16 0
2.96 0.191 -0.625 150 16 0
2.9660001 0.189 -0.61699998 150 16 0
2.9719999 0.18700001 -0.60900003 150 16 0
2.9749999 0.185 -0.60000002 150 16 0
2.9809999 0.183 -0.59100002 150 16 0
2.987 0.18099999 -0.583 150 16 0
2.9949999 0.17900001 -0.57499999 150 16 0
2.997 0.177 -0.56599998 150 16 0
2.9990001 0.175 -0.55599999 150 16 0
3.007 0.17299999 -0.54799998 150 16 0
3.013 0.171 -0.54000002 150 16 0
3.013 0.168 -0.52999997 150 16 0
3.0190001 0.16599999 -0.52100003 150 16 0
3.0250001 0.164 -0.51300001 150 16 0
3.03 0.162 -0.50400001 150 16 0
3.0350001 0.15899999 -0.495 150 16 0
3.0439999 0.15700001 -0.48699999 150 16 0
3.0450001 0.155 -0.47799999 150 16 0
3.0510001 0.152 -0.46900001 150 16 0
3.056 0.15000001 -0.46000001 150 16 0
3.0610001 0.147 -0.45100001 150 16 0
3.062 0.145 -0.442 150 16 0
3.0739999 0.142 -0.433 150 16 0
3.0799999 0.14 -0.42500001 150 16 0
3.085 0.13699999 -0.41600001 150 16 0
3.0880001 0.13500001 -0.40599999 150 16 0
3.0940001 0.132 -0.39700001 150 16 0
3.102 0.13 -0.38800001 150 16 0
3.1099999 0.127 -0.38 150 16 0
3.112 0.124 -0.37 150 16 0
3.119 0.122 -0.361 150 16 0
3.1199999 0.119 -0.352 150 16 0
3.1270001 0.116 -0.34299999 150 16 0
3.1359999 0.113 -0.33399999 150 16 0
3.1400001 0.11 -0.32499999 150 16 0
3.1489999 0.108 -0.31600001 150 16 0
3.151 0.105 -0.30599999 146 16 0
3.1589999 0.102 -0.29699999 149 16 0
3.165 0.098999999 -0.28799999 150 16 0
3.1730001 0.096000001 -0.27900001 141 16 0
3.177 0.093000002 -0.26899999 150 16 0
3.1819999 0.090000004 -0.25999999 150 16 0
3.188 0.086999997 -0.25 125 16 0
3.1930001 0.083999999 -0.241 147 16 0
3.201 0.081 -0.23199999 119 16 0
3.2060001 0.078000002 -0.222 103 16 0
3.2130001 0.075000003 -0.213 126 16 0
3.2190001 0.071999997 -0.20299999 105 16 0
3.224 0.068000004 -0.19400001 119 16 0
3.237 0.064999998 -0.184 108 16 0
3.237 0.061999999 -0.17399999 67 16 0
3.2479999 0.059 -0.16500001 52 16 0
3.2479999 0.055 -0.155 49 16 0
3.25 0.052000001 -0.145 54 16 0
3.2579999 0.048999999 -0.13600001 92 16 0
3.2639999 0.045000002 -0.126 123 16 0
3.2609999 0.041999999 -0.116 122 16 0
3.276 0.037999999 -0.106 116 16 0
3.2809999 0.035 -0.096000001 121 16 0
3.289 0.030999999 -0.086999997 77 16 0
3.2909999 0.028000001 -0.077 43 16 0
3.303 0.024 -0.067000002 30 16 0
3.289 0.021 -0.057 23 16 0
3.293 0.017000001 -0.046999998 21 16 0
3.289 0.013 -0.035999998 20 16 0
3.2920001 0.0099999998 -0.026000001 20 16 0
3.2820001 0.0060000001 -0.017000001 19 16 0
3.2809999 0.0020000001 -0.0070000002 19 16 0
3.2720001 -0.001 0.0020000001 19 16 0
3.267 -0.0040000002 0.012 19 16 0
3.2579999 -0.0080000004 0.022 25 16 0
3.26 -0.012 0.032000002 35 16 0
3.2679999 -0.016000001 0.041999999 67 16 0
3.27 -0.018999999 0.052000001 150 16 0
3.28 -0.023 0.061999999 150 16 0
3.2820001 -0.027000001 0.071999997 150 16 0
3.29 -0.030999999 0.082000002 150 16 0
3.2939999 -0.035 0.092 150 16 0
3.299 -0.039000001 0.102 150 16 0
3.309 -0.043000001 0.113 150 16 0
3.3169999 -0.046999998 0.123 150 16 0
3.325 -0.050999999 0.133 150 16 0
3.3329999 -0.055 0.14300001 150 16 0
3.3340001 -0.059999999 0.154 150 16 0
3.3429999 -0.064000003 0.164 106 16 0
3.345 -0.068000004 0.17399999 44 16 0
3.3329999 -0.071999997 0.183 32 16 0
3.3280001 -0.075999998 0.193 29 16 0
3.325 -0.079999998 0.20299999 30 16 0
3.319 -0.083999999 0.213 29 16 0
3.3169999 -0.088 0.222 31 16 0
3.316 -0.092 0.23199999 30 16 0
3.303 -0.096000001 0.241 31 16 0
3.299 -0.1 0.25099999 30 16 0
3.2980001 -0.104 0.26100001 31 16 0
3.289 -0.108 0.27000001 30 16 0
3.286 -0.112 0.27900001 31 16 0
3.276 -0.116 0.28799999 30 16 0
3.2720001 -0.12 0.29800001 30 16 0
3.2679999 -0.124 0.30700001 30 16 0
3.2639999 -0.12800001 0.31600001 31 16 0
3.2509999 -0.132 0.32499999 31 16 0
3.247 -0.13600001 0.33399999 30 16 0
3.2460001 -0.141 0.34400001 30 16 0
3.2390001 -0.145 0.35299999 31 16 0
3.2379999 -0.149 0.36199999 30 16 0
3.2249999 -0.153 0.37 31 16 0
3.2179999 -0.15700001 0.37900001 31 16 0
3.2160001 -0.161 0.38800001 32 16 0
3.2079999 -0.16500001 0.39700001 32 16 0
3.197 -0.169 0.405 32 16 0
3.1989999 -0.17299999 0.41499999 35 16 0
3.1919999 -0.177 0.42300001 41 16 0
3.177 -0.18099999 0.43099999 51 16 0
3.1689999 -0.185 0.43900001 53 16 0
3.158 -0.189 0.447 48 16 0
3.1400001 -0.192 0.454 41 16 0
3.125 -0.19599999 0.461 40 16 0
3.1040001 -0.199 0.46700001 38 16 0
3.0899999 -0.20200001 0.47400001 36 16 0
3.072 -0.206 0.47999999 37 16 0
3.059 -0.20900001 0.48699999 38 16 0
3.0409999 -0.212 0.49399999 37 16 0
3.0320001 -0.21600001 0.50099999 38 16 0
3.013 -0.219 0.50700003 38 16 0
2.9990001 -0.223 0.51300001 37 16 0
2.983 -0.226 0.51899999 38 16 0
2.9719999 -0.229 0.52600002 38 16 0
2.9549999 -0.23199999 0.53200001 38 16 0
2.941 -0.236 0.53799999 40 16 0
2.925 -0.23899999 0.54400003 41 16 0
2.915 -0.243 0.55000001 38 16 0
2.901 -0.24600001 0.55599999 38 16 0
2.888 -0.249 0.56199998 38 16 0
2.8729999 -0.252 0.56800002 39 16 0
2.8640001 -0.25600001 0.57499999 38 16 0
2.8469999 -0.259 0.579 42 16 0
2.836 -0.26199999 0.58600003 47 16 0
2.8280001 -0.266 0.59200001 45 16 0
2.8099999 -0.26899999 0.597 52 16 0
2.796 -0.27200001 0.602 45 16 0
2.786 -0.27500001 0.60799998 57 16 0
2.7780001 -0.27900001 0.61400002 58 16 0
2.7620001 -0.28200001 0.61900002 49 16 0
2.7550001 -0.285 0.625 57 16 0
2.743 -0.289 0.63099998 62 16 0
2.7279999 -0.29100001 0.63499999 62 16 0
2.717 -0.29499999 0.64099997 59 16 0
2.7060001 -0.29800001 0.64600003 66 16 0
2.697 -0.30199999 0.65200001 73 16 0
2.6789999 -0.30399999 0.65499997 73 16 0
2.6730001 -0.308 0.66100001 66 16 0
2.664 -0.31099999 0.667 68 16 0
2.6530001 -0.31400001 0.67199999 68 16 0
2.6459999 -0.31799999 0.67799997 79 16 0
2.632 -0.32100001 0.68199998 73 16 0
2.6240001 -0.324 0.68699998 67 16 0
2.6110001 -0.32699999 0.69099998 88 16 0
2.6040001 -0.331 0.69700003 70 16 0
2.5940001 -0.33399999 0.70200002 81 16 0
2.582 -0.33700001 0.70599997 94 16 0
2.5680001 -0.34 0.70999998 88 16 0
2.5610001 -0.34299999 0.71499997 86 16 0
2.55 -0.34599999 0.72000003 79 16 0
2.5409999 -0.34999999 0.72399998 85 16 0
2.533 -0.35299999 0.72899997 80 16 0
2.5209999 -0.35600001 0.73299998 87 16 0
2.5079999 -0.359 0.736 92 16 0
2.5020001 -0.36199999 0.74199998 99 16 0
2.4920001 -0.366 0.74599999 94 16 0
2.4809999 -0.36899999 0.75 104 16 0
2.4760001 -0.37200001 0.755 92 16 0
2.471 -0.37599999 0.76099998 92 16 0
2.4549999 -0.37799999 0.76300001 96 16 0
2.447 -0.382 0.76700002 95 16 0
2.4349999 -0.384 0.76999998 100 16 0
2.4289999 -0.38800001 0.77499998 102 16 0
2.421 -0.391 0.77999997 144 16 0
2.4059999 -0.39300001 0.78200001 127 16 0
2.4000001 -0.39700001 0.78600001 132 16 0
2.391 -0.40000001 0.79000002 131 16 0
2.382 -0.403 0.79400003 150 16 0
2.375 -0.40700001 0.79799998 148 16 0
2.368 -0.41 0.80199999 150 16 0
2.358 -0.41299999 0.80599999 150 16 0
2.3469999 -0.41600001 0.80900002 150 16 0
2.3440001 -0.41999999 0.81400001 150 16 0
2.335 -0.42300001 0.81699997 150 16 0
2.329 -0.42699999 0.82200003 150 16 0
2.3210001 -0.43000001 0.82499999 150 16 0
2.312 -0.433 0.82800001 150 16 0
2.3010001 -0.43599999 0.83099997 150 16 0
2.2950001 -0.43900001 0.83499998 150 16 0
2.286 -0.442 0.838 150 16 0
2.28 -0.44600001 0.84200001 150 16 0
2.273 -0.449 0.84500003 150 16 0
2.267 -0.45199999 0.84899998 150 16 0
2.256 -0.45500001 0.85100001 150 16 0
2.244 -0.45699999 0.85299999 150 16 0
2.2390001 -0.461 0.85699999 150 16 0
2.2290001 -0.463 0.85900003 150 16 0
2.2260001 -0.46799999 0.86400002 150 16 0
2.223 -0.472 0.86799997 150 16 0
2.2119999 -0.47400001 0.87 150 16 0
2.2060001 -0.477 0.87300003 150 16 0
2.198 -0.47999999 0.87599999 150 16 0
2.191 -0.484 0.87900001 150 16 0
2.1819999 -0.48699999 0.88099998 150 16 0
2.177 -0.49000001 0.884 150 16 0
2.1689999 -0.493 0.88700002 150 16 0
2.1659999 -0.49700001 0.89099997 150 16 0
2.1619999 -0.50099999 0.89499998 150 16 0
2.1489999 -0.50300002 0.89499998 150 16 0
2.145 -0.50700003 0.89899999 150 16 0
2.1359999 -0.509 0.89999998 150 16 0
2.132 -0.51300001 0.90399998 150 16 0
2.1270001 -0.51599997 0.90700001 150 16 0
2.118 -0.51899999 0.90799999 150 16 0
2.1070001 -0.52100003 0.90899998 150 16 0
2.1040001 -0.52499998 0.91299999 150 16 0
2.0999999 -0.52899998 0.91600001 150 16 0
2.092 -0.53200001 0.91799998 150 16 0
2.089 -0.53600001 0.921 150 16 0
2.0829999 -0.53899997 0.92400002 150 16 0
2.076 -0.542 0.92500001 150 16 0
2.0710001 -0.54500002 0.92799997 150 16 0
2.066 -0.54900002 0.93099999 150 16 0
2.0599999 -0.55199999 0.93300003 150 16 0
2.056 -0.55599999 0.93599999 150 16 0
2.049 -0.55900002 0.93699998 150 16 0
2.0439999 -0.56199998 0.94 150 16 0
2.039 -0.565 0.94199997 150 16 0
2.0350001 -0.56900001 0.94400001 150 16 0
2.029 -0.57200003 0.94599998 150 16 0
2.026 -0.57599998 0.949 150 16 0
2.0220001 -0.57999998 0.95099998 150 16 0
2.0139999 -0.58200002 0.95200002 150 16 0
2.013 -0.58700001 0.95599997 150 16 0
2.0050001 -0.58899999 0.95599997 150 16 0
2.0020001 -0.59299999 0.95899999 150 16 0
1.994 -0.59500003 0.95899999 150 16 0
1.993 -0.60000002 0.963 150 16 0
1.988 -0.60299999 0.96399999 150 16 0
1.9809999 -0.60500002 0.96499997 150 16 0
1.98 -0.61000001 0.96799999 150 16 0
1.976 -0.61299998 0.97000003 150 16 0
1.973 -0.61699998 0.972 150 16 0
1.97 -0.62099999 0.97500002 150 16 0
1.964 -0.62400001 0.97600001 150 16 0
1.959 -0.62599999 0.97600001 150 16 0
1.956 -0.63 0.97899997 150 16 0
1.9529999 -0.634 0.98000002 150 16 0
1.951 -0.63800001 0.98299998 150 16 0
1.948 -0.64200002 0.98500001 150 16 0
1.946 -0.64499998 0.98699999 150 16 0
1.942 -0.64899999 0.98799998 150 16 0
1.934 -0.64999998 0.98699999 150 16 0
1.937 -0.65600002 0.99199998 150 16 0
1.932 -0.65899998 0.99199998 150 16 0
1.933 -0.66399997 0.99599999 150 16 0
1.929 -0.667 0.99599999 150 16 0
1.9220001 -0.66900003 0.99599999 150 16 0
1.918 -0.67199999 0.99599999 150 16 0
1.916 -0.676 0.99800003 150 16 0
1.9170001 -0.68099999 1.001 148 16 0
1.918 -0.68599999 1.0039999 120 16 0
1.914 -0.68800002 1.005 116 16 0
1.911 -0.69199997 1.005 147 16 0
1.908 -0.69499999 1.006 150 16 0
1.9 -0.69700003 1.0039999 150 16 0
1.901 -0.70099998 1.007 150 16 0
1.8940001 -0.70300001 1.005 150 16 0
1.892 -0.70599997 1.006 150 16 0
1.892 -0.71100003 1.0089999 150 16 0
1.8940001 -0.71600002 1.011 150 16 0
1.8890001 -0.71799999 1.011 150 16 0
1.885 -0.72000003 1.01 150 16 0
1.883 -0.72399998 1.011 150 16 0
1.8839999 -0.72799999 1.013 150 16 0
1.882 -0.73199999 1.013 150 16 0
1.8839999 -0.736 1.016 150 16 0
1.876 -0.73699999 1.013 150 16 0
1.881 -0.74299997 1.017 150 16 0
1.877 -0.745 1.016 150 16 0
1.878 -0.75 1.018 150 16 0
1.874 -0.75199997 1.017 150 16 0
1.875 -0.75599998 1.0190001 150 16 0
1.872 -0.75800002 1.017 150 16 0
1.87 -0.76200002 1.017 150 16 0
1.8710001 -0.76599997 1.0190001 150 16 0
1.87 -0.76899999 1.0190001 150 16 0
1.8710001 -0.773 1.02 150 16 0
1.869 -0.77499998 1.0190001 150 16 0
1.8660001 -0.778 1.018 150 16 0
1.8660001 -0.78100002 1.0190001 150 16 0
1.87 -0.78600001 1.021 150 16 0
1.869 -0.78899997 1.021 150 16 0
1.8710001 -0.79400003 1.022 150 16 0
1.87 -0.796 1.022 150 16 0
1.868 -0.79799998 1.02 150 16 0
1.867 -0.801 1.02 150 16 0
1.872 -0.80699998 1.022 150 16 0
1.87 -0.80900002 1.02 150 16 0
1.87 -0.81199998 1.02 150 16 0
1.872 -0.81599998 1.021 150 16 0
1.872 -0.81800002 1.02 144 16 0
1.88 -0.82499999 1.024 150 19 0
1.88 -0.82800001 1.023 136 16 0
1.878 -0.82999998 1.021 129 16 0
1.883 -0.83399999 1.023 120 16 0
1.883 -0.83700001 1.022 111 16 0
1.883 -0.83899999 1.021 109 16 0
1.8839999 -0.84200001 1.02 110 16 0
1.885 -0.84500003 1.02 126 16 0
1.887 -0.84799999 1.0190001 136 16 0
1.891 -0.85299999 1.02 150 16 0
1.8890001 -0.85399997 1.018 150 16 0
1.89 -0.85699999 1.017 150 16 0
1.885 -0.85699999 1.013 150 16 0
1.885 -0.85799998 1.01 140 16 0
1.881 -0.85900003 1.007 139 16 0
1.881 -0.86000001 1.005 126 16 0
1.881 -0.86199999 1.003 118 16 0
1.875 -0.86199999 0.99800003 116 16 0
1.874 -0.86299998 0.995 116 16 0
1.867 -0.861 0.98900002 118 19 0
1.863 -0.861 0.98500001 125 16 0
1.865 -0.86299998 0.98400003 132 16 0
1.86 -0.86199999 0.97799999 131 19 0
1.86 -0.86400002 0.97600001 125 16 0
1.859 -0.86400002 0.97299999 131 16 0
1.857 -0.86500001 0.96899998 142 16 0
1.852 -0.86299998 0.96399999 134 16 0
1.852 -0.86500001 0.96200001 138 16 0
1.851 -0.86500001 0.958 143 16 0
1.849 -0.86500001 0.954 132 16 0
1.847 -0.86500001 0.94999999 141 16 0
1.836 -0.861 0.94199997 135 18 0
1.837 -0.861 0.93900001 140 16 0
1.835 -0.861 0.935 142 16 0
1.836 -0.86199999 0.93199998 147 16 0
1.835 -0.86199999 0.92900002 148 16 0
1.831 -0.861 0.92400002 144 16 0
1.832 -0.861 0.921 138 16 0
1.829 -0.86000001 0.91600001 137 16 0
1.83 -0.861 0.91299999 142 16 0
1.831 -0.86199999 0.91000003 144 16 0
1.829 -0.861 0.90499997 147 16 0
1.831 -0.861 0.90200001 138 16 0
1.829 -0.86000001 0.898 141 16 0
1.825 -0.85799998 0.89200002 143 16 0
1.83 -0.86000001 0.89099997 143 16 0
1.83 -0.86000001 0.88700002 147 16 0
1.829 -0.85900003 0.88300002 139 16 0
1.829 -0.85799998 0.87900001 141 16 0
1.825 -0.85600001 0.87300003 138 16 0
1.826 -0.85600001 0.87 148 16 0
1.827 -0.85600001 0.866 143 16 0
1.826 -0.85399997 0.861 137 16 0
1.827 -0.85399997 0.85799998 138 16 0
1.827 -0.85299999 0.85399997 148 16 0
1.829 -0.85299999 0.85000002 150 16 0
1.825 -0.85000002 0.84399998 149 16 0
1.83 -0.852 0.84200001 150 16 0
1.8279999 -0.85000002 0.83700001 149 16 0
1.83 -0.84899998 0.83399999 148 16 0
1.832 -0.84899998 0.82999998 149 16 0
1.829 -0.84600002 0.82499999 150 16 0
1.831 -0.84600002 0.82099998 149 16 0
1.8329999 -0.84500003 0.81800002 150 16 0
1.835 -0.84500003 0.81400001 144 16 0
1.834 -0.84200001 0.80900002 145 16 0
1.836 -0.84200001 0.80500001 150 16 0
1.8380001 -0.84100002 0.801 141 16 0
1.839 -0.83999997 0.79699999 150 16 0
1.842 -0.83899999 0.79400003 150 16 0
1.844 -0.838 0.79000002 150 16 0
1.839 -0.83399999 0.78399998 150 16 0
1.846 -0.83499998 0.78100002 150 16 0
1.8430001 -0.83200002 0.77499998 150 16 0
1.845 -0.82999998 0.77200001 150 16 0
1.847 -0.829 0.76800001 150 16 0
1.849 -0.82800001 0.764 150 16 0
1.851 -0.82700002 0.75999999 150 16 0
1.853 -0.82499999 0.75599998 150 16 0
1.8559999 -0.824 0.75199997 150 16 0
1.859 -0.82300001 0.74800003 150 16 0
1.865 -0.82300001 0.74599999 150 16 0
1.867 -0.82099998 0.74199998 149 16 0
1.869 -0.81999999 0.73799998 135 16 0
1.867 -0.81599998 0.73199999 144 16 0
1.863 -0.81199998 0.72600001 136 16 0
1.876 -0.81400001 0.72600001 110 16 0
1.878 -0.81300002 0.722 112 16 0
1.877 -0.80900002 0.71600002 115 16 0
1.883 -0.80900002 0.713 109 16 0
1.886 -0.80699998 0.70899999 111 16 0
1.8839999 -0.80299997 0.704 116 16 0
1.89 -0.80299997 0.70099998 113 16 0
1.893 -0.801 0.69700003 110 16 0
1.895 -0.79900002 0.69300002 118 16 0
1.898 -0.796 0.68900001 120 16 0
1.904 -0.796 0.68599999 122 16 0
1.904 -0.792 0.68000001 117 16 0
1.906 -0.79000002 0.676 111 16 0
1.91 -0.78799999 0.67299998 117 16 0
1.913 -0.78600001 0.66799998 118 16 0
1.915 -0.78299999 0.66399997 119 16 0
1.918 -0.78100002 0.66000003 125 16 0
1.921 -0.77899998 0.65600002 112 16 0
1.925 -0.77700001 0.65200001 96 16 0
1.928 -0.77399999 0.648 100 16 0
1.936 -0.77399999 0.64499998 100 16 0
1.937 -0.76999998 0.64099997 99 16 0
1.941 -0.76800001 0.63700002 94 16 0
1.944 -0.76599997 0.63300002 109 16 0
1.949 -0.76300001 0.62900001 88 16 0
1.954 -0.76099998 0.62599999 93 16 0
1.956 -0.759 0.62099999 95 16 0
1.96 -0.75599998 0.61699998 97 16 0
1.966 -0.75400001 0.61400002 93 16 0
1.965 -0.75 0.60799998 85 16 0
1.976 -0.75 0.60699999 98 16 0
1.9809999 -0.74800003 0.60299999 96 16 0
1.9809999 -0.74400002 0.59799999 95 16 0
1.989 -0.74199998 0.59500003 93 16 0
1.992 -0.73900002 0.59100002 96 16 0
1.997 -0.73699999 0.58700001 92 16 0
2.0020001 -0.73400003 0.583 94 16 0
2.006 -0.73100001 0.579 86 16 0
2.0109999 -0.72899997 0.57599998 94 16 0
2.0139999 -0.72500002 0.57099998 86 16 0
2.02 -0.72299999 0.56800002 83 16 0
2.0239999 -0.72000003 0.56400001 95 16 0
2.0309999 -0.71799999 0.56099999 92 16 0
2.0369999 -0.71499997 0.55699998 91 16 0
2.04 -0.71200001 0.55299997 97 16 0
2.043 -0.708 0.54799998 89 16 0
2.0450001 -0.704 0.54400003 92 16 0
2.0510001 -0.70200002 0.54000002 100 16 0
2.0550001 -0.69800001 0.53600001 91 16 0
2.0599999 -0.69499999 0.53200001 92 16 0
2.0780001 -0.69700003 0.53200001 93 16 0
2.0810001 -0.69300002 0.52700001 86 16 0
2.0829999 -0.68800002 0.523 85 16 0
2.089 -0.68599999 0.51899999 87 16 0
2.096 -0.68300003 0.51599997 87 16 0
2.099 -0.67900002 0.51099998 87 16 0
2.108 -0.67699999 0.50800002 87 16 0
2.1099999 -0.67199999 0.50400001 81 16 0
2.118 -0.67000002 0.5 85 16 0
2.1240001 -0.667 0.49700001 76 16 0
2.132 -0.66399997 0.493 82 16 0
2.138 -0.66100001 0.48899999 78 16 0
2.1459999 -0.65799999 0.486 77 16 0
2.145 -0.653 0.48100001 49 16 0
2.152 -0.64899999 0.477 56 16 0
2.1619999 -0.64700001 0.47400001 55 16 0
2.165 -0.64200002 0.47 53 16 0
2.1719999 -0.639 0.46599999 56 16 0
2.178 -0.63599998 0.46200001 54 16 0
2.1849999 -0.63200003 0.45899999 62 16 0
2.194 -0.62900001 0.456 58 16 0
2.1989999 -0.625 0.45199999 34 16 0
2.21 -0.62300003 0.449 32 16 0
2.2130001 -0.61799997 0.44400001 34 16 0
2.22 -0.61500001 0.44 32 16 0
2.2279999 -0.611 0.43700001 33 16 0
2.234 -0.60699999 0.433 33 16 0
2.2420001 -0.60399997 0.43000001 35 16 0
2.2479999 -0.60000002 0.426 28 16 0
2.253 -0.59600002 0.421 28 16 0
2.2609999 -0.59200001 0.41800001 28 16 0
2.266 -0.58700001 0.414 26 16 0
2.277 -0.58399999 0.41100001 27 16 0
2.2880001 -0.58099997 0.40799999 28 16 0
2.2909999 -0.57599998 0.403 28 16 0
2.299 -0.57200003 0.39899999 28 16 0
2.3080001 -0.56900001 0.396 28 16 0
2.3169999 -0.565 0.39199999 27 16 0
2.322 -0.56 0.38800001 26 16 0
2.3340001 -0.55699998 0.38499999 26 16 0
2.3429999 -0.55299997 0.38100001 29 16 0
2.3499999 -0.54900002 0.37799999 30 16 0
2.359 -0.54500002 0.37400001 28 16 0
2.3670001 -0.54100001 0.37 30 16 0
2.3740001 -0.53600001 0.366 30 16 0
2.3800001 -0.53100002 0.36199999 30 16 0
2.392 -0.528 0.359 30 16 0
2.402 -0.52399999 0.35499999 29 16 0
2.404 -0.51800001 0.34999999 29 16 0
2.418 -0.514 0.347 28 16 0
2.421 -0.509 0.34299999 30 16 0
2.434 -0.505 0.34 28 16 0
2.4400001 -0.5 0.33500001 28 16 0
2.447 -0.495 0.331 28 16 0
2.457 -0.49000001 0.32699999 29 16 0
2.4690001 -0.486 0.324 28 16 0
2.4749999 -0.48100001 0.31999999 28 16 0
2.4890001 -0.477 0.31600001 29 16 0
2.493 -0.47099999 0.31200001 28 16 0
2.5050001 -0.46700001 0.308 26 16 0
2.513 -0.46200001 0.30399999 27 16 0
2.5209999 -0.45699999 0.30000001 25 16 0
2.5339999 -0.45199999 0.29699999 25 16 0
2.539 -0.44600001 0.292 25 16 0
2.55 -0.442 0.28799999 25 16 0
2.559 -0.43599999 0.28400001 26 16 0
2.569 -0.43099999 0.28 25 16 0
2.5829999 -0.42699999 0.27700001 25 16 0
2.5910001 -0.421 0.273 25 16 0
2.599 -0.41499999 0.26800001 25 16 0
2.6099999 -0.41 0.264 25 16 0
2.6229999 -0.405 0.26100001 26 16 0
2.635 -0.40000001 0.257 25 16 0
2.6459999 -0.39500001 0.25299999 25 16 0
2.6559999 -0.389 0.249 25 16 0
2.664 -0.38299999 0.244 26 16 0
2.678 -0.37799999 0.241 25 16 0
2.691 -0.37200001 0.237 26 16 0
2.7049999 -0.36700001 0.233 26 16 0
2.7130001 -0.361 0.228 25 16 0
2.7179999 -0.354 0.22400001 25 16 0
2.7320001 -0.34799999 0.22 25 16 0
2.7420001 -0.34200001 0.215 26 16 0
2.7520001 -0.336 0.211 25 16 0
2.766 -0.331 0.207 26 16 0
2.7750001 -0.324 0.20299999 26 16 0
2.7850001 -0.31799999 0.198 25 16 0
2.796 -0.31099999 0.19400001 25 16 0
2.8110001 -0.30500001 0.19 25 16 0
2.829 -0.30000001 0.186 25 16 0
2.8369999 -0.29300001 0.18099999 25 16 0
2.8469999 -0.28600001 0.177 25 16 0
2.859 -0.27900001 0.17200001 25 16 0
2.875 -0.273 0.168 23 16 0
2.891 -0.26699999 0.164 23 16 0
2.901 -0.25999999 0.15899999 23 16 0
2.9130001 -0.25299999 0.155 24 16 0
2.9260001 -0.24600001 0.15000001 23 16 0
2.9449999 -0.23999999 0.146 23 16 0
2.957 -0.233 0.141 23 16 0
2.9679999 -0.22499999 0.13699999 23 16 0
2.983 -0.21799999 0.132 22 16 0
3 -0.211 0.12800001 23 16 0
3.0020001 -0.20299999 0.123 23 16 0
3.03 -0.197 0.118 23 16 0
3.043 -0.189 0.114 23 16 0
3.063 -0.182 0.109 23 16 0
3.0829999 -0.175 0.105 23 16 0
3.0899999 -0.167 0.098999999 23 16 0
3.1010001 -0.15899999 0.093999997 23 16 0
3.1240001 -0.15099999 0.090000004 23 16 0
3.142 -0.14300001 0.085000001 24 16 0
3.1559999 -0.13500001 0.079999998 23 16 0
3.1730001 -0.127 0.075000003 24 16 0
3.1900001 -0.119 0.07 24 16 0
3.2079999 -0.111 0.064999998 24 16 0
3.2219999 -0.103 0.059999999 23 16 0
3.2409999 -0.093999997 0.055 25 16 0
3.2590001 -0.086000003 0.050000001 25 16 0
3.277 -0.077 0.045000002 26 16 0
3.2880001 -0.068000004 0.039999999 71 16 0
3.283 -0.059 0.034000002 113 16 0
3.2780001 -0.048999999 0.028999999 89 16 0
3.2609999 -0.039999999 0.023 95 16 0
3.257 -0.030999999 0.017999999 89 16 0
3.2479999 -0.022 0.012 49 16 0
3.25 -0.013 0.0070000002 20 16 0
3.2739999 -0.0040000002 0.0020000001 16 16 0
3.2939999 0.0049999999 -0.0020000001 16 16 0
3.3080001 0.014 -0.0080000004 17 16 0
3.325 0.023 -0.013 31 16 0
3.3210001 0.033 -0.017999999 47 16 0
3.306 0.041999999 -0.024 49 16 0
3.302 0.050999999 -0.028999999 37 16 0
3.299 0.059999999 -0.034000002 40 16 0
3.2920001 0.07 -0.039000001 48 16 0
3.2850001 0.079000004 -0.044 49 16 0
3.2780001 0.088 -0.048999999 47 16 0
3.2690001 0.097000003 -0.054000001 49 16 0
3.2590001 0.106 -0.059 49 16 0
3.2590001 0.115 -0.064000003 49 16 0
3.25 0.124 -0.068999998 50 16 0
3.2449999 0.133 -0.074000001 51 16 0
3.2390001 0.142 -0.079000004 50 16 0
3.2320001 0.15099999 -0.083999999 52 16 0
3.2219999 0.16 -0.088 51 16 0
3.2119999 0.168 -0.093000002 52 16 0
3.207 0.177 -0.097999997 60 16 0
3.198 0.186 -0.102 54 16 0
3.197 0.19499999 -0.107 52 16 0
3.191 0.204 -0.112 54 16 0
3.1849999 0.213 -0.116 56 16 0
3.1730001 0.221 -0.121 63 16 0
3.1659999 0.23 -0.125 77 16 0
3.1619999 0.23899999 -0.13 66 16 0
3.1559999 0.24699999 -0.134 66 16 0
3.1530001 0.25600001 -0.139 60 16 0
3.138 0.264 -0.14300001 80 16 0
3.1329999 0.273 -0.147 74 16 0
3.1300001 0.28200001 -0.152 79 16 0
3.118 0.28999999 -0.156 69 16 0
3.1140001 0.29800001 -0.16 64 16 0
3.1099999 0.30700001 -0.164 70 16 0
3.102 0.315 -0.168 62 16 0
3.095 0.324 -0.17200001 72 16 0
3.0880001 0.33199999 -0.176 68 16 0
3.0799999 0.34 -0.18000001 79 16 0
3.0769999 0.34900001 -0.185 79 16 0
3.073 0.35800001 -0.189 87 16 0
3.0599999 0.36500001 -0.192 79 16 0
3.0510001 0.373 -0.19599999 79 16 0
3.0510001 0.382 -0.2 87 16 0
3.0420001 0.38999999 -0.204 83 16 0
3.04 0.39899999 -0.208 85 16 0
3.0369999 0.40700001 -0.212 78 16 0
3.027 0.41499999 -0.21600001 74 16 0
3.0209999 0.42300001 -0.219 80 16 0
3.017 0.43099999 -0.223 90 16 0
3.0090001 0.43900001 -0.227 72 16 0
3.0039999 0.44800001 -0.23100001 79 16 0
3.0020001 0.456 -0.235 82 16 0
2.9909999 0.46399999 -0.23800001 78 16 0
2.984 0.472 -0.241 79 16 0
2.9809999 0.47999999 -0.245 83 16 0
2.97 0.48699999 -0.248 73 16 0
2.9690001 0.49599999 -0.252 89 16 0
2.9590001 0.50300002 -0.255 78 16 0
2.9530001 0.51099998 -0.259 89 16 0
2.951 0.51999998 -0.26199999 91 16 0
2.9449999 0.528 -0.266 104 16 0
2.9400001 0.53600001 -0.26899999 99 16 0
2.9360001 0.54400003 -0.27200001 99 16 0
2.924 0.551 -0.27500001 109 16 0
2.914 0.55800003 -0.278 112 16 0
2.9119999 0.56599998 -0.28200001 104 16 0
2.904 0.574 -0.28400001 102 16 0
2.898 0.58099997 -0.28799999 142 16 0
2.8959999 0.58999997 -0.29100001 130 16 0
2.8940001 0.59799999 -0.294 127 16 0
2.8859999 0.60600001 -0.29699999 150 16 0
2.8829999 0.61400002 -0.301 123 16 0
2.8759999 0.62099999 -0.303 144 16 0
2.869 0.62900001 -0.30599999 138 16 0
2.858 0.63499999 -0.30899999 149 16 0
2.8570001 0.64399999 -0.31200001 146 16 0
2.8469999 0.64999998 -0.31400001 134 16 0
2.8499999 0.66000003 -0.31799999 132 16 0
2.8429999 0.667 -0.32100001 134 16 0
2.8340001 0.67400002 -0.32300001 139 16 0
2.8299999 0.68199998 -0.32600001 142 16 0
2.825 0.69 -0.329 150 16 0
2.822 0.69800001 -0.33199999 150 16 0
2.8199999 0.70599997 -0.33500001 149 16 0
2.809 0.71200001 -0.33700001 150 16 0
2.806 0.72000003 -0.34 150 16 0
2.8010001 0.72799999 -0.34200001 150 16 0
2.799 0.736 -0.345 150 16 0
2.79 0.74299997 -0.347 150 16 0
2.7880001 0.75099999 -0.34999999 150 16 0
2.7850001 0.759 -0.35299999 150 16 0
2.7750001 0.76499999 -0.35499999 150 16 0
2.7679999 0.77200001 -0.35699999 150 16 0
2.7590001 0.77899998 -0.359 150 16 0
2.756 0.78600001 -0.361 143 16 0
2.753 0.79400003 -0.36399999 142 16 0
2.7520001 0.80299997 -0.36700001 150 16 0
2.7449999 0.81 -0.36899999 150 16 0
2.74 0.81699997 -0.37099999 150 16 0
2.737 0.82499999 -0.373 150 16 0
2.73 0.83200002 -0.375 150 16 0
2.723 0.83899999 -0.377 150 16 0
2.72 0.847 -0.37900001 150 16 0
2.71 0.852 -0.38100001 150 16 0
2.707 0.86000001 -0.38299999 149 16 0
2.7049999 0.86799997 -0.38600001 150 16 0
2.697 0.87400001 -0.38699999 150 16 0
2.694 0.88200003 -0.389 150 16 0
2.6930001 0.89099997 -0.39199999 150 16 0
2.6860001 0.89700001 -0.39300001 150 16 0
2.681 0.90399998 -0.39500001 150 16 0
2.678 0.912 -0.39700001 150 16 0
2.6730001 0.91900003 -0.39899999 150 16 0
2.668 0.926 -0.40000001 150 16 0
2.6600001 0.93199998 -0.40200001 150 16 0
2.6600001 0.94099998 -0.40400001 150 16 0
2.655 0.94800001 -0.40599999 150 16 0
2.6500001 0.95499998 -0.40700001 104 16 0
2.665 0.96899998 -0.412 97 16 0
2.652 0.97299999 -0.412 150 16 0
2.6359999 0.97600001 -0.412 150 16 0
2.632 0.98299998 -0.41299999 150 16 0
2.6270001 0.99000001 -0.41499999 150 16 0
2.625 0.99800003 -0.41600001 150 16 0
2.618 1.0039999 -0.417 150 16 0
2.615 1.012 -0.419 150 16 0
2.612 1.0190001 -0.421 150 16 0
2.6040001 1.025 -0.421 150 16 0
2.5999999 1.0319999 -0.42199999 150 16 0
2.6029999 1.041 -0.42500001 150 16 0
2.5899999 1.045 -0.42500001 150 16 0
2.5869999 1.052 -0.426 150 16 0
2.5840001 1.059 -0.42699999 150 16 0
2.5769999 1.0650001 -0.428 150 16 0
2.5780001 1.074 -0.43000001 150 16 0
2.572 1.08 -0.43000001 150 16 0
2.5669999 1.087 -0.43099999 150 16 0
2.5599999 1.092 -0.43200001 150 16 0
2.559 1.1 -0.433 150 16 0
2.553 1.1059999 -0.43399999 150 16 0
2.55 1.113 -0.43399999 150 16 0
