# .PCD v0.7 - Point Cloud Data file format
VERSION 0.7
FIELDS x y z intensity tag line
SIZE 4 4 4 4 1 1
TYPE F F F F U U
COUNT 1 1 1 1 1 1
WIDTH 1356
HEIGHT 1
VIEWPOINT 0 0 0 1 0 0 0
POINTS 1356
DATA ascii
2.4189999 0.44299999 -1.52 150 16 0
2.4219999 0.44499999 -1.517 150 16 0
2.4200001 0.44499999 -1.5089999 150 16 0
2.4260001 0.44800001 -1.507 150 16 0
2.427 0.449 -1.502 150 16 0
2.4289999 0.45100001 -1.498 150 16 0
2.427 0.45199999 -1.49 150 16 0
2.4289999 0.45300001 -1.485 150 16 0
2.4319999 0.45500001 -1.48 150 16 0
2.4319999 0.456 -1.474 150 16 0
2.434 0.45699999 -1.469 150 16 0
2.437 0.45899999 -1.464 150 16 0
2.4389999 0.46000001 -1.459 150 16 0
2.4419999 0.461 -1.454 150 16 0
2.4419999 0.46200001 -1.448 150 16 0
2.4430001 0.463 -1.441 150 16 0
2.4489999 0.465 -1.438 150 16 0
2.451 0.46599999 -1.432 150 16 0
2.4530001 0.46700001 -1.427 150 16 0
2.451 0.46700001 -1.418 150 16 0
2.4579999 0.46799999 -1.415 150 16 0
2.457 0.46900001 -1.408 150 16 0
2.4560001 0.46900001 -1.4 150 16 0
2.461 0.47 -1.396 150 16 0
2.4690001 0.472 -1.393 150 16 0
2.4649999 0.47099999 -1.383 150 16 0
2.471 0.47299999 -1.3789999 150 16 0
2.471 0.47299999 -1.372 150 16 0
2.477 0.47400001 -1.368 150 16 0
2.4809999 0.47400001 -1.362 150 16 0
2.4779999 0.47400001 -1.353 150 16 0
2.4820001 0.47499999 -1.348 150 16 0
2.487 0.47499999 -1.3430001 150 16 0
2.4890001 0.47499999 -1.336 150 16 0
2.4949999 0.47600001 -1.331 150 16 0
2.4920001 0.47600001 -1.322 150 16 0
2.494 0.47600001 -1.3150001 150 16 0
2.497 0.47600001 -1.309 150 16 0
2.503 0.47600001 -1.304 150 16 0
2.506 0.477 -1.298 150 16 0
2.5050001 0.47600001 -1.289 150 16 0
2.507 0.47499999 -1.2819999 150 16 0
2.51 0.47499999 -1.276 150 16 0
2.513 0.47499999 -1.2690001 150 16 0
2.516 0.47499999 -1.263 150 16 0
2.52 0.47499999 -1.256 150 16 0
2.5220001 0.47499999 -1.249 150 16 0
2.5320001 0.47600001 -1.2460001 150 16 0
2.5309999 0.47499999 -1.237 150 16 0
2.536 0.47499999 -1.232 150 16 0
2.533 0.47299999 -1.222 150 16 0
2.543 0.47400001 -1.2180001 150 16 0
2.54 0.472 -1.209 150 16 0
2.543 0.472 -1.202 150 16 0
2.55 0.472 -1.197 150 16 0
2.556 0.472 -1.191 150 16 0
2.5569999 0.47 -1.183 150 16 0
2.563 0.47 -1.177 150 16 0
2.566 0.46900001 -1.17 150 16 0
2.5669999 0.46799999 -1.1619999 150 16 0
2.5699999 0.46700001 -1.155 150 16 0
2.576 0.46700001 -1.149 150 16 0
2.5769999 0.46599999 -1.141 150 16 0
2.5799999 0.465 -1.1339999 150 16 0
2.5829999 0.46399999 -1.127 150 16 0
2.5869999 0.46200001 -1.12 150 16 0
2.5929999 0.46200001 -1.114 150 16 0
2.596 0.461 -1.1059999 150 16 0
2.596 0.45899999 -1.098 150 16 0
2.602 0.458 -1.092 150 16 0
2.6059999 0.45699999 -1.085 150 16 0
2.6110001 0.456 -1.0779999 150 16 0
2.6159999 0.45500001 -1.072 150 16 0
2.619 0.454 -1.064 150 16 0
2.6229999 0.45199999 -1.057 150 16 0
2.6289999 0.45100001 -1.051 150 16 0
2.638 0.45100001 -1.046 150 16 0
2.6440001 0.44999999 -1.039 20 16 0
2.664 0.45100001 -1.038 0 16 0
2.6259999 0.442 -1.015 0 16 0
2.6270001 0.44 -1.006 0 16 0
2.5969999 0.433 -0.986 0 18 0
2.589 0.43000001 -0.97500002 0 16 0
2.5969999 0.42899999 -0.96899998 0 16 0
2.6229999 0.43099999 -0.97000003 0 19 0
2.654 0.433 -0.97299999 0 16 0
2.632 0.42699999 -0.95599997 0 16 0
2.6589999 0.42899999 -0.95700002 0 16 0
2.7149999 0.43599999 -0.96899998 1 16 0
2.6919999 0.43000001 -0.95200002 30 16 0
2.6960001 0.428 -0.94400001 150 16 0
2.694 0.42500001 -0.935 150 16 0
2.694 0.42199999 -0.926 150 16 0
2.698 0.41999999 -0.91900003 150 16 0
2.71 0.419 -0.91399997 150 16 0
2.7130001 0.417 -0.90600002 150 16 0
2.72 0.41600001 -0.89899999 150 16 0
2.723 0.41299999 -0.89200002 150 16 0
2.7260001 0.41100001 -0.884 150 16 0
2.7290001 0.40900001 -0.87599999 150 16 0
2.7360001 0.40700001 -0.86900002 150 16 0
2.737 0.40400001 -0.86000001 150 16 0
2.743 0.40200001 -0.85299999 150 16 0
2.7449999 0.39899999 -0.84600002 150 16 0
2.7509999 0.39700001 -0.838 150 16 0
2.7590001 0.39500001 -0.83200002 150 16 0
2.7609999 0.39300001 -0.824 150 16 0
2.7639999 0.38999999 -0.81599998 150 16 0
2.7709999 0.38800001 -0.80900002 150 16 0
2.7750001 0.38499999 -0.801 150 16 0
2.7780001 0.382 -0.79299998 150 16 0
2.7839999 0.38 -0.78600001 150 16 0
2.7909999 0.37799999 -0.77899998 150 16 0
2.7969999 0.375 -0.77200001 150 16 0
2.799 0.37200001 -0.764 150 16 0
2.802 0.37 -0.755 150 16 0
2.8039999 0.36700001 -0.74699998 150 16 0
2.816 0.36500001 -0.741 150 16 0
2.8199999 0.36199999 -0.73400003 150 16 0
2.825 0.359 -0.72600001 150 16 0
2.829 0.35600001 -0.71799999 150 16 0
2.8299999 0.35299999 -0.70999998 150 16 0
2.8399999 0.35100001 -0.70300001 150 16 0
2.842 0.347 -0.69499999 150 16 0
2.846 0.34400001 -0.68699998 150 16 0
2.852 0.34200001 -0.67900002 150 16 0
2.8559999 0.338 -0.671 150 16 0
2.8599999 0.33500001 -0.66399997 150 16 0
2.869 0.333 -0.65700001 150 16 0
2.8729999 0.33000001 -0.64899999 150 16 0
2.8840001 0.32699999 -0.64200002 150 16 0
2.891 0.324 -0.63499999 150 16 0
2.8929999 0.32100001 -0.62599999 150 16 0
2.8970001 0.317 -0.61799997 150 16 0
2.9030001 0.31400001 -0.611 150 16 0
2.9059999 0.31099999 -0.602 150 16 0
2.914 0.308 -0.59500003 150 16 0
2.9189999 0.30399999 -0.58700001 150 16 0
2.925 0.301 -0.57999998 150 16 0
2.9300001 0.29800001 -0.57200003 150 16 0
2.9330001 0.294 -0.56300002 150 16 0
2.941 0.29100001 -0.55599999 150 16 0
2.9460001 0.287 -0.54799998 150 16 0
2.95 0.28400001 -0.54000002 150 16 0
2.9519999 0.28 -0.53100002 150 16 0
2.961 0.27700001 -0.52399999 150 16 0
2.967 0.273 -0.51599997 150 16 0
2.974 0.27000001 -0.50800002 150 16 0
2.9820001 0.266 -0.50099999 150 16 0
2.984 0.26199999 -0.49200001 150 16 0
2.9860001 0.25799999 -0.48300001 150 16 0
2.9920001 0.255 -0.47499999 150 16 0
2.9979999 0.25099999 -0.46700001 150 16 0
2.9990001 0.24699999 -0.45899999 150 16 0
3.0120001 0.244 -0.45199999 150 16 0
3.0139999 0.23999999 -0.44299999 150 16 0
3.0150001 0.235 -0.43399999 150 16 0
3.027 0.23199999 -0.42699999 150 16 0
3.0280001 0.228 -0.41800001 150 16 0
3.0369999 0.22400001 -0.41 150 16 0
3.0409999 0.22 -0.40200001 150 16 0
3.0510001 0.21600001 -0.39399999 150 16 0
3.056 0.212 -0.38600001 150 16 0
3.059 0.208 -0.377 150 16 0
3.0680001 0.204 -0.36899999 150 16 0
3.0699999 0.199 -0.361 150 16 0
3.076 0.19499999 -0.35299999 150 16 0
3.0840001 0.191 -0.34400001 150 16 0
3.092 0.18700001 -0.336 150 16 0
3.096 0.183 -0.32800001 150 16 0
3.1070001 0.17900001 -0.31999999 150 16 0
3.108 0.17399999 -0.31099999 150 16 0
3.1159999 0.17 -0.303 150 16 0
3.1210001 0.16500001 -0.294 150 16 0
3.125 0.161 -0.28600001 150 16 0
3.1340001 0.15700001 -0.27700001 150 16 0
3.1429999 0.152 -0.26899999 150 16 0
3.145 0.148 -0.25999999 150 16 0
3.1530001 0.14300001 -0.252 150 16 0
3.1589999 0.138 -0.243 150 16 0
3.168 0.134 -0.235 150 16 0
3.174 0.12899999 -0.226 150 16 0
3.177 0.124 -0.21699999 150 16 0
3.181 0.12 -0.20900001 145 16 0
3.194 0.115 -0.2 137 16 0
3.201 0.11 -0.192 150 16 0
3.2079999 0.106 -0.183 146 16 0
3.214 0.101 -0.17399999 150 16 0
3.221 0.096000001 -0.16500001 148 16 0
3.2249999 0.090999998 -0.15700001 150 16 0
3.2360001 0.086000003 -0.148 150 16 0
3.2390001 0.081 -0.139 150 16 0
3.2479999 0.075999998 -0.13 148 16 0
3.2550001 0.071000002 -0.121 144 16 0
3.2609999 0.066 -0.112 117 16 0
3.2690001 0.061000001 -0.103 60 16 0
3.273 0.055 -0.093999997 57 16 0
3.277 0.050000001 -0.085000001 105 16 0
3.2809999 0.045000002 -0.075999998 144 16 0
3.293 0.039999999 -0.067000002 137 16 0
3.2980001 0.034000002 -0.057999998 108 16 0
3.3080001 0.028999999 -0.048999999 54 16 0
3.3110001 0.024 -0.039999999 29 16 0
3.303 0.017999999 -0.030999999 23 16 0
3.293 0.013 -0.021 21 16 0
3.2850001 0.0070000002 -0.012 20 16 0
3.2820001 0.0020000001 -0.003 20 16 0
3.2679999 -0.003 0.0049999999 19 16 0
3.2550001 -0.0080000004 0.014 26 16 0
3.2579999 -0.014 0.023 45 16 0
3.2590001 -0.018999999 0.032000002 150 16 0
3.27 -0.025 0.041000001 150 16 0
3.2750001 -0.029999999 0.050000001 150 16 0
3.2820001 -0.035999998 0.059 150 16 0
3.2909999 -0.041999999 0.068999998 150 16 0
3.2969999 -0.046999998 0.078000002 150 16 0
3.303 -0.052999999 0.086999997 150 16 0
3.3139999 -0.059 0.097000003 150 16 0
3.3139999 -0.064999998 0.106 113 16 0
3.3099999 -0.07 0.115 37 16 0
3.303 -0.075999998 0.123 31 16 0
3.2920001 -0.082000002 0.132 30 16 0
3.286 -0.086999997 0.141 30 16 0
3.279 -0.093000002 0.149 30 16 0
3.2639999 -0.097999997 0.15800001 31 16 0
3.2579999 -0.103 0.16599999 31 16 0
3.2550001 -0.109 0.175 31 16 0
3.24 -0.114 0.183 30 16 0
3.2290001 -0.12 0.191 30 16 0
3.2249999 -0.125 0.2 31 16 0
3.2149999 -0.131 0.208 31 16 0
3.2019999 -0.13600001 0.21600001 30 16 0
3.1949999 -0.141 0.22400001 28 16 0
3.191 -0.147 0.23199999 29 16 0
3.178 -0.152 0.23999999 29 16 0
3.1730001 -0.15800001 0.248 29 16 0
3.165 -0.163 0.25600001 29 16 0
3.1500001 -0.168 0.26300001 29 16 0
3.1440001 -0.17299999 0.271 29 16 0
3.1300001 -0.178 0.278 29 16 0
3.1210001 -0.184 0.28600001 29 16 0
3.119 -0.189 0.294 28 16 0
3.105 -0.19400001 0.301 28 16 0
3.096 -0.199 0.30899999 27 16 0
3.0869999 -0.204 0.31600001 28 16 0
3.0799999 -0.20999999 0.324 27 16 0
3.072 -0.215 0.331 28 16 0
3.062 -0.22 0.338 29 16 0
3.0569999 -0.22499999 0.34599999 28 16 0
3.0439999 -0.23 0.352 28 16 0
3.033 -0.235 0.359 31 16 0
3.0250001 -0.23999999 0.366 31 16 0
3.0190001 -0.24600001 0.37400001 30 16 0
3.0120001 -0.25099999 0.38100001 31 16 0
3.0020001 -0.25600001 0.38800001 30 16 0
2.9879999 -0.25999999 0.39399999 31 16 0
2.974 -0.26499999 0.40000001 30 16 0
2.9690001 -0.27000001 0.40700001 31 16 0
2.961 -0.27500001 0.414 30 16 0
2.9519999 -0.28 0.41999999 31 16 0
2.9430001 -0.285 0.42699999 30 16 0
2.9349999 -0.28999999 0.433 30 16 0
2.934 -0.296 0.44100001 30 16 0
2.921 -0.30000001 0.447 30 16 0
2.911 -0.30500001 0.45300001 31 16 0
2.9059999 -0.31 0.46000001 30 16 0
2.895 -0.315 0.46599999 32 16 0
2.888 -0.31999999 0.472 30 16 0
2.8840001 -0.32499999 0.479 32 16 0
2.8710001 -0.33000001 0.484 33 16 0
2.8599999 -0.33399999 0.49000001 31 16 0
2.855 -0.33899999 0.49700001 31 16 0
2.8440001 -0.34400001 0.50199997 33 16 0
2.8340001 -0.34900001 0.50800002 31 16 0
2.8299999 -0.354 0.514 30 16 0
2.819 -0.35800001 0.51999998 31 16 0
2.8139999 -0.36399999 0.52600002 32 16 0
2.803 -0.368 0.53100002 30 16 0
2.7950001 -0.373 0.537 31 16 0
2.789 -0.37799999 0.54299998 32 16 0
2.7780001 -0.382 0.54799998 30 16 0
2.7690001 -0.38699999 0.55400002 33 16 0
2.7639999 -0.39199999 0.56 38 16 0
2.7550001 -0.39700001 0.565 37 16 0
2.7449999 -0.40099999 0.56999999 36 16 0
2.7349999 -0.405 0.57499999 36 16 0
2.7249999 -0.41 0.57999998 37 16 0
2.7190001 -0.41499999 0.58600003 36 16 0
2.7149999 -0.41999999 0.59200001 37 16 0
2.707 -0.42500001 0.597 38 16 0
2.697 -0.42899999 0.602 37 16 0
2.6889999 -0.433 0.60699999 38 16 0
2.684 -0.43900001 0.61199999 37 16 0
2.6760001 -0.44299999 0.61699998 38 16 0
2.658 -0.44600001 0.62 37 16 0
2.6530001 -0.45100001 0.62599999 36 16 0
2.6440001 -0.456 0.63 41 16 0
2.642 -0.461 0.63599998 42 16 0
2.6370001 -0.46599999 0.64200002 42 16 0
2.6259999 -0.47 0.64600003 39 16 0
2.622 -0.47499999 0.65100002 43 16 0
2.6129999 -0.47999999 0.65600002 44 16 0
2.6029999 -0.48300001 0.66000003 47 16 0
2.5969999 -0.48800001 0.66500002 43 16 0
2.589 -0.493 0.66900003 46 16 0
2.576 -0.49599999 0.67199999 47 16 0
2.5710001 -0.50099999 0.67699999 40 16 0
2.5680001 -0.50700003 0.68300003 54 16 0
2.5599999 -0.51099998 0.68699998 62 16 0
2.546 -0.514 0.69 51 16 0
2.5350001 -0.51800001 0.69300002 50 16 0
2.5309999 -0.523 0.69800001 48 16 0
2.5220001 -0.52700001 0.70200002 53 16 0
2.5150001 -0.53100002 0.70599997 49 16 0
2.5050001 -0.53500003 0.70899999 56 16 0
2.497 -0.54000002 0.713 56 16 0
2.4890001 -0.54400003 0.71700001 59 16 0
2.48 -0.54799998 0.72000003 58 16 0
2.474 -0.55199999 0.72399998 56 16 0
2.4619999 -0.55599999 0.727 55 16 0
2.457 -0.56 0.73100001 54 16 0
2.4460001 -0.56400001 0.73400003 58 16 0
2.4419999 -0.56900001 0.73900002 63 16 0
2.4330001 -0.57300001 0.74199998 65 16 0
2.4300001 -0.57800001 0.74599999 63 16 0
2.425 -0.583 0.75 67 16 0
2.4119999 -0.58600003 0.75199997 68 16 0
2.4030001 -0.58899999 0.755 72 16 0
2.391 -0.59200001 0.75700003 67 16 0
2.3829999 -0.59600002 0.75999999 59 16 0
2.3759999 -0.60100001 0.76300001 72 16 0
2.3699999 -0.60500002 0.76700002 67 16 0
2.3610001 -0.60799998 0.76899999 69 16 0
2.3529999 -0.61199999 0.77200001 67 16 0
2.348 -0.61699998 0.77600002 73 16 0
2.3380001 -0.62 0.778 77 16 0
2.336 -0.62599999 0.78200001 74 16 0
2.323 -0.62800002 0.78299999 76 16 0
2.3169999 -0.63200003 0.78600001 74 16 0
2.3080001 -0.63599998 0.78799999 74 16 0
2.302 -0.63999999 0.792 76 16 0
2.2939999 -0.64399999 0.79400003 75 16 0
2.2880001 -0.648 0.79699999 117 16 0
2.28 -0.65200001 0.79900002 116 16 0
2.273 -0.65600002 0.80199999 113 16 0
2.2639999 -0.65899998 0.80299997 116 16 0
2.2590001 -0.66299999 0.80599999 117 16 0
2.2509999 -0.667 0.80800003 117 16 0
2.243 -0.671 0.81 115 16 0
2.233 -0.67299998 0.81099999 103 16 0
2.227 -0.67699999 0.81400001 106 16 0
2.22 -0.68099999 0.81599998 116 16 0
2.2130001 -0.685 0.81800002 114 16 0
2.2030001 -0.68800002 0.81900001 114 16 0
2.197 -0.69199997 0.82099998 133 16 0
2.187 -0.69400001 0.82200003 142 16 0
2.1819999 -0.699 0.824 142 16 0
2.171 -0.70099998 0.824 138 16 0
2.168 -0.70599997 0.82700002 148 16 0
2.1559999 -0.70700002 0.82700002 140 16 0
2.1500001 -0.71100003 0.829 150 16 0
2.142 -0.71499997 0.82999998 142 16 0
2.131 -0.71600002 0.82999998 128 16 0
2.125 -0.72000003 0.83200002 119 16 0
2.1199999 -0.72399998 0.83399999 135 16 0
2.1159999 -0.72899997 0.83600003 135 16 0
2.1070001 -0.73100001 0.83600003 149 16 0
2.1029999 -0.73500001 0.83899999 142 16 0
2.092 -0.73699999 0.838 150 16 0
2.0869999 -0.741 0.83999997 136 16 0
2.0829999 -0.745 0.84200001 132 16 0
2.073 -0.74699998 0.84100002 138 16 0
2.0639999 -0.74900001 0.84100002 136 16 0
2.062 -0.75400001 0.84399998 145 16 0
2.049 -0.755 0.84200001 140 16 0
2.043 -0.75800002 0.84299999 130 16 0
2.036 -0.76099998 0.84299999 134 16 0
2.0320001 -0.76599997 0.84500003 134 16 0
2.0239999 -0.76800001 0.84500003 142 16 0
2.0190001 -0.77100003 0.84600002 146 16 0
2.0139999 -0.77499998 0.847 139 16 0
2.0009999 -0.77499998 0.84500003 126 16 0
1.997 -0.77899998 0.84600002 129 16 0
1.992 -0.78299999 0.847 129 16 0
1.987 -0.78600001 0.84799999 145 16 0
1.977 -0.787 0.84600002 138 16 0
1.972 -0.79100001 0.847 131 16 0
1.962 -0.792 0.84500003 150 16 0
1.959 -0.796 0.847 149 16 0
1.951 -0.79799998 0.84600002 150 16 0
1.9450001 -0.801 0.84600002 150 16 0
1.944 -0.80500001 0.84799999 150 16 0
1.936 -0.80699998 0.847 150 16 0
1.927 -0.80900002 0.84500003 150 16 0
1.923 -0.81199998 0.84600002 150 16 0
1.92 -0.81599998 0.84600002 150 16 0
1.914 -0.81800002 0.84600002 150 16 0
1.9119999 -0.82200003 0.847 150 16 0
1.901 -0.82200003 0.84399998 150 16 0
1.8839999 -0.81999999 0.83899999 150 16 0
1.88 -0.82300001 0.83899999 150 16 0
1.877 -0.82599998 0.83899999 150 16 0
1.873 -0.829 0.83899999 150 16 0
1.8710001 -0.833 0.83999997 150 16 0
1.865 -0.83499998 0.83899999 150 16 0
1.858 -0.83700001 0.83700001 150 16 0
1.851 -0.838 0.83600003 150 16 0
1.848 -0.84100002 0.83600003 150 16 0
1.84 -0.84200001 0.83399999 150 16 0
1.837 -0.84500003 0.83399999 150 16 0
1.8329999 -0.84799999 0.833 150 16 0
1.829 -0.85000002 0.833 150 16 0
1.827 -0.85399997 0.83200002 150 16 0
1.816 -0.85299999 0.829 150 16 0
1.811 -0.85399997 0.82700002 150 16 0
1.807 -0.85699999 0.82700002 150 16 0
1.801 -0.85799998 0.824 150 16 0
1.799 -0.861 0.824 150 16 0
1.796 -0.86400002 0.824 150 16 0
1.788 -0.86400002 0.82099998 150 16 0
1.781 -0.86500001 0.81800002 150 16 0
1.779 -0.86799997 0.81800002 150 16 0
1.776 -0.87 0.81699997 150 16 0
1.771 -0.87099999 0.815 150 16 0
1.765 -0.87199998 0.81199998 150 16 0
1.762 -0.87400001 0.81099999 150 16 0
1.753 -0.87300003 0.80699998 150 19 0
1.752 -0.87599999 0.80699998 150 16 0
1.747 -0.87699997 0.80500001 150 16 0
1.743 -0.87900001 0.80299997 150 16 0
1.738 -0.88 0.801 150 16 0
1.737 -0.88300002 0.80000001 150 16 0
1.735 -0.88499999 0.79900002 150 16 0
1.7309999 -0.88599998 0.79699999 150 16 0
1.729 -0.88800001 0.79500002 150 16 0
1.724 -0.889 0.79299998 150 16 0
1.7180001 -0.88800001 0.79000002 150 16 0
1.717 -0.89099997 0.78899997 150 16 0
1.711 -0.88999999 0.78500003 150 16 0
1.71 -0.89300001 0.78399998 150 16 0
1.7079999 -0.89499998 0.78200001 150 16 0
1.702 -0.89399999 0.77899998 150 16 0
1.697 -0.89399999 0.77600002 150 16 0
1.6950001 -0.89499998 0.77399999 150 16 0
1.694 -0.898 0.77200001 150 16 0
1.694 -0.89999998 0.77100003 150 16 0
1.689 -0.89999998 0.76800001 150 16 0
1.677 -0.89600003 0.76099998 150 16 0
1.674 -0.89600003 0.759 150 16 0
1.674 -0.898 0.75700003 150 16 0
1.671 -0.898 0.75400001 150 16 0
1.669 -0.89899999 0.75199997 150 16 0
1.668 -0.90100002 0.75 150 16 0
1.67 -0.90399998 0.75 150 16 0
1.6670001 -0.90399998 0.74699998 150 16 0
1.6619999 -0.903 0.74299997 150 16 0
1.66 -0.90399998 0.74000001 150 16 0
1.663 -0.90600002 0.74000001 150 16 0
1.6569999 -0.90499997 0.73500001 150 19 0
1.6569999 -0.90600002 0.73299998 150 16 0
1.656 -0.90700001 0.73100001 150 16 0
1.655 -0.90799999 0.72799999 150 16 0
1.654 -0.90799999 0.72600001 150 16 0
1.651 -0.90799999 0.72299999 150 16 0
1.652 -0.90899998 0.72100002 150 16 0
1.65 -0.90899998 0.71799999 150 16 0
1.649 -0.90899998 0.71499997 150 16 0
1.642 -0.90600002 0.70999998 150 18 0
1.641 -0.90700001 0.70700002 150 16 0
1.6440001 -0.90899998 0.70599997 150 16 0
1.641 -0.90799999 0.70200002 150 16 0
1.6390001 -0.90700001 0.699 150 16 0
1.642 -0.90899998 0.69700003 150 16 0
1.638 -0.90700001 0.69300002 150 16 0
1.636 -0.90600002 0.68900001 150 16 0
1.6390001 -0.90799999 0.68800002 150 16 0
1.636 -0.90700001 0.68400002 150 16 0
1.635 -0.90700001 0.68099999 150 16 0
1.632 -0.90499997 0.67699999 150 16 0
1.6339999 -0.90600002 0.67500001 150 16 0
1.6339999 -0.90600002 0.67199999 150 16 0
1.6339999 -0.90499997 0.66900003 150 16 0
1.6339999 -0.90499997 0.66600001 150 16 0
1.635 -0.90499997 0.66299999 150 16 0
1.636 -0.90499997 0.66100001 150 16 0
1.635 -0.90499997 0.65700001 150 16 0
1.635 -0.90399998 0.65399998 150 16 0
1.638 -0.90399998 0.65200001 150 16 0
1.637 -0.903 0.64899999 150 16 0
1.6390001 -0.90399998 0.64600003 150 16 0
1.64 -0.903 0.64300001 150 16 0
1.638 -0.90200001 0.639 150 16 0
1.64 -0.90100002 0.63599998 150 16 0
1.64 -0.89999998 0.63300002 150 16 0
1.64 -0.89899999 0.63 150 16 0
1.635 -0.89499998 0.625 150 16 0
1.637 -0.89499998 0.62199998 150 16 0
1.638 -0.89399999 0.61900002 150 16 0
1.64 -0.89399999 0.616 150 16 0
1.641 -0.89300001 0.61299998 150 16 0
1.641 -0.89099997 0.60900003 150 16 0
1.641 -0.88999999 0.60600001 150 16 0
1.642 -0.889 0.60299999 150 16 0
1.647 -0.88999999 0.60100001 150 16 0
1.647 -0.88800001 0.597 150 16 0
1.648 -0.88599998 0.59399998 150 16 0
1.649 -0.88499999 0.58999997 150 16 0
1.651 -0.884 0.588 150 16 0
1.646 -0.88 0.58200002 150 16 0
1.654 -0.88200003 0.58099997 2 0 0
1.656 -0.88 0.57800001 150 16 0
1.658 -0.87900001 0.57499999 150 16 0
1.663 -0.87900001 0.57300001 2 0 0
1.664 -0.87800002 0.56999999 2 0 0
1.663 -0.875 0.565 2 0 0
1.665 -0.87300003 0.56199998 2 0 0
1.6670001 -0.87199998 0.55900002 2 0 0
1.6720001 -0.87199998 0.55699998 2 0 0
1.671 -0.86900002 0.55199999 2 0 0
1.677 -0.86900002 0.551 2 0 0
1.677 -0.86699998 0.54699999 150 16 0
1.676 -0.86299998 0.54299998 150 16 0
1.682 -0.86299998 0.54000002 2 0 0
1.683 -0.861 0.537 150 16 0
1.682 -0.85799998 0.53299999 140 16 0
1.686 -0.85699999 0.52999997 150 16 0
1.699 -0.86000001 0.52999997 150 19 0
1.698 -0.85699999 0.52600002 150 16 0
1.699 -0.85399997 0.52200001 137 16 0
1.705 -0.85399997 0.51999998 150 16 0
1.707 -0.85100001 0.51700002 150 16 0
1.709 -0.84899998 0.51300001 146 16 0
1.711 -0.847 0.50999999 144 16 0
1.7180001 -0.84600002 0.50800002 147 16 0
1.716 -0.84200001 0.50300002 150 16 0
1.722 -0.84200001 0.50099999 148 16 0
1.724 -0.83899999 0.498 146 16 0
1.727 -0.83700001 0.49399999 150 16 0
1.7309999 -0.83499998 0.491 150 16 0
1.7309999 -0.83099997 0.48699999 148 16 0
1.735 -0.829 0.48500001 150 16 0
1.74 -0.82800001 0.48199999 150 16 0
1.7460001 -0.82700002 0.479 149 16 0
1.748 -0.824 0.47600001 137 16 0
1.748 -0.81999999 0.472 150 16 0
1.7539999 -0.81900001 0.47 137 16 0
1.756 -0.81599998 0.46599999 138 16 0
1.758 -0.81300002 0.463 133 16 0
1.7690001 -0.81400001 0.46200001 147 16 0
1.77 -0.81 0.458 129 16 0
1.775 -0.80800003 0.45500001 146 16 0
1.775 -0.80400002 0.45100001 129 16 0
1.7869999 -0.80500001 0.44999999 134 16 0
1.79 -0.80199999 0.447 130 16 0
1.793 -0.79900002 0.44299999 132 16 0
1.794 -0.79500002 0.44 130 16 0
1.804 -0.79500002 0.43799999 134 16 0
1.8049999 -0.79100001 0.43399999 137 16 0
1.808 -0.78799999 0.43099999 136 16 0
1.818 -0.78799999 0.42899999 129 16 0
1.8200001 -0.78399998 0.426 139 16 0
1.822 -0.77999997 0.42199999 121 16 0
1.8279999 -0.778 0.41999999 130 16 0
1.831 -0.77499998 0.41600001 120 16 0
1.834 -0.77200001 0.41299999 116 16 0
1.836 -0.76800001 0.41 121 16 0
1.842 -0.76599997 0.40700001 132 16 0
1.847 -0.76200002 0.40400001 123 16 0
1.852 -0.75999999 0.40099999 122 16 0
1.863 -0.759 0.40000001 108 16 0
1.87 -0.75700003 0.39700001 95 16 0
1.872 -0.75300002 0.39399999 99 16 0
1.882 -0.75199997 0.39199999 89 16 0
1.887 -0.74900001 0.389 85 16 0
1.891 -0.74599999 0.38600001 89 16 0
1.9 -0.74400002 0.384 92 16 0
1.902 -0.74000001 0.38 86 16 0
1.906 -0.736 0.377 89 16 0
1.913 -0.73400003 0.37400001 85 16 0
1.921 -0.73199999 0.37200001 87 16 0
1.926 -0.72799999 0.36899999 85 16 0
1.934 -0.72600001 0.36700001 90 16 0
1.937 -0.72100002 0.36300001 93 16 0
1.942 -0.71799999 0.36000001 76 16 0
1.951 -0.71600002 0.35800001 89 16 0
1.954 -0.71200001 0.35499999 88 16 0
1.966 -0.71100003 0.35299999 86 16 0
1.9680001 -0.70599997 0.34999999 83 16 0
1.979 -0.704 0.34799999 83 16 0
1.984 -0.70099998 0.345 83 16 0
1.989 -0.69700003 0.34200001 80 16 0
1.992 -0.69199997 0.33899999 78 16 0
1.998 -0.68800002 0.336 79 16 0
2.007 -0.68599999 0.333 74 16 0
2.016 -0.68400002 0.331 80 16 0
2.0220001 -0.68000001 0.32800001 71 16 0
2.033 -0.67799997 0.32600001 70 16 0
2.0380001 -0.67299998 0.32300001 71 16 0
2.0409999 -0.66900003 0.31999999 76 16 0
2.0480001 -0.66500002 0.317 71 16 0
2.056 -0.662 0.315 66 16 0
2.062 -0.65799999 0.31200001 67 16 0
2.0710001 -0.65499997 0.30899999 67 16 0
2.079 -0.65100002 0.30700001 67 16 0
2.085 -0.64700001 0.30399999 64 16 0
2.0940001 -0.64399999 0.301 71 16 0
2.102 -0.63999999 0.29899999 57 16 0
2.112 -0.63700002 0.296 63 16 0
2.1170001 -0.63300002 0.29300001 69 16 0
2.1240001 -0.62900001 0.29100001 66 16 0
2.1270001 -0.62300003 0.287 62 16 0
2.132 -0.61900002 0.28400001 65 16 0
2.154 -0.61900002 0.28299999 59 19 0
2.161 -0.61400002 0.28099999 61 16 0
2.1730001 -0.611 0.278 64 16 0
2.174 -0.60500002 0.27500001 52 16 0
2.187 -0.602 0.273 52 16 0
2.191 -0.597 0.27000001 45 16 0
2.204 -0.59399998 0.26699999 43 16 0
2.214 -0.59100002 0.26499999 45 16 0
2.2179999 -0.58499998 0.26199999 41 16 0
2.2279999 -0.58099997 0.259 43 16 0
2.234 -0.57599998 0.25600001 53 16 0
2.2420001 -0.57200003 0.25299999 45 16 0
2.2509999 -0.56800002 0.25099999 43 16 0
2.2609999 -0.56300002 0.248 37 16 0
2.2709999 -0.55900002 0.24600001 39 16 0
2.2780001 -0.55400002 0.243 43 16 0
2.2909999 -0.551 0.241 41 16 0
2.299 -0.546 0.23800001 40 16 0
2.3069999 -0.54100001 0.235 40 16 0
2.3169999 -0.53600001 0.23199999 37 16 0
2.332 -0.53299999 0.23 39 16 0
2.3399999 -0.528 0.227 40 16 0
2.345 -0.52200001 0.22400001 33 16 0
2.358 -0.51800001 0.222 29 16 0
2.3670001 -0.51300001 0.219 29 16 0
2.3789999 -0.50800002 0.21600001 41 16 0
2.391 -0.50400001 0.214 45 16 0
2.3959999 -0.498 0.211 28 16 0
2.408 -0.493 0.208 28 16 0
2.4200001 -0.48800001 0.206 28 16 0
2.425 -0.48199999 0.20200001 25 16 0
2.4400001 -0.47799999 0.2 26 16 0
2.451 -0.47299999 0.197 27 16 0
2.4649999 -0.46799999 0.19499999 27 16 0
2.471 -0.46200001 0.192 26 16 0
2.4779999 -0.456 0.189 27 16 0
2.49 -0.45100001 0.186 25 16 0
2.5039999 -0.44600001 0.183 26 16 0
2.5120001 -0.44 0.18099999 26 16 0
2.529 -0.435 0.178 28 16 0
2.536 -0.42899999 0.175 27 16 0
2.552 -0.42399999 0.17299999 26 16 0
2.5610001 -0.417 0.17 26 16 0
2.572 -0.412 0.167 25 16 0
2.5829999 -0.40599999 0.164 26 16 0
2.595 -0.40000001 0.161 26 16 0
2.6070001 -0.39399999 0.15800001 26 16 0
2.619 -0.38800001 0.155 25 16 0
2.6300001 -0.382 0.152 26 16 0
2.6500001 -0.37599999 0.15000001 25 16 0
2.664 -0.37 0.147 26 16 0
2.674 -0.36399999 0.14399999 27 16 0
2.688 -0.35800001 0.141 26 16 0
2.701 -0.35100001 0.138 27 16 0
2.711 -0.345 0.13500001 27 16 0
2.72 -0.338 0.132 25 16 0
2.73 -0.331 0.12899999 26 16 0
2.7490001 -0.32499999 0.127 27 16 0
2.7550001 -0.317 0.123 27 16 0
2.776 -0.31099999 0.121 26 16 0
2.7909999 -0.30500001 0.118 26 16 0
2.8010001 -0.29699999 0.115 26 16 0
2.812 -0.28999999 0.111 26 16 0
2.8340001 -0.28400001 0.109 26 16 0
2.848 -0.27599999 0.106 25 16 0
2.859 -0.26899999 0.103 26 16 0
2.8740001 -0.26199999 0.1 25 16 0
2.8859999 -0.25400001 0.096000001 27 16 0
2.9059999 -0.24699999 0.093999997 26 16 0
2.9189999 -0.23999999 0.090000004 25 16 0
2.9389999 -0.23199999 0.086999997 25 16 0
2.954 -0.22400001 0.083999999 25 16 0
2.9690001 -0.21699999 0.081 25 16 0
2.983 -0.20900001 0.078000002 24 16 0
3 -0.20100001 0.075000003 25 16 0
3.0109999 -0.192 0.071000002 24 16 0
3.039 -0.185 0.068000004 26 19 0
3.0580001 -0.177 0.064999998 26 16 0
3.069 -0.168 0.061999999 25 16 0
3.0910001 -0.16 0.059 25 16 0
3.1099999 -0.152 0.055 25 16 0
3.125 -0.14300001 0.052000001 26 16 0
3.145 -0.134 0.048999999 26 16 0
3.1689999 -0.126 0.046 26 16 0
3.1860001 -0.117 0.041999999 26 16 0
3.2 -0.108 0.039000001 27 16 0
3.2249999 -0.098999999 0.035 26 16 0
3.2390001 -0.089000002 0.032000002 27 16 0
3.2590001 -0.079999998 0.028000001 27 16 0
3.2809999 -0.071000002 0.025 51 16 0
3.276 -0.059999999 0.021 144 16 0
3.2720001 -0.050000001 0.017999999 106 16 0
3.2609999 -0.039999999 0.014 97 16 0
3.257 -0.029999999 0.0099999998 110 16 0
3.2460001 -0.02 0.0070000002 47 16 0
3.2550001 -0.0099999998 0.003 19 16 0
3.276 0 0 17 16 0
3.302 0.0089999996 -0.003 18 16 0
3.322 0.018999999 -0.0060000001 22 16 0
3.325 0.028999999 -0.0099999998 47 16 0
3.312 0.039000001 -0.013 52 16 0
3.3110001 0.048999999 -0.017000001 44 16 0
3.302 0.059 -0.02 41 16 0
3.2939999 0.068999998 -0.024 52 16 0
3.2909999 0.079000004 -0.027000001 50 16 0
3.28 0.089000002 -0.029999999 51 16 0
3.279 0.098999999 -0.034000002 53 16 0
3.273 0.109 -0.037 53 16 0
3.263 0.119 -0.039999999 55 16 0
3.2590001 0.12800001 -0.043000001 54 16 0
3.25 0.138 -0.046 56 16 0
3.2490001 0.148 -0.050000001 54 16 0
3.2390001 0.15800001 -0.052999999 64 16 0
3.2390001 0.168 -0.056000002 58 16 0
3.23 0.177 -0.059 55 16 0
3.22 0.18700001 -0.061999999 67 16 0
3.211 0.19599999 -0.064999998 70 16 0
3.21 0.206 -0.068000004 70 16 0
3.2 0.215 -0.071000002 66 16 0
3.197 0.22499999 -0.074000001 62 16 0
3.1889999 0.234 -0.077 62 16 0
3.184 0.244 -0.079999998 64 16 0
3.174 0.25299999 -0.082000002 61 16 0
3.164 0.26199999 -0.085000001 68 16 0
3.164 0.27200001 -0.088 73 16 0
3.155 0.28099999 -0.090999998 66 16 0
3.1489999 0.28999999 -0.093000002 56 16 0
3.142 0.29899999 -0.096000001 55 16 0
3.141 0.30899999 -0.098999999 64 16 0
3.131 0.31799999 -0.101 70 16 0
3.1300001 0.32800001 -0.104 65 16 0
3.1170001 0.336 -0.107 73 16 0
3.1110001 0.345 -0.109 66 16 0
3.1070001 0.35499999 -0.112 62 16 0
3.1029999 0.36399999 -0.114 72 16 0
3.096 0.373 -0.117 85 16 0
3.089 0.382 -0.119 78 16 0
3.0840001 0.391 -0.122 82 16 0
3.0739999 0.39899999 -0.124 73 16 0
3.073 0.40900001 -0.126 89 16 0
3.0650001 0.41800001 -0.12899999 85 16 0
3.0569999 0.426 -0.131 86 16 0
3.052 0.435 -0.133 82 16 0
3.0480001 0.44400001 -0.13600001 81 16 0
3.0450001 0.45300001 -0.138 88 16 0
3.0420001 0.463 -0.14 94 16 0
3.0320001 0.47099999 -0.142 90 16 0
3.026 0.47999999 -0.14399999 77 16 0
3.0209999 0.48800001 -0.147 74 16 0
3.0109999 0.49599999 -0.149 80 16 0
3.007 0.505 -0.15099999 75 16 0
3.0020001 0.514 -0.153 79 16 0
3 0.523 -0.155 74 16 0
2.994 0.53200001 -0.15700001 89 16 0
2.9860001 0.54000002 -0.15899999 98 16 0
2.9820001 0.54900002 -0.161 85 16 0
2.973 0.55699998 -0.163 95 16 0
2.971 0.56599998 -0.16500001 93 16 0
2.9649999 0.57499999 -0.167 84 16 0
2.957 0.583 -0.168 107 16 0
2.9549999 0.59200001 -0.17 92 16 0
2.948 0.60000002 -0.17200001 101 16 0
2.941 0.60799998 -0.17399999 97 16 0
2.9389999 0.61699998 -0.176 92 16 0
2.9349999 0.62599999 -0.177 108 16 0
2.9300001 0.634 -0.17900001 98 16 0
2.9230001 0.64200002 -0.18099999 100 16 0
2.9230001 0.65200001 -0.183 116 16 0
2.9089999 0.65799999 -0.184 108 16 0
2.9000001 0.66600001 -0.185 109 16 0
2.8970001 0.67400002 -0.18700001 143 16 0
2.895 0.68300003 -0.189 139 16 0
2.8859999 0.69099998 -0.19 141 16 0
2.8840001 0.69999999 -0.192 132 16 0
2.8770001 0.708 -0.193 131 16 0
2.875 0.71700001 -0.19499999 146 16 0
2.869 0.72500002 -0.19599999 150 16 0
2.865 0.73299998 -0.197 148 16 0
2.8640001 0.74199998 -0.199 149 16 0
2.8559999 0.75 -0.2 147 16 0
2.852 0.75800002 -0.20100001 139 16 0
2.845 0.76499999 -0.20299999 141 16 0
2.8380001 0.773 -0.204 148 16 0
2.832 0.78100002 -0.205 139 16 0
2.829 0.78899997 -0.206 141 16 0
2.826 0.79799998 -0.207 150 16 0
2.8169999 0.80500001 -0.208 139 16 0
2.8150001 0.81300002 -0.20999999 138 16 0
2.812 0.82200003 -0.211 150 16 0
2.8080001 0.83099997 -0.212 150 16 0
2.803 0.838 -0.213 150 16 0
2.7950001 0.84500003 -0.214 150 16 0
2.7920001 0.85399997 -0.215 150 16 0
2.7880001 0.86199999 -0.21600001 150 16 0
2.7839999 0.87 -0.21699999 150 16 0
2.7809999 0.87800002 -0.21799999 150 16 0
2.773 0.88499999 -0.219 150 16 0
2.767 0.89200002 -0.219 150 16 0
2.7650001 0.90100002 -0.22 150 16 0
2.7620001 0.90899998 -0.221 147 16 0
2.76 0.91799998 -0.222 150 16 0
2.7490001 0.92400002 -0.222 150 16 0
2.7460001 0.93199998 -0.223 150 16 0
2.743 0.94 -0.22400001 150 16 0
2.737 0.94800001 -0.22499999 136 16 0
2.737 0.95700002 -0.22499999 150 16 0
2.743 0.96799999 -0.227 36 16 0
2.737 0.97500002 -0.227 62 16 0
2.717 0.977 -0.227 150 16 0
2.7190001 0.98699999 -0.228 150 16 0
2.71 0.99299997 -0.228 150 16 0
2.7049999 1.001 -0.228 150 16 0
2.7019999 1.0089999 -0.228 150 16 0
2.6989999 1.017 -0.229 150 16 0
2.6919999 1.023 -0.229 150 16 0
2.6930001 1.033 -0.23 150 16 0
2.6830001 1.038 -0.23 150 16 0
2.6830001 1.0470001 -0.23 150 16 0
2.6760001 1.053 -0.23 150 16 0
2.6730001 1.061 -0.23100001 150 16 0
2.6700001 1.069 -0.23100001 150 16 0
2.6670001 1.077 -0.23100001 150 16 0
2.664 1.085 -0.23100001 150 16 0
2.6589999 1.092 -0.23100001 150 16 0
2.6570001 1.1 -0.23100001 150 16 0
2.6440001 1.104 -0.23100001 150 16 0
2.6440001 1.113 -0.23100001 150 16 0
2.641 1.1210001 -0.23100001 150 16 0
2.638 1.128 -0.23100001 150 16 0
2.635 1.136 -0.23100001 150 16 0
2.631 1.143 -0.23100001 150 16 0
2.6240001 1.149 -0.23 133 16 0
2.6210001 1.1569999 -0.23 150 16 0
2.6210001 1.165 -0.23 150 16 0
2.6129999 1.171 -0.229 150 16 0
2.6099999 1.178 -0.229 150 16 0
2.6059999 1.1849999 -0.229 150 16 0
2.598 1.191 -0.228 150 16 0
2.5999999 1.2 -0.228 150 16 0
2.595 1.207 -0.228 150 16 0
2.5929999 1.214 -0.227 150 16 0
2.5899999 1.222 -0.227 150 16 0
2.589 1.23 -0.227 150 16 0
2.582 1.235 -0.226 150 16 0
2.5799999 1.243 -0.22499999 150 16 0
2.582 1.252 -0.22499999 150 16 0
2.569 1.255 -0.223 150 16 0
2.5699999 1.2640001 -0.223 150 16 0
2.562 1.268 -0.222 150 16 0
2.563 1.277 -0.222 150 16 0
2.562 1.285 -0.221 150 16 0
2.5510001 1.288 -0.219 150 16 0
2.5480001 1.295 -0.219 150 16 0
2.55 1.304 -0.21799999 150 16 0
2.546 1.311 -0.21699999 150 16 0
2.543 1.318 -0.21600001 150 16 0
2.54 1.324 -0.215 150 16 0
2.5369999 1.331 -0.214 150 16 0
2.533 1.337 -0.213 150 16 0
2.5320001 1.344 -0.212 150 16 0
2.5280001 1.351 -0.211 150 16 0
2.5250001 1.357 -0.20900001 150 16 0
2.5220001 1.363 -0.208 150 16 0
2.5190001 1.37 -0.207 150 16 0
2.5150001 1.376 -0.205 150 16 0
2.5150001 1.383 -0.204 150 16 0
2.5090001 1.388 -0.20299999 150 16 0
2.506 1.3940001 -0.20100001 150 16 0
2.5020001 1.4 -0.2 150 16 0
2.503 1.408 -0.198 150 16 0
2.503 1.416 -0.197 150 16 0
2.5009999 1.4220001 -0.19499999 150 16 0
2.4990001 1.429 -0.19400001 150 16 0
2.4960001 1.434 -0.192 150 16 0
2.4909999 1.439 -0.19 150 16 0
2.49 1.446 -0.189 150 16 0
2.487 1.451 -0.18700001 150 16 0
2.4849999 1.457 -0.185 150 16 0
2.4790001 1.461 -0.183 150 16 0
2.4760001 1.466 -0.18099999 150 16 0
2.477 1.474 -0.18000001 150 16 0
2.474 1.48 -0.178 150 16 0
2.471 1.485 -0.176 150 16 0
2.4679999 1.49 -0.17399999 150 16 0
2.4649999 1.495 -0.17200001 150 16 0
2.4679999 1.5039999 -0.17 150 16 0
2.464 1.507 -0.168 150 16 0
2.461 1.512 -0.16500001 150 16 0
2.4560001 1.516 -0.163 150 16 0
2.461 1.526 -0.161 150 16 0
2.4590001 1.53 -0.15899999 150 16 0
2.454 1.534 -0.15700001 150 16 0
2.454 1.54 -0.154 150 16 0
2.451 1.545 -0.152 150 16 0
2.4489999 1.549 -0.15000001 150 16 0
2.4519999 1.557 -0.148 150 16 0
2.4489999 1.561 -0.145 150 16 0
2.444 1.564 -0.142 150 16 0
2.448 1.572 -0.14 150 16 0
2.447 1.577 -0.138 150 16 0
2.444 1.581 -0.13500001 150 16 0
2.4419999 1.585 -0.132 150 16 0
2.444 1.592 -0.13 150 16 0
2.437 1.5930001 -0.127 150 16 0
2.4400001 1.6 -0.125 150 16 0
2.4349999 1.602 -0.121 150 16 0
2.4360001 1.607 -0.119 150 16 0
2.4349999 1.6109999 -0.116 150 16 0
2.434 1.615 -0.113 150 16 0
2.4319999 1.619 -0.11 150 16 0
2.431 1.623 -0.108 150 16 0
2.4319999 1.628 -0.105 150 16 0
2.4319999 1.633 -0.102 150 16 0
2.428 1.6339999 -0.098999999 150 16 0
2.4289999 1.6390001 -0.096000001 150 16 0
2.427 1.642 -0.093000002 150 16 0
2.4260001 1.645 -0.090000004 150 16 0
2.428 1.65 -0.086999997 150 16 0
2.4260001 1.652 -0.083999999 150 16 0
2.425 1.655 -0.081 150 16 0
2.428 1.661 -0.078000002 150 16 0
2.424 1.661 -0.075000003 150 16 0
2.428 1.668 -0.071000002 150 16 0
2.4260001 1.67 -0.068000004 150 16 0
2.4230001 1.671 -0.064999998 150 16 0
2.427 1.676 -0.061999999 150 16 0
2.4289999 1.6799999 -0.059 150 16 0
2.425 1.6799999 -0.055 150 16 0
2.4230001 1.682 -0.052000001 150 16 0
2.428 1.687 -0.048999999 150 16 0
2.425 1.687 -0.046 150 16 0
2.4260001 1.6900001 -0.041999999 150 16 0
2.425 1.692 -0.039000001 150 16 0
2.4260001 1.694 -0.035999998 150 16 0
2.427 1.697 -0.032000002 150 16 0
2.428 1.699 -0.028999999 150 16 0
2.4300001 1.702 -0.026000001 146 16 0
2.428 1.702 -0.022 123 16 0
2.4289999 1.704 -0.018999999 88 16 0
2.4319999 1.707 -0.015 59 16 0
2.4349999 1.71 -0.012 44 16 0
2.4360001 1.712 -0.0089999996 42 16 0
2.4319999 1.71 -0.0049999999 38 16 0
2.4300001 1.709 -0.0020000001 38 16 0
2.438 1.715 0.001 41 16 0
2.438 1.716 0.0040000002 40 16 0
2.4349999 1.7130001 0.0080000004 42 16 0
2.437 1.715 0.011 45 16 0
2.4349999 1.7130001 0.015 45 16 0
2.437 1.715 0.017999999 47 16 0
2.441 1.717 0.021 60 16 0
2.441 1.717 0.025 60 16 0
2.444 1.7180001 0.028000001 72 16 0
2.444 1.717 0.032000002 81 16 0
2.4449999 1.717 0.035 79 16 0
2.447 1.7180001 0.039000001 78 16 0
2.4460001 1.715 0.041999999 71 16 0
2.4489999 1.716 0.046 67 16 0
2.454 1.7180001 0.048999999 60 16 0
2.451 1.715 0.052000001 61 16 0
2.4560001 1.716 0.056000002 49 16 0
2.461 1.7180001 0.059 49 16 0
2.4619999 1.717 0.063000001 45 16 0
2.464 1.716 0.066 41 16 0
2.4679999 1.717 0.07 41 16 0
2.4690001 1.715 0.072999999 41 16 0
2.4679999 1.712 0.075999998 39 16 0
2.471 1.712 0.079999998 43 16 0
2.474 1.711 0.082999997 44 16 0
2.471 1.705 0.086000003 51 16 0
2.4790001 1.7079999 0.090000004 72 16 0
2.4820001 1.707 0.093000002 97 16 0
2.4809999 1.7029999 0.096000001 126 16 0
2.4860001 1.7029999 0.1 136 16 0
2.4890001 1.702 0.103 147 16 0
2.4890001 1.698 0.106 134 16 0
2.4909999 1.696 0.109 142 16 0
2.494 1.694 0.112 145 16 0
2.4949999 1.6900001 0.115 139 16 0
2.503 1.692 0.119 139 16 0
2.5009999 1.686 0.122 150 16 0
2.506 1.6849999 0.125 150 16 0
2.5109999 1.684 0.12800001 141 16 0
2.513 1.681 0.131 147 16 0
2.5179999 1.679 0.134 150 16 0
2.517 1.674 0.13699999 149 16 0
2.52 1.671 0.14 145 16 0
2.5220001 1.6670001 0.14300001 146 16 0
2.5239999 1.663 0.146 145 16 0
2.53 1.6619999 0.149 150 16 0
2.529 1.656 0.15099999 137 16 0
2.5339999 1.654 0.154 132 16 0
2.5369999 1.65 0.15700001 139 16 0
2.539 1.646 0.16 140 16 0
2.546 1.645 0.163 133 16 0
2.5510001 1.642 0.16599999 150 16 0
2.5510001 1.636 0.168 140 16 0
2.5539999 1.632 0.171 142 16 0
2.5610001 1.631 0.17399999 150 16 0
2.5639999 1.626 0.176 139 16 0
2.5669999 1.6210001 0.17900001 150 16 0
2.5699999 1.617 0.18099999 148 16 0
2.5710001 1.6109999 0.184 150 16 0
2.572 1.605 0.186 149 16 0
2.5810001 1.604 0.189 145 16 0
2.5810001 1.597 0.191 144 16 0
2.585 1.5930001 0.193 142 16 0
2.5899999 1.589 0.19599999 150 16 0
2.5969999 1.586 0.198 150 16 0
2.599 1.58 0.2 150 16 0
2.599 1.574 0.20200001 150 16 0
2.602 1.568 0.204 150 16 0
2.6059999 1.563 0.207 150 16 0
2.612 1.559 0.20900001 150 16 0
2.6140001 1.553 0.211 150 16 0
2.618 1.548 0.213 150 16 0
2.6240001 1.544 0.215 150 16 0
2.6270001 1.538 0.21699999 148 16 0
2.632 1.533 0.219 149 16 0
2.6340001 1.526 0.221 150 16 0
2.638 1.521 0.223 150 16 0
2.641 1.515 0.22400001 150 16 0
2.6440001 1.508 0.226 150 16 0
2.6470001 1.502 0.228 150 16 0
2.652 1.4960001 0.229 150 16 0
2.655 1.49 0.23100001 150 16 0
2.658 1.484 0.23199999 150 16 0
2.6619999 1.478 0.234 150 16 0
2.6670001 1.472 0.236 150 16 0
2.6689999 1.465 0.237 150 16 0
2.6719999 1.4579999 0.23800001 150 16 0
2.677 1.4529999 0.23999999 150 16 0
2.681 1.446 0.241 150 16 0
2.6849999 1.4400001 0.242 150 16 0
2.6900001 1.434 0.244 150 16 0
2.691 1.426 0.245 150 16 0
2.697 1.42 0.24600001 131 16 0
2.7 1.413 0.24699999 112 16 0
2.704 1.406 0.248 51 16 0
2.701 1.396 0.249 39 16 0
2.711 1.392 0.25 98 16 0
2.717 1.386 0.25099999 150 16 0
2.7249999 1.381 0.25299999 150 16 0
2.7279999 1.374 0.25299999 150 16 0
2.724 1.363 0.25400001 150 16 0
2.7360001 1.36 0.255 150 16 0
2.74 1.353 0.25600001 150 16 0
2.7390001 1.3430001 0.25600001 150 16 0
2.747 1.3380001 0.257 150 16 0
2.75 1.331 0.25799999 150 16 0
2.7539999 1.323 0.25799999 150 16 0
2.7550001 1.314 0.259 150 16 0
2.7609999 1.308 0.25999999 150 16 0
2.767 1.302 0.25999999 150 16 0
2.7709999 1.294 0.26100001 150 16 0
2.7739999 1.286 0.26100001 150 16 0
2.7750001 1.277 0.26100001 138 16 0
2.7869999 1.273 0.26199999 150 16 0
2.7909999 1.265 0.26300001 140 16 0
2.79 1.256 0.26199999 114 16 0
2.7980001 1.25 0.26300001 106 16 0
2.802 1.242 0.26300001 88 16 0
2.806 1.234 0.26300001 68 16 0
2.8050001 1.225 0.26300001 67 16 0
2.813 1.2180001 0.26300001 66 16 0
2.816 1.21 0.26300001 62 16 0
2.819 1.202 0.26300001 66 16 0
2.826 1.1950001 0.264 69 16 0
2.826 1.186 0.26300001 69 16 0
2.8329999 1.179 0.26300001 91 16 0
2.8380001 1.171 0.26300001 99 16 0
2.8399999 1.163 0.26300001 111 16 0
2.8440001 1.154 0.26300001 131 16 0
2.848 1.146 0.26199999 139 16 0
2.849 1.137 0.26199999 136 16 0
2.8510001 1.128 0.26100001 128 16 0
2.859 1.122 0.26100001 149 16 0
2.8599999 1.113 0.26100001 131 16 0
2.868 1.1059999 0.26100001 141 16 0
2.872 1.097 0.25999999 140 16 0
2.8740001 1.089 0.25999999 143 16 0
2.878 1.08 0.259 150 16 0
2.882 1.072 0.259 139 16 0
2.885 1.063 0.25799999 132 16 0
2.8929999 1.056 0.25799999 150 16 0
2.8959999 1.048 0.257 150 16 0
2.8959999 1.038 0.25600001 135 16 0
2.9030001 1.031 0.255 145 16 0
2.905 1.022 0.25400001 150 16 0
2.9100001 1.013 0.25400001 150 16 0
2.915 1.005 0.25299999 150 16 0
2.9200001 0.99699998 0.252 150 16 0
2.9219999 0.98799998 0.25099999 150 16 0
2.931 0.98100001 0.25099999 150 16 0
2.928 0.97000003 0.249 150 16 0
2.9360001 0.963 0.248 146 16 0
2.9389999 0.954 0.24699999 136 16 0
2.947 0.94700003 0.24699999 136 16 0
2.9449999 0.93599999 0.245 139 16 0
2.9560001 0.93000001 0.245 121 16 0
2.9560001 0.92000002 0.243 119 16 0
2.9649999 0.912 0.242 103 16 0
2.967 0.903 0.241 104 16 0
2.9679999 0.89399999 0.23899999 93 16 0
2.971 0.88499999 0.23800001 71 16 0
2.9760001 0.87599999 0.237 68 16 0
2.9790001 0.86699998 0.235 68 16 0
2.9820001 0.85799998 0.234 48 16 0
2.9890001 0.85000002 0.233 48 16 0
2.9920001 0.84100002 0.23100001 46 16 0
2.994 0.83200002 0.23 46 16 0
2.9990001 0.82300001 0.228 48 16 0
3.0020001 0.81400001 0.227 46 16 0
3.0050001 0.80500001 0.22499999 45 16 0
3.0109999 0.796 0.22400001 45 16 0
3.0139999 0.787 0.222 45 16 0
3.016 0.778 0.22 46 16 0
3.0209999 0.76899999 0.219 47 16 0
3.03 0.76200002 0.21699999 46 16 0
3.027 0.75099999 0.215 46 16 0
3.03 0.74199998 0.213 46 16 0
3.0380001 0.73400003 0.212 50 16 0
3.04 0.72399998 0.20999999 51 16 0
3.0439999 0.71499997 0.208 53 16 0
3.0550001 0.708 0.207 65 16 0
3.053 0.69700003 0.205 60 16 0
3.059 0.68900001 0.20299999 71 16 0
3.0669999 0.68099999 0.20100001 72 16 0
3.0699999 0.671 0.199 64 16 0
3.075 0.662 0.197 67 16 0
3.0780001 0.653 0.19499999 74 16 0
3.0799999 0.64300001 0.193 76 16 0
3.0880001 0.63499999 0.191 75 16 0
3.092 0.62599999 0.189 95 16 0
3.096 0.61699998 0.18700001 88 16 0
3.1010001 0.60799998 0.185 105 16 0
3.109 0.59899998 0.183 117 16 0
3.1059999 0.58899999 0.18000001 122 16 0
3.1159999 0.57999998 0.178 111 16 0
3.119 0.57099998 0.176 127 16 0
3.1170001 0.56099999 0.17299999 120 16 0
3.1259999 0.55199999 0.171 132 16 0
3.1300001 0.54299998 0.169 132 16 0
3.1300001 0.53299999 0.167 125 16 0
3.135 0.52399999 0.164 125 16 0
3.142 0.51499999 0.162 137 16 0
3.141 0.505 0.15899999 139 16 0
3.151 0.49599999 0.15700001 118 16 0
3.154 0.48699999 0.155 119 16 0
3.151 0.47600001 0.152 104 16 0
3.161 0.46799999 0.15000001 102 16 0
3.1659999 0.45899999 0.147 88 16 0
3.165 0.44800001 0.14399999 85 16 0
3.1700001 0.43900001 0.142 70 16 0
3.1789999 0.43000001 0.139 86 16 0
3.178 0.41999999 0.13600001 78 16 0
3.1819999 0.41100001 0.134 67 16 0
3.188 0.40099999 0.131 80 16 0
3.1949999 0.39199999 0.12899999 75 16 0
3.2 0.38299999 0.126 83 16 0
3.2019999 0.373 0.123 62 16 0
3.177 0.36000001 0.119 24 16 0
3.1429999 0.347 0.115 48 16 0
3.142 0.33700001 0.112 90 16 0
3.1470001 0.32699999 0.109 102 16 0
3.1530001 0.31799999 0.106 94 16 0
3.1559999 0.308 0.103 113 16 0
3.1570001 0.29899999 0.101 92 16 0
3.1600001 0.289 0.097999997 92 16 0
3.1689999 0.28 0.094999999 96 16 0
3.1670001 0.27000001 0.092 74 16 0
3.1730001 0.26100001 0.089000002 84 16 0
3.1819999 0.252 0.086000003 82 16 0
3.1789999 0.242 0.082999997 87 16 0
3.1849999 0.23199999 0.079999998 82 16 0
3.1860001 0.222 0.075999998 89 16 0
3.187 0.213 0.072999999 83 16 0
3.1960001 0.20299999 0.07 87 16 0
3.1989999 0.19400001 0.067000002 79 16 0
3.2060001 0.184 0.064000003 81 16 0
3.2060001 0.17399999 0.061000001 76 16 0
3.2179999 0.16500001 0.057999998 89 16 0
3.211 0.155 0.054000001 78 16 0
3.2179999 0.145 0.050999999 76 16 0
3.2279999 0.13600001 0.048 78 16 0
3.2679999 0.12800001 0.045000002 69 19 0
3.2969999 0.119 0.041999999 65 16 0
3.2980001 0.108 0.037999999 67 16 0
3.3010001 0.097999997 0.035 59 16 0
3.312 0.089000002 0.032000002 56 16 0
3.312 0.079000004 0.028000001 58 16 0
3.313 0.068000004 0.024 59 16 0
3.325 0.059 0.021 42 16 0
3.3210001 0.048 0.017000001 49 16 0
3.325 0.037999999 0.014 57 16 0
3.3299999 0.028000001 0.0099999998 43 16 0
3.3199999 0.017999999 0.0060000001 21 16 0
3.2909999 0.0080000004 0.003 18 16 0
3.276 -0.001 0 17 16 0
3.247 -0.011 -0.0040000002 22 16 0
3.2390001 -0.021 -0.0070000002 69 16 0
3.2449999 -0.030999999 -0.011 131 16 0
3.256 -0.041000001 -0.015 150 16 0
3.253 -0.050999999 -0.018999999 139 16 0
3.2579999 -0.061000001 -0.022 150 16 0
3.256 -0.07 -0.026000001 70 16 0
3.233 -0.079999998 -0.029999999 28 16 0
3.2119999 -0.089000002 -0.033 27 16 0
3.1930001 -0.097999997 -0.037 27 16 0
3.1689999 -0.107 -0.039999999 27 16 0
3.1459999 -0.116 -0.044 27 16 0
3.128 -0.124 -0.046999998 26 16 0
3.108 -0.133 -0.050000001 26 16 0
3.086 -0.141 -0.054000001 25 16 0
3.063 -0.149 -0.057 26 16 0
3.0409999 -0.15800001 -0.059999999 27 16 0
3.026 -0.16599999 -0.064000003 27 16 0
3.0020001 -0.17399999 -0.067000002 27 16 0
2.98 -0.18099999 -0.07 26 16 0
2.9630001 -0.189 -0.072999999 26 16 0
2.9460001 -0.197 -0.075999998 27 16 0
2.9219999 -0.204 -0.079000004 27 16 0
2.9059999 -0.212 -0.082999997 27 16 0
2.888 -0.219 -0.086000003 27 16 0
2.872 -0.226 -0.089000002 27 16 0
2.848 -0.233 -0.092 28 16 0
2.8369999 -0.241 -0.094999999 27 16 0
2.8199999 -0.24699999 -0.097999997 29 16 0
2.802 -0.25400001 -0.101 28 16 0
2.786 -0.26100001 -0.104 28 16 0
2.7690001 -0.26800001 -0.107 28 16 0
2.7539999 -0.27500001 -0.11 28 16 0
2.7390001 -0.28099999 -0.113 28 16 0
2.7249999 -0.28799999 -0.116 29 16 0
2.7149999 -0.29499999 -0.119 30 16 0
2.6960001 -0.301 -0.122 31 16 0
2.6789999 -0.30700001 -0.124 28 16 0
2.6630001 -0.31299999 -0.127 29 16 0
2.6489999 -0.31999999 -0.13 30 16 0
2.638 -0.32600001 -0.133 30 16 0
2.618 -0.331 -0.13600001 30 16 0
2.602 -0.33700001 -0.138 31 16 0
2.5940001 -0.34400001 -0.142 29 16 0
2.5810001 -0.34999999 -0.14399999 30 16 0
2.5639999 -0.35499999 -0.147 31 16 0
2.5439999 -0.36000001 -0.149 29 16 0
2.5369999 -0.366 -0.152 31 16 0
2.5250001 -0.37200001 -0.155 31 16 0
2.5090001 -0.377 -0.15800001 33 16 0
2.497 -0.38299999 -0.161 30 16 0
2.487 -0.389 -0.163 33 16 0
2.467 -0.39300001 -0.16599999 30 16 0
2.46 -0.39899999 -0.169 31 16 0
2.4489999 -0.405 -0.17200001 37 16 0
2.431 -0.40900001 -0.17399999 34 16 0
2.4219999 -0.41499999 -0.177 40 16 0
2.4089999 -0.419 -0.17900001 40 16 0
2.3940001 -0.42399999 -0.182 33 16 0
2.3829999 -0.42899999 -0.184 34 16 0
2.372 -0.43399999 -0.18700001 29 16 0
2.358 -0.43900001 -0.189 36 16 0
2.348 -0.44400001 -0.192 42 16 0
2.3340001 -0.44800001 -0.19400001 32 16 0
2.325 -0.45300001 -0.197 39 16 0
2.3169999 -0.458 -0.2 36 16 0
2.3039999 -0.46200001 -0.20200001 35 16 0
2.2869999 -0.46599999 -0.204 44 16 0
2.277 -0.47099999 -0.207 44 16 0
2.2720001 -0.47600001 -0.20999999 42 16 0
2.26 -0.47999999 -0.213 40 16 0
2.25 -0.48500001 -0.215 38 16 0
2.2390001 -0.48899999 -0.21799999 55 16 0
2.2260001 -0.493 -0.22 59 16 0
2.2149999 -0.49700001 -0.222 72 16 0
2.2079999 -0.50199997 -0.22499999 63 16 0
2.194 -0.505 -0.227 73 16 0
2.1889999 -0.50999999 -0.23 77 16 0
2.177 -0.514 -0.233 77 16 0
2.1589999 -0.51599997 -0.234 76 16 0
2.1500001 -0.51999998 -0.237 74 16 0
2.141 -0.52399999 -0.23899999 78 16 0
2.131 -0.528 -0.242 67 16 0
2.122 -0.53200001 -0.244 74 16 0
2.112 -0.53500003 -0.24600001 75 16 0
2.1010001 -0.53899997 -0.249 77 16 0
2.0910001 -0.542 -0.25099999 77 16 0
2.085 -0.54699999 -0.25400001 82 16 0
2.0780001 -0.551 -0.257 85 16 0
2.0639999 -0.55299997 -0.25799999 75 16 0
2.0580001 -0.55800003 -0.26100001 87 16 0
2.049 -0.56099999 -0.264 79 16 0
2.039 -0.56400001 -0.266 101 16 0
2.0339999 -0.56900001 -0.26899999 84 16 0
2.0220001 -0.57099998 -0.271 88 16 0
2.0150001 -0.57499999 -0.273 94 16 0
2.0020001 -0.57700002 -0.27500001 93 16 0
1.995 -0.58099997 -0.278 84 16 0
1.9859999 -0.58399999 -0.28 94 16 0
1.982 -0.588 -0.28299999 97 16 0
1.971 -0.59100002 -0.285 88 16 0
1.961 -0.59399998 -0.287 95 16 0
1.956 -0.59799999 -0.28999999 94 16 0
1.9450001 -0.60000002 -0.292 81 16 0
1.943 -0.60500002 -0.29499999 92 16 0
1.9220001 -0.60399997 -0.296 96 19 0
1.9170001 -0.60799998 -0.29800001 94 16 0
1.913 -0.61199999 -0.301 93 16 0
1.908 -0.616 -0.30399999 102 16 0
1.898 -0.61799997 -0.30599999 92 16 0
1.892 -0.62099999 -0.30899999 107 16 0
1.886 -0.625 -0.31099999 96 16 0
1.877 -0.62699997 -0.31400001 92 16 0
1.873 -0.63099998 -0.31600001 105 16 0
1.86 -0.63200003 -0.31799999 107 16 0
1.852 -0.634 -0.31999999 114 16 0
1.848 -0.63800001 -0.32300001 110 16 0
1.844 -0.64099997 -0.32600001 116 16 0
1.839 -0.64499998 -0.329 118 16 0
1.824 -0.64499998 -0.33000001 108 16 0
1.821 -0.64899999 -0.333 121 16 0
1.811 -0.64999998 -0.33500001 103 16 0
1.8049999 -0.653 -0.33700001 102 16 0
1.796 -0.65399998 -0.33899999 106 16 0
1.794 -0.65899998 -0.34200001 115 16 0
1.789 -0.662 -0.345 112 16 0
1.784 -0.66500002 -0.34799999 119 16 0
1.771 -0.66500002 -0.34900001 105 16 0
1.7690001 -0.66900003 -0.352 117 16 0
1.756 -0.66900003 -0.35299999 116 16 0
1.7539999 -0.67299998 -0.35600001 105 16 0
1.747 -0.67400002 -0.359 132 16 0
1.742 -0.67699999 -0.361 135 16 0
1.738 -0.68000001 -0.36399999 121 16 0
1.7309999 -0.68199998 -0.366 133 16 0
1.723 -0.68400002 -0.368 118 16 0
1.72 -0.68699998 -0.37099999 150 16 0
1.715 -0.69 -0.37400001 150 16 0
1.7079999 -0.69099998 -0.37599999 150 16 0
1.705 -0.69400001 -0.37900001 150 16 0
1.694 -0.69400001 -0.38 150 16 0
1.692 -0.69800001 -0.384 150 16 0
1.6900001 -0.70099998 -0.38699999 150 16 0
1.678 -0.70099998 -0.38800001 150 16 0
1.673 -0.70300001 -0.38999999 1 0 0
