# .PCD v0.7 - Point Cloud Data file format
VERSION 0.7
FIELDS x y z intensity tag line
SIZE 4 4 4 4 1 1
TYPE F F F F U U
COUNT 1 1 1 1 1 1
WIDTH 1364
HEIGHT 1
VIEWPOINT 0 0 0 1 0 0 0
POINTS 1364
DATA ascii
2.905 -0.24600001 0.107 32 16 0
2.8900001 -0.25400001 0.11 33 16 0
2.8740001 -0.26100001 0.113 33 16 0
2.858 -0.26800001 0.116 32 16 0
2.8440001 -0.27599999 0.118 32 16 0
2.832 -0.28299999 0.121 33 16 0
2.809 -0.289 0.124 33 16 0
2.803 -0.29699999 0.127 35 16 0
2.7909999 -0.30399999 0.13 37 16 0
2.773 -0.31099999 0.132 36 16 0
2.76 -0.31799999 0.13500001 35 16 0
2.7409999 -0.324 0.13699999 38 16 0
2.7290001 -0.331 0.139 34 16 0
2.7219999 -0.338 0.142 38 16 0
2.711 -0.345 0.145 38 16 0
2.701 -0.352 0.147 39 16 0
2.681 -0.35800001 0.149 36 16 0
2.6689999 -0.36500001 0.152 43 16 0
2.6530001 -0.37099999 0.154 38 16 0
2.6340001 -0.37599999 0.156 43 16 0
2.6289999 -0.38299999 0.15800001 47 16 0
2.612 -0.389 0.16 44 16 0
2.5999999 -0.39500001 0.162 52 16 0
2.5869999 -0.40099999 0.164 52 16 0
2.5710001 -0.40700001 0.16599999 49 16 0
2.566 -0.414 0.169 52 16 0
2.552 -0.41999999 0.171 66 16 0
2.533 -0.42399999 0.17200001 63 16 0
2.5220001 -0.43000001 0.17399999 68 16 0
2.5079999 -0.43599999 0.176 73 16 0
2.4990001 -0.442 0.178 81 16 0
2.484 -0.447 0.17900001 72 16 0
2.4749999 -0.45300001 0.18099999 76 16 0
2.4590001 -0.458 0.183 83 16 0
2.454 -0.465 0.185 83 16 0
2.4449999 -0.47099999 0.18700001 82 16 0
2.4330001 -0.47600001 0.18799999 79 16 0
2.4219999 -0.48199999 0.19 76 16 0
2.4100001 -0.48699999 0.191 77 16 0
2.3929999 -0.491 0.192 80 16 0
2.385 -0.49700001 0.19400001 84 16 0
2.375 -0.50300002 0.19599999 89 16 0
2.3599999 -0.50700003 0.197 89 16 0
2.3510001 -0.51200002 0.198 87 16 0
2.3399999 -0.51800001 0.2 79 16 0
2.3239999 -0.52100003 0.20100001 82 16 0
2.3169999 -0.52700001 0.20200001 90 16 0
2.3039999 -0.53200001 0.20299999 89 16 0
2.296 -0.537 0.205 88 16 0
2.2850001 -0.542 0.206 95 16 0
2.2739999 -0.54699999 0.207 89 16 0
2.26 -0.551 0.208 90 16 0
2.2520001 -0.55599999 0.20900001 89 16 0
2.244 -0.56099999 0.211 96 16 0
2.2309999 -0.565 0.211 98 16 0
2.227 -0.57099998 0.213 103 16 0
2.2160001 -0.57599998 0.214 110 16 0
2.2030001 -0.579 0.215 107 16 0
2.194 -0.58399999 0.21600001 107 16 0
2.1800001 -0.588 0.21600001 106 16 0
2.174 -0.59299999 0.21799999 100 16 0
2.168 -0.59799999 0.219 105 16 0
2.154 -0.602 0.219 109 16 0
2.1489999 -0.60699999 0.22 111 16 0
2.141 -0.61199999 0.221 117 16 0
2.1199999 -0.61299998 0.221 102 19 0
2.1140001 -0.61799997 0.222 123 16 0
2.105 -0.62199998 0.223 122 16 0
2.0940001 -0.62599999 0.223 128 16 0
2.089 -0.63200003 0.22400001 133 16 0
2.0769999 -0.63499999 0.22499999 133 16 0
2.0680001 -0.639 0.22499999 134 16 0
2.0610001 -0.64399999 0.226 127 16 0
2.05 -0.64700001 0.226 140 16 0
2.0450001 -0.65200001 0.227 117 16 0
2.0350001 -0.65600002 0.228 150 16 0
2.0239999 -0.65899998 0.228 150 16 0
2.0150001 -0.662 0.228 150 16 0
2.0090001 -0.667 0.229 150 16 0
1.998 -0.67000002 0.229 150 16 0
1.99 -0.67400002 0.23 150 16 0
1.985 -0.67900002 0.23 150 16 0
1.978 -0.68300003 0.23100001 150 16 0
1.965 -0.685 0.23100001 150 16 0
1.959 -0.69 0.23100001 150 16 0
1.947 -0.69199997 0.23100001 150 16 0
1.938 -0.69499999 0.23100001 150 16 0
1.932 -0.69999999 0.23199999 150 16 0
1.927 -0.704 0.23199999 150 16 0
1.914 -0.70599997 0.23199999 2 0 0
1.905 -0.70899999 0.23199999 150 16 0
1.901 -0.71399999 0.233 150 16 0
1.893 -0.71700001 0.233 150 16 0
1.8890001 -0.722 0.233 3 0 0
1.8789999 -0.72500002 0.233 150 16 0
1.8710001 -0.72799999 0.233 150 16 0
1.862 -0.73100001 0.233 150 16 0
1.8559999 -0.73500001 0.233 150 16 0
1.846 -0.73699999 0.233 2 0 0
1.839 -0.74000001 0.233 5 0 0
1.832 -0.74299997 0.23199999 150 16 0
1.827 -0.74800003 0.233 2 0 0
1.822 -0.75199997 0.233 150 16 0
1.816 -0.755 0.233 150 16 0
1.804 -0.75700003 0.23199999 150 16 0
1.795 -0.759 0.23199999 150 16 0
1.79 -0.76300001 0.23199999 150 16 0
1.784 -0.76599997 0.23199999 2 0 0
1.774 -0.76800001 0.23100001 2 0 0
1.77 -0.77200001 0.23100001 2 0 0
1.76 -0.77399999 0.23 3 0 0
1.757 -0.778 0.23100001 4 0 0
1.7460001 -0.77899998 0.23 3 0 0
1.742 -0.78299999 0.23 4 0 0
1.7359999 -0.78600001 0.229 59 0 0
1.728 -0.78899997 0.229 2 0 0
1.721 -0.792 0.228 150 16 0
1.716 -0.79500002 0.228 2 0 0
1.707 -0.796 0.227 121 0 0
1.7029999 -0.80000001 0.227 120 0 0
1.7 -0.80400002 0.227 142 0 0
1.692 -0.80599999 0.226 150 0 0
1.687 -0.81 0.226 128 0 0
1.674 -0.80900002 0.22400001 118 0 0
1.67 -0.81199998 0.22400001 150 0 0
1.661 -0.81400001 0.223 104 0 0
1.656 -0.81599998 0.222 106 0 0
1.651 -0.81999999 0.222 150 0 0
1.643 -0.82099998 0.221 150 0 0
1.641 -0.82599998 0.221 149 0 0
1.6339999 -0.82700002 0.22 123 0 0
1.632 -0.83099997 0.219 126 0 0
1.626 -0.83399999 0.219 143 0 0
1.617 -0.83399999 0.21699999 145 0 0
1.61 -0.83600003 0.21699999 112 0 0
1.601 -0.83700001 0.215 128 0 0
1.599 -0.84100002 0.215 150 0 0
1.592 -0.84200001 0.214 150 0 0
1.59 -0.84600002 0.213 145 0 0
1.581 -0.847 0.212 150 0 0
1.571 -0.84600002 0.20999999 150 0 0
1.567 -0.84899998 0.20999999 136 0 0
1.564 -0.852 0.20900001 150 0 0
1.5599999 -0.85500002 0.208 150 0 0
1.557 -0.85799998 0.207 144 0 0
1.55 -0.85900003 0.206 136 0 0
1.548 -0.86299998 0.206 150 0 0
1.546 -0.866 0.205 149 0 0
1.539 -0.86699998 0.20299999 150 16 0
1.535 -0.86900002 0.20200001 143 0 0
1.529 -0.87099999 0.20100001 150 0 0
1.531 -0.87599999 0.20100001 150 0 0
1.52 -0.875 0.199 150 0 0
1.52 -0.87900001 0.198 149 0 0
1.5089999 -0.87699997 0.19599999 150 0 0
1.507 -0.88099998 0.19499999 119 0 0
1.503 -0.88200003 0.19400001 148 0 0
1.501 -0.88599998 0.193 142 0 0
1.492 -0.88499999 0.192 139 0 0
1.49 -0.88800001 0.191 150 0 0
1.484 -0.889 0.189 150 0 0
1.479 -0.88999999 0.18799999 150 0 0
1.477 -0.89300001 0.18700001 150 0 0
1.476 -0.89600003 0.186 150 0 0
1.466 -0.89399999 0.183 141 3 0
1.462 -0.89499998 0.182 142 0 0
1.46 -0.898 0.18099999 133 0 0
1.456 -0.89999998 0.18000001 150 0 0
1.452 -0.90100002 0.178 117 0 0
1.447 -0.90100002 0.177 150 0 0
1.446 -0.90399998 0.175 147 0 0
1.438 -0.903 0.17299999 150 0 0
1.439 -0.90700001 0.17200001 150 0 0
1.434 -0.90700001 0.171 149 0 0
1.4299999 -0.90799999 0.169 150 0 0
1.428 -0.91100001 0.168 150 0 0
1.424 -0.912 0.16599999 150 0 0
1.42 -0.912 0.16500001 130 0 0
1.416 -0.91299999 0.163 148 0 0
1.413 -0.91399997 0.161 150 0 0
1.411 -0.91600001 0.16 143 0 0
1.409 -0.917 0.15800001 142 0 0
1.405 -0.91799998 0.15700001 150 0 0
1.402 -0.91900003 0.155 150 0 0
1.397 -0.91900003 0.153 135 0 0
1.396 -0.921 0.152 150 0 0
1.395 -0.92299998 0.15000001 150 0 0
1.39 -0.92199999 0.148 136 0 0
1.385 -0.92199999 0.146 150 0 0
1.3839999 -0.92299998 0.145 129 0 0
1.382 -0.92400002 0.14300001 150 0 0
1.382 -0.92699999 0.142 140 0 0
1.38 -0.92799997 0.14 99 0 0
1.377 -0.92799997 0.138 150 0 0
1.376 -0.93000001 0.13699999 121 0 0
1.369 -0.92699999 0.134 114 3 0
1.368 -0.92799997 0.133 140 0 0
1.367 -0.93000001 0.131 148 0 0
1.364 -0.93000001 0.12899999 137 0 0
1.363 -0.93099999 0.12800001 150 0 0
1.362 -0.93199998 0.126 137 0 0
1.3559999 -0.93000001 0.124 150 3 0
1.36 -0.93400002 0.122 150 0 0
1.355 -0.93199998 0.12 124 0 0
1.353 -0.93199998 0.118 132 0 0
1.352 -0.93400002 0.117 131 0 0
1.352 -0.935 0.115 147 0 0
1.351 -0.93599999 0.113 118 0 0
1.348 -0.935 0.111 124 0 0
1.35 -0.93699998 0.109 133 0 0
1.347 -0.93599999 0.107 126 0 0
1.349 -0.93900001 0.106 135 0 0
1.347 -0.93800002 0.104 122 0 0
1.345 -0.93699998 0.102 140 0 0
1.344 -0.93800002 0.1 109 0 0
1.3430001 -0.93800002 0.097999997 133 0 0
1.344 -0.93900001 0.096000001 105 0 0
1.3430001 -0.93900001 0.093999997 106 0 0
1.339 -0.93699998 0.092 138 0 0
1.342 -0.94 0.090999998 150 0 0
1.342 -0.94 0.089000002 126 0 0
1.3380001 -0.93800002 0.086999997 128 0 0
1.3380001 -0.93800002 0.085000001 134 0 0
1.3380001 -0.93800002 0.082999997 107 0 0
1.3380001 -0.93800002 0.081 123 0 0
1.3380001 -0.93800002 0.079000004 94 0 0
1.3380001 -0.93800002 0.077 121 0 0
1.339 -0.93800002 0.075000003 109 0 0
1.3380001 -0.93699998 0.072999999 143 0 0
1.339 -0.93800002 0.071999997 114 0 0
1.336 -0.935 0.068999998 135 0 0
1.339 -0.93699998 0.068000004 93 0 0
1.34 -0.93699998 0.066 111 0 0
1.3380001 -0.935 0.064000003 123 0 0
1.342 -0.93699998 0.061999999 147 0 0
1.34 -0.935 0.059999999 95 0 0
1.34 -0.935 0.057999998 150 0 0
1.341 -0.93400002 0.056000002 116 0 0
1.341 -0.93400002 0.054000001 124 0 0
1.34 -0.93199998 0.052000001 137 0 0
1.341 -0.93099999 0.050000001 141 0 0
1.339 -0.92900002 0.048 150 0 0
1.3380001 -0.92699999 0.046 87 0 0
1.348 -0.93199998 0.045000002 138 2 0
1.345 -0.92900002 0.043000001 115 0 0
1.346 -0.92799997 0.041000001 146 0 0
1.347 -0.92699999 0.039000001 132 0 0
1.352 -0.92900002 0.037 150 0 0
1.349 -0.926 0.035 123 0 0
1.349 -0.92400002 0.033 150 0 0
1.352 -0.92400002 0.032000002 143 0 0
1.351 -0.921 0.029999999 149 0 0
1.352 -0.92000002 0.028000001 118 0 0
1.358 -0.92199999 0.026000001 103 0 0
1.354 -0.917 0.024 150 0 0
1.359 -0.91900003 0.023 150 0 0
1.3609999 -0.91799998 0.021 136 0 0
1.362 -0.91600001 0.018999999 127 0 0
1.364 -0.91500002 0.017000001 100 0 0
1.365 -0.91399997 0.015 114 0 0
1.367 -0.91299999 0.014 145 0 0
1.369 -0.91100001 0.012 147 0 0
1.372 -0.91100001 0.0099999998 131 0 0
1.372 -0.90799999 0.0080000004 150 0 0
1.373 -0.90700001 0.0070000002 126 0 0
1.376 -0.90600002 0.0049999999 150 0 0
1.376 -0.903 0.003 118 0 0
1.3789999 -0.90200001 0.001 123 0 0
1.381 -0.89999998 0 145 0 0
1.382 -0.898 -0.001 132 0 0
1.383 -0.89600003 -0.003 116 0 0
1.39 -0.89700001 -0.0040000002 111 0 0
1.391 -0.89499998 -0.0060000001 143 0 0
1.3940001 -0.89300001 -0.0080000004 125 0 0
1.397 -0.89200002 -0.0089999996 129 0 0
1.399 -0.88999999 -0.011 139 0 0
1.402 -0.889 -0.012 136 0 0
1.404 -0.88599998 -0.014 140 0 0
1.41 -0.88700002 -0.016000001 138 0 0
1.413 -0.88499999 -0.017000001 146 0 0
1.414 -0.88300002 -0.018999999 127 0 0
1.419 -0.88200003 -0.02 130 0 0
1.421 -0.87900001 -0.022 126 0 0
1.425 -0.87800002 -0.023 150 0 0
1.424 -0.87400001 -0.025 148 0 0
1.429 -0.87300003 -0.026000001 131 0 0
1.4349999 -0.87300003 -0.028000001 134 0 0
1.436 -0.87 -0.028999999 138 0 0
1.439 -0.86699998 -0.030999999 130 0 0
1.4450001 -0.86699998 -0.032000002 136 0 0
1.449 -0.86500001 -0.034000002 103 0 0
1.451 -0.86199999 -0.035 150 0 0
1.454 -0.86000001 -0.037 129 0 0
1.456 -0.85699999 -0.037999999 131 0 0
1.46 -0.85500002 -0.039000001 128 0 0
1.4680001 -0.85500002 -0.041000001 150 0 0
1.47 -0.852 -0.041999999 150 0 0
1.47 -0.84899998 -0.043000001 101 0 0
1.476 -0.847 -0.045000002 150 0 0
1.483 -0.847 -0.046 129 0 0
1.4859999 -0.84399998 -0.046999998 133 0 0
1.489 -0.84100002 -0.048999999 150 0 0
1.4910001 -0.838 -0.050000001 139 0 0
1.501 -0.83899999 -0.050999999 136 0 0
1.506 -0.83700001 -0.052999999 128 0 0
1.51 -0.83499998 -0.054000001 110 0 0
1.513 -0.83200002 -0.055 81 0 0
1.515 -0.82800001 -0.056000002 101 0 0
1.5190001 -0.82499999 -0.057 113 0 0
1.525 -0.824 -0.057999998 136 0 0
1.5319999 -0.82300001 -0.059999999 125 0 0
1.536 -0.81999999 -0.061000001 102 0 0
1.538 -0.81599998 -0.061999999 100 0 0
1.546 -0.81599998 -0.063000001 113 0 0
1.548 -0.81199998 -0.064000003 82 0 0
1.559 -0.81199998 -0.064999998 106 0 0
1.563 -0.80900002 -0.066 98 0 0
1.5650001 -0.80500001 -0.067000002 90 0 0
1.571 -0.80299997 -0.068000004 89 0 0
1.5779999 -0.80199999 -0.068999998 81 0 0
1.585 -0.80000001 -0.071000002 105 0 0
1.59 -0.79699999 -0.071000002 99 0 0
1.592 -0.79299998 -0.071999997 86 0 0
1.598 -0.79100001 -0.072999999 102 0 0
1.602 -0.787 -0.074000001 121 0 0
1.605 -0.78399998 -0.075000003 82 0 0
1.609 -0.77999997 -0.075999998 85 0 0
1.614 -0.77700001 -0.077 99 0 0
1.628 -0.77899998 -0.078000002 70 0 0
1.6289999 -0.77399999 -0.079000004 81 0 0
1.638 -0.77200001 -0.079999998 86 0 0
1.65 -0.77200001 -0.081 150 16 0
1.653 -0.76800001 -0.081 1 0 0
1.6569999 -0.76499999 -0.082000002 150 16 0
1.663 -0.76200002 -0.082999997 1 0 0
1.675 -0.76200002 -0.083999999 150 16 0
1.677 -0.75700003 -0.085000001 150 16 0
1.684 -0.75400001 -0.085000001 150 16 0
1.689 -0.75099999 -0.086000003 109 0 0
1.696 -0.74900001 -0.086999997 83 0 0
1.704 -0.74599999 -0.088 150 16 0
1.709 -0.74199998 -0.088 54 0 0
1.715 -0.73900002 -0.089000002 82 0 0
1.723 -0.73699999 -0.090000004 51 0 0
1.73 -0.73400003 -0.090000004 53 0 0
1.733 -0.72899997 -0.090999998 51 0 0
1.7460001 -0.72899997 -0.092 65 0 0
1.7539999 -0.72600001 -0.092 41 0 0
1.762 -0.72399998 -0.093000002 55 0 0
1.765 -0.71899998 -0.093000002 49 0 0
1.766 -0.713 -0.093000002 51 0 0
1.778 -0.71200001 -0.093999997 43 0 0
1.781 -0.70700002 -0.093999997 33 0 0
1.793 -0.70599997 -0.094999999 42 0 0
1.801 -0.70300001 -0.096000001 38 0 0
1.8049999 -0.69800001 -0.096000001 39 0 0
1.818 -0.69700003 -0.097000003 1 0 0
1.8200001 -0.69099998 -0.097000003 2 0 0
1.829 -0.68800002 -0.097000003 1 0 0
1.842 -0.68699998 -0.097999997 2 0 0
1.842 -0.68099999 -0.097999997 150 16 0
1.855 -0.68000001 -0.098999999 2 0 0
1.86 -0.67500001 -0.098999999 1 0 0
1.867 -0.671 -0.098999999 150 16 0
1.878 -0.66900003 -0.1 147 16 0
1.8839999 -0.66399997 -0.1 150 16 0
1.891 -0.66000003 -0.1 145 16 0
1.903 -0.65799999 -0.1 150 16 0
1.9119999 -0.65499997 -0.101 145 16 0
1.915 -0.64899999 -0.101 144 16 0
1.921 -0.64499998 -0.101 145 16 0
1.928 -0.64099997 -0.101 131 16 0
1.936 -0.63700002 -0.101 133 16 0
1.9529999 -0.63599998 -0.102 133 16 0
1.962 -0.63200003 -0.102 130 16 0
1.966 -0.62699997 -0.102 131 16 0
1.975 -0.62300003 -0.102 133 16 0
1.988 -0.62 -0.102 143 16 0
1.9960001 -0.616 -0.102 121 16 0
2.006 -0.61199999 -0.102 119 16 0
2.0109999 -0.60699999 -0.102 116 16 0
2.0179999 -0.602 -0.102 119 16 0
2.029 -0.59899998 -0.102 116 16 0
2.0380001 -0.59399998 -0.102 109 16 0
2.0510001 -0.59100002 -0.102 107 16 0
2.056 -0.58600003 -0.102 108 16 0
2.073 -0.58399999 -0.102 114 16 0
2.082 -0.579 -0.102 104 16 0
2.0869999 -0.574 -0.102 102 16 0
2.099 -0.56999999 -0.102 101 16 0
2.1070001 -0.565 -0.101 95 16 0
2.1199999 -0.56099999 -0.101 99 16 0
2.1289999 -0.55699998 -0.101 92 16 0
2.1400001 -0.55199999 -0.101 85 16 0
2.148 -0.54699999 -0.101 92 16 0
2.155 -0.542 -0.1 75 16 0
2.1670001 -0.53799999 -0.1 72 16 0
2.1900001 -0.53600001 -0.1 74 16 0
2.197 -0.53100002 -0.1 72 16 0
2.207 -0.52600002 -0.098999999 67 16 0
2.223 -0.52200001 -0.098999999 70 16 0
2.234 -0.51700002 -0.098999999 64 16 0
2.2409999 -0.51099998 -0.097999997 55 16 0
2.2509999 -0.50599998 -0.097999997 59 16 0
2.267 -0.50199997 -0.097999997 59 16 0
2.2720001 -0.49599999 -0.097000003 60 16 0
2.2839999 -0.491 -0.096000001 59 16 0
2.3 -0.48699999 -0.096000001 58 16 0
2.3110001 -0.48199999 -0.096000001 55 16 0
2.323 -0.47600001 -0.094999999 58 16 0
2.332 -0.47099999 -0.093999997 54 16 0
2.345 -0.46599999 -0.093999997 51 16 0
2.3599999 -0.461 -0.093000002 50 16 0
2.3699999 -0.45500001 -0.093000002 44 16 0
2.382 -0.44999999 -0.092 55 16 0
2.3959999 -0.44400001 -0.090999998 52 16 0
2.414 -0.44 -0.090999998 52 16 0
2.425 -0.43399999 -0.090000004 62 16 0
2.4389999 -0.42899999 -0.089000002 57 16 0
2.45 -0.42199999 -0.088 50 16 0
2.4619999 -0.417 -0.088 47 16 0
2.4749999 -0.41100001 -0.086999997 41 16 0
2.4909999 -0.405 -0.086000003 50 16 0
2.5020001 -0.39899999 -0.085000001 37 16 0
2.5179999 -0.39300001 -0.083999999 37 16 0
2.53 -0.38699999 -0.082999997 42 16 0
2.5439999 -0.38100001 -0.082000002 37 16 0
2.5580001 -0.375 -0.081 33 16 0
2.5710001 -0.368 -0.079999998 34 16 0
2.5840001 -0.36199999 -0.079000004 32 16 0
2.599 -0.35600001 -0.078000002 33 16 0
2.6210001 -0.34999999 -0.077 35 16 0
2.6289999 -0.34299999 -0.075999998 33 16 0
2.6459999 -0.336 -0.075000003 35 16 0
2.658 -0.329 -0.074000001 32 16 0
2.6760001 -0.32300001 -0.072999999 32 16 0
2.6900001 -0.31600001 -0.071000002 33 16 0
2.7130001 -0.31 -0.07 34 16 0
2.7290001 -0.303 -0.068999998 32 16 0
2.7360001 -0.29499999 -0.067000002 30 16 0
2.756 -0.28799999 -0.066 28 16 0
2.767 -0.28099999 -0.064999998 26 16 0
2.7869999 -0.27399999 -0.063000001 26 16 0
2.802 -0.266 -0.061999999 26 16 0
2.8169999 -0.259 -0.059999999 27 16 0
2.8399999 -0.252 -0.059 27 16 0
2.8529999 -0.244 -0.057 27 16 0
2.8670001 -0.236 -0.056000002 26 16 0
2.8889999 -0.229 -0.054000001 26 16 0
2.9119999 -0.221 -0.052000001 26 16 0
2.9219999 -0.213 -0.050999999 26 16 0
2.9489999 -0.205 -0.048999999 26 19 0
2.9649999 -0.197 -0.046999998 25 16 0
2.9820001 -0.189 -0.045000002 25 16 0
3.0020001 -0.18000001 -0.044 25 16 0
3.0320001 -0.17299999 -0.041999999 27 16 0
3.0439999 -0.164 -0.039999999 26 16 0
3.0669999 -0.155 -0.037999999 26 16 0
3.0869999 -0.147 -0.035999998 26 16 0
3.1029999 -0.138 -0.034000002 26 16 0
3.132 -0.12899999 -0.032000002 27 16 0
3.1500001 -0.12 -0.029999999 27 16 0
3.174 -0.111 -0.027000001 27 16 0
3.194 -0.101 -0.025 27 16 0
3.2190001 -0.092 -0.023 26 16 0
3.237 -0.082000002 -0.021 29 16 0
3.2639999 -0.072999999 -0.017999999 45 16 0
3.266 -0.061999999 -0.016000001 150 16 0
3.2609999 -0.052000001 -0.013 129 16 0
3.257 -0.041999999 -0.0099999998 117 16 0
3.2539999 -0.032000002 -0.0080000004 140 16 0
3.2449999 -0.021 -0.0049999999 70 16 0
3.2490001 -0.011 -0.003 21 16 0
3.2780001 -0.001 0 18 16 0
3.302 0.0080000004 0.0020000001 19 16 0
3.323 0.018999999 0.0049999999 22 16 0
3.3369999 0.028999999 0.0070000002 46 16 0
3.323 0.039999999 0.0099999998 52 16 0
3.325 0.050000001 0.013 47 16 0
3.322 0.059999999 0.016000001 44 16 0
3.3210001 0.071000002 0.018999999 52 16 0
3.3150001 0.081 0.021 56 16 0
3.3099999 0.090999998 0.024 57 16 0
3.3080001 0.101 0.027000001 62 16 0
3.2939999 0.111 0.029999999 55 16 0
3.2920001 0.122 0.033 64 16 0
3.266 0.131 0.035 53 16 0
3.2290001 0.139 0.037999999 40 16 0
3.223 0.149 0.041000001 42 16 0
3.2160001 0.15899999 0.043000001 45 16 0
3.2130001 0.169 0.046 50 16 0
3.2060001 0.178 0.048999999 64 16 0
3.2 0.18799999 0.052000001 70 16 0
3.1989999 0.198 0.055 83 16 0
3.191 0.207 0.057999998 100 16 0
3.1930001 0.21699999 0.061000001 93 16 0
3.1819999 0.226 0.064000003 94 16 0
3.184 0.236 0.067000002 90 16 0
3.1800001 0.24600001 0.07 103 16 0
3.1760001 0.25600001 0.072999999 110 16 0
3.171 0.26499999 0.075999998 104 16 0
3.1689999 0.27500001 0.078000002 96 16 0
3.1600001 0.28400001 0.081 92 16 0
3.1600001 0.294 0.083999999 104 16 0
3.1570001 0.303 0.088 108 16 0
3.155 0.31299999 0.090999998 109 16 0
3.1530001 0.322 0.093999997 124 16 0
3.145 0.331 0.097000003 122 16 0
3.142 0.34099999 0.1 133 16 0
3.1459999 0.35100001 0.103 37 16 0
3.174 0.36399999 0.107 20 19 0
3.2019999 0.377 0.112 42 16 0
3.198 0.38600001 0.115 55 16 0
3.1930001 0.396 0.118 54 16 0
3.1889999 0.405 0.121 83 16 0
3.1849999 0.414 0.124 89 16 0
3.1789999 0.42300001 0.127 78 16 0
3.177 0.433 0.131 97 16 0
3.175 0.44299999 0.134 93 16 0
3.1730001 0.45199999 0.13699999 86 16 0
3.1719999 0.46200001 0.141 92 16 0
3.1630001 0.47 0.14399999 103 16 0
3.164 0.47999999 0.147 108 16 0
3.1619999 0.49000001 0.15099999 113 16 0
3.1600001 0.49900001 0.154 116 16 0
3.1500001 0.50700003 0.15700001 114 16 0
3.1470001 0.51700002 0.161 117 16 0
3.145 0.52600002 0.164 113 16 0
3.1400001 0.53500003 0.168 65 16 0
3.135 0.54400003 0.171 52 16 0
3.131 0.55299997 0.17399999 43 16 0
3.1199999 0.56099999 0.177 38 16 0
3.112 0.56900001 0.18099999 39 16 0
3.102 0.57599998 0.184 36 16 0
3.0929999 0.58399999 0.18700001 35 16 0
3.0880001 0.59299999 0.19 34 16 0
3.082 0.60100001 0.19400001 34 16 0
3.0680001 0.60799998 0.19599999 32 16 0
3.0639999 0.616 0.2 34 16 0
3.0539999 0.62400001 0.20299999 32 16 0
3.046 0.63200003 0.206 32 16 0
3.033 0.63800001 0.20900001 32 16 0
3.0309999 0.64700001 0.213 33 16 0
3.02 0.65399998 0.21600001 33 16 0
3.0150001 0.662 0.219 34 16 0
3.0090001 0.67000002 0.222 36 16 0
2.994 0.676 0.22499999 40 16 0
2.9920001 0.685 0.229 47 16 0
2.984 0.69199997 0.23199999 92 16 0
2.973 0.699 0.235 111 16 0
2.973 0.708 0.23899999 150 16 0
2.9690001 0.71600002 0.243 150 16 0
2.9660001 0.72500002 0.24600001 150 16 0
2.964 0.73299998 0.25 150 16 0
2.961 0.74199998 0.25400001 150 16 0
2.9579999 0.75 0.25799999 150 16 0
2.9560001 0.759 0.26199999 150 16 0
2.954 0.76700002 0.26499999 150 16 0
2.951 0.77499998 0.26899999 150 16 0
2.948 0.78399998 0.273 150 16 0
2.9460001 0.792 0.27700001 150 16 0
2.9389999 0.79900002 0.28 150 16 0
2.9360001 0.80699998 0.28400001 150 16 0
2.9360001 0.81599998 0.28799999 150 16 0
2.9330001 0.824 0.292 150 16 0
2.9330001 0.833 0.296 150 16 0
2.9300001 0.84200001 0.30000001 150 16 0
2.927 0.85000002 0.30399999 150 16 0
2.9219999 0.85699999 0.308 150 16 0
2.924 0.866 0.31299999 150 16 0
2.9189999 0.87400001 0.31600001 150 16 0
2.9159999 0.88200003 0.32100001 150 16 0
2.915 0.89099997 0.32499999 150 16 0
2.9100001 0.898 0.329 150 16 0
2.9059999 0.90499997 0.333 150 16 0
2.9059999 0.91399997 0.33700001 150 16 0
2.901 0.921 0.34099999 150 16 0
2.905 0.93099999 0.34599999 150 16 0
2.895 0.93699998 0.34900001 150 16 0
2.892 0.94499999 0.35299999 150 16 0
2.8959999 0.95499998 0.35800001 150 16 0
2.8859999 0.95999998 0.36199999 150 16 0
2.8900001 0.97000003 0.36700001 150 16 0
2.8900001 0.97899997 0.37200001 150 16 0
2.8870001 0.98699999 0.37599999 150 16 0
2.8840001 0.99400002 0.38 150 16 0
2.881 1.002 0.384 150 16 0
2.8800001 1.01 0.389 150 16 0
2.8789999 1.018 0.39399999 150 16 0
2.8759999 1.026 0.398 150 16 0
2.8759999 1.034 0.403 150 16 0
2.8699999 1.041 0.40700001 150 16 0
2.869 1.049 0.412 150 16 0
2.8659999 1.056 0.41600001 150 16 0
2.868 1.0650001 0.421 150 16 0
2.865 1.072 0.426 150 16 0
2.862 1.08 0.43000001 150 16 0
2.8540001 1.085 0.43399999 150 16 0
2.855 1.094 0.43900001 150 16 0
2.8529999 1.101 0.44400001 150 16 0
2.849 1.108 0.44800001 150 16 0
2.848 1.1160001 0.45300001 150 16 0
2.849 1.125 0.45899999 150 16 0
2.845 1.131 0.463 150 16 0
2.846 1.14 0.46799999 150 16 0
2.842 1.147 0.47299999 150 16 0
2.8440001 1.156 0.47799999 150 16 0
2.8380001 1.161 0.48300001 150 16 0
2.8410001 1.17 0.48800001 150 16 0
2.829 1.174 0.49200001 150 16 0
2.8369999 1.1849999 0.498 150 16 0
2.8369999 1.193 0.50400001 150 16 0
2.8329999 1.199 0.50800002 150 16 0
2.836 1.2079999 0.514 150 16 0
2.8310001 1.214 0.51899999 150 16 0
2.825 1.219 0.523 150 16 0
2.8299999 1.229 0.52899998 150 16 0
2.826 1.235 0.53399998 150 16 0
2.823 1.242 0.53899997 150 16 0
2.8239999 1.25 0.54500002 150 16 0
2.8210001 1.256 0.55000001 150 16 0
2.8210001 1.2640001 0.55500001 150 16 0
2.816 1.2690001 0.56 150 16 0
2.812 1.275 0.565 150 16 0
2.803 1.278 0.56800002 118 16 0
2.8039999 1.286 0.574 48 16 0
2.793 1.289 0.57800001 41 16 0
2.7820001 1.291 0.58099997 38 16 0
2.7739999 1.294 0.58499998 39 16 0
2.7650001 1.2970001 0.58899999 38 16 0
2.7579999 1.301 0.59299999 37 16 0
2.747 1.303 0.59600002 39 16 0
2.7409999 1.307 0.60100001 38 16 0
2.7349999 1.311 0.60500002 38 16 0
2.723 1.312 0.60799998 37 16 0
2.7149999 1.3150001 0.61199999 38 16 0
2.704 1.316 0.61500001 38 16 0
2.6949999 1.319 0.61799997 38 16 0
2.691 1.324 0.62300003 38 16 0
2.6789999 1.324 0.62599999 39 16 0
2.6719999 1.327 0.63 38 16 0
2.665 1.33 0.634 38 16 0
2.655 1.331 0.63700002 38 16 0
2.6459999 1.3329999 0.64099997 38 16 0
2.6340001 1.3329999 0.64399999 38 16 0
2.6210001 1.332 0.64600003 36 16 0
2.618 1.336 0.65100002 36 16 0
2.612 1.339 0.65499997 37 16 0
2.6040001 1.341 0.65899998 37 16 0
2.596 1.342 0.662 38 16 0
2.5869999 1.344 0.66600001 37 16 0
2.5810001 1.346 0.67000002 37 16 0
2.573 1.347 0.67299998 36 16 0
2.566 1.349 0.67699999 36 16 0
2.5480001 1.345 0.67799997 34 16 0
2.546 1.349 0.68300003 35 16 0
2.54 1.351 0.68699998 36 16 0
2.533 1.352 0.69 36 16 0
2.527 1.354 0.69400001 35 16 0
2.5120001 1.351 0.69599998 37 16 0
2.507 1.353 0.699 36 16 0
2.4990001 1.353 0.70300001 36 16 0
2.4920001 1.354 0.70599997 37 16 0
2.484 1.354 0.70999998 36 16 0
2.4779999 1.355 0.713 37 16 0
2.47 1.355 0.71600002 37 16 0
2.4630001 1.3559999 0.71899998 36 16 0
2.4549999 1.3559999 0.72299999 36 16 0
2.447 1.355 0.72600001 35 16 0
2.441 1.3559999 0.72899997 40 16 0
2.434 1.355 0.73199999 40 16 0
2.4289999 1.3559999 0.736 40 16 0
2.4170001 1.353 0.73699999 38 16 0
2.414 1.355 0.74199998 39 16 0
2.405 1.354 0.74400002 39 16 0
2.3989999 1.354 0.74699998 39 16 0
2.3959999 1.355 0.75099999 41 16 0
2.3870001 1.353 0.75400001 42 16 0
2.3759999 1.35 0.755 40 16 0
2.3740001 1.352 0.759 40 16 0
2.3640001 1.349 0.76099998 40 16 0
2.3559999 1.347 0.764 40 16 0
2.3540001 1.349 0.76800001 38 16 0
2.346 1.347 0.76999998 40 16 0
2.3429999 1.348 0.77399999 43 16 0
2.3340001 1.345 0.77600002 43 16 0
2.3299999 1.345 0.77899998 41 16 0
2.322 1.342 0.78100002 39 16 0
2.3180001 1.342 0.78500003 41 16 0
2.3080001 1.3380001 0.78600001 44 16 0
2.3050001 1.339 0.78899997 39 16 0
2.3 1.337 0.792 44 16 0
2.2939999 1.336 0.79500002 38 16 0
2.289 1.334 0.79699999 38 16 0
2.2839999 1.332 0.80000001 39 16 0
2.2750001 1.3279999 0.801 40 16 0
2.2709999 1.327 0.80400002 43 16 0
2.267 1.326 0.80699998 40 16 0
2.2639999 1.326 0.81 46 16 0
2.2609999 1.324 0.81300002 50 16 0
2.2579999 1.324 0.81599998 52 16 0
2.2509999 1.3200001 0.81699997 57 16 0
2.2460001 1.318 0.81999999 51 16 0
2.243 1.316 0.82200003 54 16 0
2.2409999 1.316 0.82599998 53 16 0
2.2320001 1.311 0.82599998 47 19 0
2.23 1.3099999 0.829 50 16 0
2.2249999 1.307 0.83099997 54 16 0
2.2149999 1.301 0.83099997 58 19 0
2.214 1.3 0.83399999 50 16 0
2.2079999 1.296 0.83499998 59 16 0
2.2060001 1.295 0.838 55 16 0
2.2060001 1.294 0.84100002 56 16 0
2.201 1.291 0.84200001 52 16 0
2.1900001 1.284 0.84100002 51 18 0
2.1889999 1.283 0.84399998 52 16 0
2.188 1.281 0.847 58 16 0
2.1789999 1.275 0.847 65 19 0
2.177 1.273 0.84899998 65 16 0
2.1719999 1.2690001 0.85000002 67 16 0
2.1700001 1.266 0.852 58 16 0
2.1689999 1.2640001 0.85399997 62 16 0
2.1659999 1.261 0.85600001 71 16 0
2.1600001 1.256 0.85600001 63 16 0
2.158 1.253 0.85799998 64 16 0
2.155 1.25 0.85900003 69 16 0
2.1530001 1.2460001 0.861 67 16 0
2.148 1.242 0.861 68 16 0
2.148 1.24 0.86299998 71 16 0
2.1459999 1.2359999 0.86500001 80 16 0
2.1429999 1.232 0.866 79 16 0
2.1389999 1.228 0.866 74 16 0
2.1370001 1.224 0.86699998 79 16 0
2.1329999 1.219 0.86699998 74 16 0
2.1359999 1.2180001 0.87 81 16 0
2.131 1.212 0.87 81 16 0
2.1340001 1.211 0.87300003 81 16 0
2.131 1.207 0.87300003 78 16 0
2.1240001 1.2 0.87199998 62 16 0
2.125 1.198 0.87400001 44 16 0
2.1229999 1.194 0.875 27 16 0
2.1229999 1.1900001 0.87599999 22 16 0
2.1229999 1.187 0.87699997 17 16 0
2.1199999 1.182 0.87699997 11 16 0
2.1110001 1.174 0.875 6 16 0
2.098 1.163 0.87 4 16 0
2.1040001 1.1619999 0.87300003 5 16 0
2.1029999 1.158 0.87400001 7 16 0
2.1040001 1.155 0.875 10 16 0
2.115 1.1569999 0.88 13 19 0
2.105 1.148 0.87699997 17 16 0
2.1110001 1.148 0.88 24 16 0
2.1140001 1.145 0.88200003 32 16 0
2.1129999 1.14 0.88099998 51 16 0
2.109 1.1339999 0.88 75 16 0
2.109 1.13 0.88 97 16 0
2.1099999 1.126 0.88099998 106 16 0
2.108 1.12 0.88 108 16 0
2.1099999 1.117 0.88099998 103 16 0
2.1110001 1.113 0.88099998 112 16 0
2.1129999 1.109 0.88200003 93 16 0
2.115 1.1059999 0.88300002 89 16 0
2.1099999 1.098 0.88 89 16 0
2.1140001 1.096 0.88200003 89 16 0
2.1129999 1.09 0.88099998 94 16 0
2.115 1.087 0.88099998 93 16 0
2.1159999 1.0829999 0.88099998 92 16 0
2.1170001 1.0779999 0.88099998 98 16 0
2.1159999 1.073 0.88 97 16 0
2.1170001 1.068 0.87900001 98 16 0
2.1199999 1.064 0.88 110 16 0
2.119 1.059 0.87800002 99 16 0
2.1240001 1.056 0.87900001 100 16 0
2.1240001 1.051 0.87800002 104 16 0
2.1240001 1.046 0.87699997 100 16 0
2.128 1.0420001 0.87800002 108 16 0
2.1289999 1.0369999 0.87699997 108 16 0
2.131 1.033 0.87599999 112 16 0
2.1289999 1.026 0.87400001 113 16 0
2.1329999 1.023 0.87400001 115 16 0
2.1340001 1.018 0.87300003 109 16 0
2.1359999 1.013 0.87199998 114 16 0
2.1389999 1.0089999 0.87199998 114 16 0
2.141 1.0039999 0.87099999 110 16 0
2.145 1 0.87099999 124 16 0
2.148 0.99599999 0.87 121 16 0
2.1489999 0.99000001 0.86799997 112 16 0
2.151 0.986 0.86699998 119 16 0
2.154 0.98100001 0.866 117 16 0
2.1559999 0.97600001 0.86500001 117 16 0
2.1589999 0.972 0.86400002 115 16 0
2.161 0.96700001 0.86299998 127 16 0
2.164 0.96200001 0.86199999 114 16 0
2.1670001 0.95700002 0.86000001 116 16 0
2.171 0.95300001 0.86000001 128 16 0
2.1719999 0.94800001 0.85799998 122 16 0
2.1730001 0.94199997 0.85500002 129 16 0
2.181 0.93900001 0.85600001 133 16 0
2.1819999 0.93400002 0.85399997 123 16 0
2.1860001 0.92900002 0.85299999 133 16 0
2.1889999 0.92400002 0.85100001 126 16 0
2.1919999 0.91900003 0.84899998 130 16 0
2.197 0.91500002 0.84899998 125 16 0
2.2 0.91000003 0.847 132 16 0
2.2049999 0.90600002 0.84500003 131 16 0
2.2090001 0.90200001 0.84399998 124 16 0
2.2119999 0.89700001 0.84200001 112 16 0
2.2179999 0.89300001 0.84100002 115 16 0
2.221 0.88700002 0.83899999 114 16 0
2.223 0.88200003 0.83700001 115 16 0
2.2260001 0.87699997 0.83399999 113 16 0
2.2290001 0.87199998 0.83200002 122 16 0
2.2379999 0.86900002 0.83200002 108 16 0
2.243 0.86500001 0.82999998 107 16 0
2.2460001 0.85900003 0.82800001 112 16 0
2.25 0.85399997 0.82599998 108 16 0
2.2539999 0.85000002 0.824 103 16 0
2.2609999 0.84600002 0.82300001 109 16 0
2.267 0.84100002 0.82099998 100 16 0
2.266 0.83499998 0.81699997 104 16 0
2.2750001 0.83099997 0.81599998 114 16 0
2.2750001 0.82499999 0.81300002 116 16 0
2.2780001 0.81999999 0.81 98 16 0
2.2850001 0.81599998 0.80800003 111 16 0
2.2880001 0.81 0.80500001 105 16 0
2.2969999 0.80699998 0.80500001 101 16 0
2.3010001 0.80199999 0.80199999 106 16 0
2.3080001 0.79799998 0.80000001 109 16 0
2.316 0.79400003 0.79900002 114 16 0
2.319 0.78799999 0.796 110 16 0
2.326 0.78399998 0.79400003 112 16 0
2.329 0.77899998 0.79000002 111 16 0
2.336 0.77499998 0.78799999 105 16 0
2.3440001 0.77100003 0.78600001 101 16 0
2.349 0.76599997 0.78399998 108 16 0
2.3559999 0.76099998 0.78200001 110 16 0
2.3629999 0.75700003 0.77999997 112 16 0
2.3659999 0.75199997 0.77600002 112 16 0
2.375 0.74800003 0.77399999 116 16 0
2.3800001 0.74299997 0.77100003 99 16 0
2.388 0.73900002 0.76899999 102 16 0
2.391 0.73299998 0.76499999 109 16 0
2.4000001 0.72899997 0.764 114 16 0
2.404 0.72399998 0.75999999 91 16 0
2.4070001 0.71799999 0.75599998 99 16 0
2.418 0.71499997 0.755 106 16 0
2.424 0.70999998 0.75099999 107 16 0
2.4300001 0.70499998 0.74800003 104 16 0
2.438 0.70099998 0.74599999 106 16 0
2.4460001 0.69599998 0.74299997 93 16 0
2.451 0.69099998 0.74000001 102 16 0
2.457 0.68599999 0.736 115 16 0
2.4649999 0.68199998 0.73299998 89 16 0
2.4760001 0.67799997 0.73100001 83 16 0
2.48 0.67299998 0.727 76 16 0
2.487 0.66799998 0.72399998 84 16 0
2.4960001 0.66399997 0.72100002 77 16 0
2.503 0.65899998 0.71799999 87 16 0
2.506 0.653 0.71399999 83 16 0
2.5190001 0.64999998 0.71200001 84 16 0
2.5320001 0.64700001 0.70999998 84 16 0
2.539 0.64200002 0.70599997 83 16 0
2.5439999 0.63700002 0.70200002 81 16 0
2.552 0.63200003 0.699 84 16 0
2.5580001 0.62599999 0.69499999 80 16 0
2.5680001 0.62199998 0.69199997 67 16 0
2.573 0.61699998 0.68800002 68 16 0
2.579 0.61199999 0.68300003 74 16 0
2.5899999 0.60799998 0.68000001 73 16 0
2.5999999 0.60299999 0.67699999 68 16 0
2.609 0.59899998 0.67400002 62 16 0
2.615 0.59299999 0.66900003 69 16 0
2.6210001 0.588 0.66500002 63 16 0
2.6270001 0.583 0.66000003 64 16 0
2.6329999 0.57800001 0.65600002 66 16 0
2.652 0.57499999 0.65499997 69 16 0
2.654 0.56900001 0.64899999 51 16 0
2.6659999 0.565 0.64600003 56 16 0
2.6719999 0.55900002 0.64099997 57 16 0
2.6830001 0.55500001 0.63800001 60 16 0
2.698 0.551 0.63499999 65 16 0
2.704 0.546 0.63 61 16 0
2.7119999 0.54100001 0.62599999 49 16 0
2.72 0.53600001 0.62099999 40 16 0
2.727 0.52999997 0.61699998 39 16 0
2.74 0.52600002 0.61299998 39 16 0
2.7520001 0.52200001 0.60900003 38 16 0
2.7609999 0.51700002 0.60500002 39 16 0
2.773 0.51300001 0.60100001 38 16 0
2.7780001 0.50700003 0.59600002 39 16 0
2.7920001 0.50300002 0.59200001 38 16 0
2.803 0.498 0.588 38 16 0
2.813 0.493 0.583 39 16 0
2.8199999 0.48699999 0.57800001 38 16 0
2.835 0.48300001 0.574 36 16 0
2.846 0.479 0.56999999 37 16 0
2.8559999 0.47299999 0.565 37 16 0
2.869 0.46900001 0.56099999 35 16 0
2.878 0.46399999 0.55599999 34 16 0
2.892 0.45899999 0.551 36 16 0
2.901 0.454 0.546 36 16 0
2.9119999 0.449 0.54100001 35 16 0
2.9170001 0.44299999 0.53500003 33 16 0
2.9319999 0.43799999 0.53100002 33 16 0
2.95 0.43399999 0.52700001 34 16 0
2.9579999 0.42899999 0.52100003 35 16 0
2.9690001 0.42399999 0.51599997 34 16 0
2.9890001 0.41999999 0.51200002 34 16 0
2.9979999 0.414 0.50599998 34 16 0
3.01 0.40900001 0.50099999 34 16 0
3.0209999 0.40400001 0.49599999 33 16 0
3.039 0.39899999 0.491 34 16 0
3.046 0.39300001 0.48500001 33 16 0
3.059 0.38800001 0.479 32 16 0
3.072 0.38299999 0.47400001 34 16 0
3.0840001 0.377 0.46799999 33 16 0
3.098 0.37200001 0.463 34 16 0
3.115 0.36700001 0.458 34 16 0
3.1259999 0.36199999 0.45199999 35 16 0
3.141 0.35699999 0.44600001 33 16 0
3.1559999 0.35100001 0.44 37 16 0
3.1659999 0.34599999 0.43399999 35 16 0
3.181 0.34 0.428 35 16 0
3.1919999 0.33500001 0.42199999 36 16 0
3.2060001 0.329 0.41600001 35 16 0
3.223 0.324 0.41 36 16 0
3.2379999 0.31799999 0.40400001 53 16 0
3.2379999 0.31200001 0.396 150 16 0
3.244 0.30500001 0.38800001 150 16 0
3.2449999 0.29800001 0.38 146 16 0
3.243 0.29100001 0.37200001 150 16 0
3.2449999 0.28400001 0.36399999 150 16 0
3.2460001 0.278 0.35600001 147 16 0
3.247 0.271 0.34799999 150 16 0
3.247 0.264 0.34 150 16 0
3.2479999 0.257 0.33199999 150 16 0
3.2409999 0.25 0.32300001 144 16 0
3.247 0.244 0.315 143 16 0
3.243 0.237 0.30700001 150 16 0
3.244 0.23 0.29899999 138 16 0
3.2449999 0.223 0.29100001 149 16 0
3.247 0.21699999 0.28299999 149 16 0
3.2449999 0.20999999 0.27399999 150 16 0
3.2479999 0.20299999 0.266 130 16 0
3.25 0.197 0.25799999 127 16 0
3.21 0.18799999 0.24699999 140 18 0
3.098 0.175 0.23 63 18 0
3.01 0.164 0.21600001 20 19 0
3.0999999 0.163 0.215 34 19 0
3.2049999 0.162 0.214 104 19 0
3.2460001 0.15700001 0.208 121 16 0
3.2390001 0.15000001 0.2 123 16 0
3.247 0.14399999 0.192 137 16 0
3.25 0.138 0.184 145 16 0
3.2420001 0.131 0.175 117 16 0
3.243 0.124 0.167 116 16 0
3.2449999 0.118 0.15899999 117 16 0
3.244 0.112 0.15000001 128 16 0
3.243 0.105 0.142 127 16 0
3.2449999 0.098999999 0.133 60 16 0
3.2550001 0.093000002 0.125 34 16 0
3.2720001 0.086999997 0.118 26 16 0
3.293 0.081 0.11 27 16 0
3.3099999 0.075000003 0.102 28 16 0
3.3310001 0.068999998 0.093999997 24 16 0
3.3180001 0.061999999 0.085000001 13 16 0
3.2950001 0.055 0.075999998 13 16 0
3.2939999 0.048999999 0.067000002 7 16 0
3.3469999 0.043000001 0.059999999 10 18 0
3.342 0.037 0.050999999 40 16 0
3.346 0.030999999 0.041999999 58 16 0
3.3410001 0.024 0.033 36 16 0
3.326 0.017999999 0.025 20 16 0
3.3080001 0.011 0.016000001 18 16 0
3.2920001 0.0049999999 0.0070000002 17 16 0
3.276 0 -0.001 16 16 0
3.2620001 -0.0070000002 -0.0089999996 17 16 0
3.2379999 -0.013 -0.017999999 21 16 0
3.227 -0.018999999 -0.026000001 37 16 0
3.23 -0.025 -0.035 100 16 0
3.2320001 -0.030999999 -0.043000001 116 16 0
3.23 -0.037 -0.052000001 117 16 0
3.23 -0.043000001 -0.059999999 114 16 0
3.2279999 -0.048999999 -0.068999998 117 16 0
3.223 -0.055 -0.077 115 16 0
3.2279999 -0.061000001 -0.086000003 150 16 0
3.227 -0.067000002 -0.094999999 150 16 0
3.2190001 -0.071999997 -0.103 57 16 0
3.207 -0.078000002 -0.111 28 16 0
3.191 -0.083999999 -0.119 25 16 0
3.171 -0.089000002 -0.127 25 16 0
3.1600001 -0.093999997 -0.13500001 24 16 0
3.142 -0.1 -0.14300001 25 16 0
3.131 -0.105 -0.15000001 24 16 0
3.115 -0.11 -0.15800001 23 16 0
3.0999999 -0.115 -0.16599999 23 16 0
3.085 -0.12 -0.17299999 24 16 0
3.075 -0.125 -0.18099999 23 16 0
3.0550001 -0.13 -0.18799999 24 16 0
3.0409999 -0.13500001 -0.19499999 24 16 0
3.027 -0.14 -0.20299999 25 16 0
3.0109999 -0.14399999 -0.20999999 24 16 0
2.9960001 -0.149 -0.21699999 23 16 0
2.987 -0.154 -0.22400001 23 16 0
2.973 -0.15800001 -0.23199999 24 16 0
2.9530001 -0.162 -0.23800001 23 16 0
2.947 -0.167 -0.24600001 23 16 0
2.938 -0.17200001 -0.25299999 24 16 0
2.9189999 -0.176 -0.259 23 16 0
2.9070001 -0.18000001 -0.266 24 16 0
2.895 -0.184 -0.273 24 16 0
2.881 -0.189 -0.28 24 16 0
2.872 -0.193 -0.287 24 16 0
2.858 -0.197 -0.29300001 23 16 0
2.8469999 -0.20100001 -0.30000001 23 16 0
2.8329999 -0.205 -0.30700001 23 16 0
2.823 -0.20900001 -0.31299999 24 16 0
2.809 -0.213 -0.31999999 23 16 0
2.7980001 -0.21699999 -0.32600001 24 16 0
2.7869999 -0.221 -0.333 24 16 0
2.7750001 -0.22400001 -0.33899999 24 16 0
2.7679999 -0.229 -0.34599999 23 16 0
2.7550001 -0.23199999 -0.352 24 16 0
2.744 -0.236 -0.359 24 16 0
2.7349999 -0.23999999 -0.36500001 23 16 0
2.723 -0.243 -0.37099999 25 16 0
2.7130001 -0.24699999 -0.377 26 16 0
2.7060001 -0.25099999 -0.384 27 16 0
2.697 -0.25400001 -0.38999999 28 16 0
2.6900001 -0.25799999 -0.39700001 27 16 0
2.678 -0.26100001 -0.403 27 16 0
2.6670001 -0.26499999 -0.40900001 28 16 0
2.654 -0.26800001 -0.414 25 16 0
2.6459999 -0.271 -0.421 25 16 0
2.635 -0.27399999 -0.42699999 30 16 0
2.6259999 -0.278 -0.433 29 16 0
2.6159999 -0.28099999 -0.43900001 31 16 0
2.605 -0.28400001 -0.44400001 29 16 0
2.5969999 -0.287 -0.45100001 29 16 0
2.585 -0.28999999 -0.456 29 16 0
2.5780001 -0.294 -0.46200001 28 16 0
2.5669999 -0.296 -0.46799999 28 16 0
2.556 -0.29899999 -0.47299999 28 16 0
2.5539999 -0.303 -0.47999999 30 16 0
2.5409999 -0.30599999 -0.48500001 30 16 0
2.536 -0.30899999 -0.49200001 31 16 0
2.527 -0.31200001 -0.49700001 29 16 0
2.5150001 -0.31400001 -0.50300002 30 16 0
2.506 -0.317 -0.50800002 30 16 0
2.5 -0.31999999 -0.514 30 16 0
2.493 -0.32300001 -0.51999998 30 16 0
2.4779999 -0.32499999 -0.52399999 30 16 0
2.474 -0.32800001 -0.53100002 29 16 0
2.4660001 -0.331 -0.53600001 30 16 0
2.457 -0.333 -0.542 30 16 0
2.4489999 -0.336 -0.54799998 29 16 0
2.441 -0.33899999 -0.55299997 30 16 0
2.4330001 -0.34099999 -0.55800003 29 16 0
2.428 -0.34400001 -0.565 30 16 0
2.4189999 -0.34599999 -0.56999999 30 16 0
2.411 -0.34900001 -0.57499999 31 16 0
2.4030001 -0.35100001 -0.58099997 31 16 0
2.398 -0.354 -0.58700001 29 16 0
2.3900001 -0.35600001 -0.59200001 29 16 0
2.385 -0.359 -0.59799999 30 16 0
2.3759999 -0.361 -0.60299999 28 16 0
2.3710001 -0.36399999 -0.60900003 30 16 0
2.3599999 -0.366 -0.61299998 31 16 0
2.355 -0.368 -0.61900002 35 16 0
2.346 -0.37 -0.62400001 33 16 0
2.336 -0.37200001 -0.62800002 30 16 0
2.3310001 -0.37400001 -0.634 29 16 0
2.3210001 -0.37599999 -0.639 30 16 0
2.319 -0.37900001 -0.64499998 34 16 0
2.312 -0.38100001 -0.64999998 32 16 0
2.3039999 -0.38299999 -0.65499997 27 16 0
2.2969999 -0.38499999 -0.66100001 27 16 0
2.289 -0.38699999 -0.66500002 29 16 0
2.283 -0.389 -0.671 29 16 0
2.2809999 -0.391 -0.67699999 29 16 0
2.273 -0.39300001 -0.68199998 52 16 0
2.2620001 -0.39399999 -0.68599999 56 16 0
2.257 -0.396 -0.69099998 55 16 0
2.2490001 -0.398 -0.69599998 46 16 0
2.243 -0.39899999 -0.70099998 55 16 0
2.237 -0.40099999 -0.70700002 50 16 0
2.233 -0.403 -0.71200001 53 16 0
2.2260001 -0.405 -0.71700001 55 16 0
2.221 -0.40700001 -0.722 55 16 0
2.2130001 -0.40799999 -0.727 55 16 0
2.2079999 -0.41 -0.73199999 56 16 0
2.2060001 -0.412 -0.73900002 56 16 0
2.1960001 -0.41299999 -0.74199998 56 16 0
2.1889999 -0.41499999 -0.74699998 56 16 0
2.1849999 -0.41600001 -0.75300002 59 16 0
2.1830001 -0.419 -0.759 62 16 0
2.175 -0.41999999 -0.76300001 60 16 0
2.1700001 -0.421 -0.76800001 61 16 0
2.1619999 -0.42199999 -0.77200001 81 16 0
2.1589999 -0.42399999 -0.778 83 16 0
2.154 -0.426 -0.78299999 86 16 0
2.148 -0.42699999 -0.78799999 81 16 0
2.145 -0.42899999 -0.79400003 87 16 0
2.1359999 -0.42899999 -0.79699999 80 16 0
2.132 -0.43099999 -0.80299997 89 16 0
2.128 -0.43200001 -0.80800003 76 16 0
2.1270001 -0.43399999 -0.81400001 77 16 0
2.119 -0.435 -0.81800002 85 16 0
2.115 -0.43599999 -0.824 81 16 0
2.1110001 -0.43700001 -0.829 78 16 0
2.1040001 -0.43799999 -0.833 73 16 0
2.099 -0.43900001 -0.838 73 16 0
2.096 -0.44100001 -0.84399998 81 16 0
2.0940001 -0.442 -0.84899998 80 16 0
2.086 -0.442 -0.85299999 81 16 0
2.086 -0.44400001 -0.86000001 77 16 0
2.0799999 -0.44499999 -0.86400002 76 16 0
2.0739999 -0.44600001 -0.86799997 83 16 0
2.0710001 -0.447 -0.87400001 83 16 0
2.0639999 -0.447 -0.87699997 80 16 0
2.0610001 -0.44800001 -0.88300002 83 16 0
2.0580001 -0.449 -0.88800001 80 16 0
2.0539999 -0.44999999 -0.89300001 83 16 0
2.0480001 -0.45100001 -0.89700001 83 16 0
2.046 -0.45199999 -0.903 86 16 0
2.043 -0.45300001 -0.90799999 82 16 0
2.04 -0.454 -0.91399997 104 16 0
2.0380001 -0.45500001 -0.91900003 111 16 0
2.0320001 -0.45500001 -0.92299998 99 16 0
2.0320001 -0.456 -0.93000001 111 16 0
2.0250001 -0.456 -0.93300003 112 16 0
2.023 -0.45699999 -0.93800002 105 16 0
2.016 -0.45699999 -0.94199997 106 16 0
2.016 -0.458 -0.94800001 104 16 0
2.0079999 -0.458 -0.95099998 103 16 0
2.006 -0.45899999 -0.95599997 101 16 0
2.0050001 -0.46000001 -0.963 108 16 0
1.997 -0.45899999 -0.96499997 104 16 0
1.995 -0.46000001 -0.97000003 102 16 0
1.995 -0.461 -0.977 102 16 0
1.993 -0.461 -0.98199999 109 16 0
1.99 -0.46200001 -0.98699999 105 16 0
1.987 -0.46200001 -0.99199998 92 16 0
1.982 -0.46200001 -0.995 95 16 0
1.982 -0.463 -1.002 93 16 0
1.982 -0.46399999 -1.008 104 16 0
1.9809999 -0.46399999 -1.013 100 16 0
1.971 -0.463 -1.0140001 97 16 0
1.976 -0.465 -1.023 98 16 0
1.966 -0.463 -1.024 100 16 0
1.964 -0.463 -1.029 102 16 0
1.962 -0.463 -1.034 91 16 0
1.959 -0.463 -1.038 97 16 0
1.962 -0.46399999 -1.046 101 16 0
1.957 -0.46399999 -1.049 100 16 0
1.959 -0.46399999 -1.056 90 16 0
1.957 -0.46399999 -1.061 93 16 0
1.955 -0.46399999 -1.0650001 95 16 0
1.952 -0.46399999 -1.0700001 91 16 0
1.95 -0.46399999 -1.074 104 16 0
1.949 -0.46399999 -1.08 95 16 0
1.9450001 -0.463 -1.0829999 93 16 0
1.943 -0.463 -1.087 93 16 0
1.943 -0.463 -1.0930001 90 16 0
1.941 -0.46200001 -1.098 85 16 0
1.939 -0.46200001 -1.102 89 16 0
1.9400001 -0.46200001 -1.108 89 16 0
1.936 -0.461 -1.1109999 86 16 0
1.936 -0.461 -1.117 90 16 0
1.938 -0.461 -1.123 115 16 0
1.936 -0.46000001 -1.127 116 16 0
1.934 -0.46000001 -1.131 102 16 0
1.939 -0.461 -1.1390001 105 16 0
1.933 -0.45899999 -1.141 109 16 0
1.9349999 -0.45899999 -1.147 110 16 0
1.933 -0.458 -1.15 107 16 0
1.931 -0.45699999 -1.155 100 16 0
1.931 -0.456 -1.159 103 16 0
1.928 -0.45500001 -1.1619999 102 16 0
1.927 -0.454 -1.1670001 105 16 0
1.9299999 -0.454 -1.173 99 16 0
1.931 -0.454 -1.178 100 16 0
1.929 -0.45300001 -1.182 99 16 0
1.928 -0.45199999 -1.186 104 16 0
1.934 -0.45199999 -1.194 108 16 0
1.9299999 -0.44999999 -1.1950001 100 16 0
1.931 -0.449 -1.2 107 16 0
1.9299999 -0.44800001 -1.204 102 16 0
1.9299999 -0.447 -1.2079999 100 16 0
1.929 -0.44600001 -1.212 101 16 0
1.929 -0.44499999 -1.216 96 16 0
1.9299999 -0.44400001 -1.221 92 16 0
1.928 -0.442 -1.224 93 16 0
1.934 -0.442 -1.2309999 98 16 0
1.933 -0.44 -1.234 94 16 0
1.9349999 -0.43900001 -1.239 99 16 0
1.937 -0.43799999 -1.244 92 16 0
1.937 -0.43700001 -1.248 97 16 0
1.939 -0.43599999 -1.252 96 16 0
1.9400001 -0.43399999 -1.256 96 16 0
1.939 -0.433 -1.2589999 90 16 0
1.9450001 -0.43200001 -1.266 84 16 0
1.944 -0.43000001 -1.2690001 82 16 0
1.9450001 -0.42899999 -1.272 84 16 0
1.948 -0.428 -1.277 84 16 0
1.949 -0.426 -1.28 89 16 0
1.9529999 -0.42500001 -1.286 94 16 0
1.949 -0.42199999 -1.286 86 16 0
1.956 -0.42199999 -1.293 84 19 0
1.956 -0.41999999 -1.296 85 16 0
1.961 -0.419 -1.301 87 16 0
1.964 -0.417 -1.306 87 16 0
1.9630001 -0.41499999 -1.308 81 16 0
1.969 -0.414 -1.313 85 16 0
1.97 -0.412 -1.316 87 16 0
1.973 -0.41 -1.3200001 87 16 0
1.977 -0.40900001 -1.324 87 16 0
1.977 -0.40599999 -1.326 71 16 0
1.9809999 -0.405 -1.33 70 16 0
1.984 -0.403 -1.334 73 16 0
1.984 -0.40000001 -1.336 77 16 0
1.988 -0.39899999 -1.34 70 16 0
1.993 -0.39700001 -1.344 74 16 0
1.998 -0.39500001 -1.348 71 16 0
1.997 -0.39300001 -1.349 66 16 0
2.006 -0.39199999 -1.3559999 86 19 0
2.006 -0.389 -1.3559999 81 16 0
2.0090001 -0.38699999 -1.359 79 16 0
2.0120001 -0.38499999 -1.362 77 16 0
2.017 -0.38299999 -1.3660001 82 16 0
2.0220001 -0.38100001 -1.37 80 16 0
2.0239999 -0.37799999 -1.372 77 16 0
2.0280001 -0.37599999 -1.374 79 16 0
2.0309999 -0.37400001 -1.376 80 16 0
2.033 -0.37099999 -1.378 74 16 0
2.0339999 -0.368 -1.378 63 16 0
2.0420001 -0.366 -1.383 70 19 0
2.0480001 -0.36399999 -1.387 73 16 0
2.0539999 -0.36300001 -1.391 69 16 0
2.0569999 -0.36000001 -1.392 70 16 0
2.0569999 -0.35699999 -1.392 87 16 0
2.066 -0.35499999 -1.397 83 19 0
2.069 -0.352 -1.398 79 16 0
2.0739999 -0.34999999 -1.4 79 16 0
2.079 -0.34799999 -1.402 79 16 0
2.0799999 -0.34400001 -1.401 78 16 0
2.092 -0.34299999 -1.409 72 18 0
2.092 -0.34 -1.4069999 79 16 0
2.0940001 -0.33700001 -1.4069999 76 16 0
2.108 -0.336 -1.414 83 18 0
2.1040001 -0.33199999 -1.41 78 16 0
2.1129999 -0.33000001 -1.414 81 16 0
2.1140001 -0.32699999 -1.413 77 16 0
2.1229999 -0.32499999 -1.4170001 82 16 0
2.1300001 -0.322 -1.419 79 16 0
2.1370001 -0.31999999 -1.421 78 16 0
2.138 -0.317 -1.42 76 16 0
2.1440001 -0.31400001 -1.421 81 16 0
2.1489999 -0.31099999 -1.421 77 16 0
2.154 -0.308 -1.4220001 86 16 0
2.161 -0.30599999 -1.423 76 16 0
2.1700001 -0.303 -1.426 76 16 0
2.1730001 -0.301 -1.426 75 16 0
2.181 -0.29800001 -1.427 70 16 0
2.1849999 -0.29499999 -1.427 69 16 0
2.194 -0.29300001 -1.429 72 16 0
2.1989999 -0.28999999 -1.429 76 16 0
2.2019999 -0.287 -1.428 73 16 0
2.2090001 -0.28400001 -1.428 74 16 0
2.2149999 -0.28099999 -1.428 68 16 0
2.223 -0.27900001 -1.429 76 16 0
2.2260001 -0.27500001 -1.427 65 16 0
2.2360001 -0.273 -1.4299999 71 16 0
2.2379999 -0.27000001 -1.426 66 16 0
2.253 -0.26800001 -1.432 70 19 0
2.256 -0.26499999 -1.429 70 16 0
2.263 -0.26199999 -1.429 78 16 0
2.2650001 -0.259 -1.426 77 16 0
2.277 -0.25600001 -1.428 74 16 0
2.2809999 -0.25299999 -1.426 78 16 0
2.289 -0.25099999 -1.426 78 16 0
2.2939999 -0.248 -1.424 70 16 0
2.3010001 -0.245 -1.423 64 16 0
2.313 -0.242 -1.426 72 16 0
2.3180001 -0.23899999 -1.423 69 16 0
2.3210001 -0.236 -1.42 83 16 0
2.3299999 -0.234 -1.42 71 16 0
2.335 -0.23100001 -1.4170001 71 16 0
2.3399999 -0.227 -1.414 71 16 0
2.346 -0.22499999 -1.4119999 69 16 0
2.3499999 -0.222 -1.409 67 16 0
2.362 -0.219 -1.411 68 16 0
2.369 -0.21699999 -1.409 69 16 0
2.375 -0.214 -1.406 69 16 0
2.382 -0.211 -1.404 69 16 0
2.385 -0.208 -1.4 67 16 0
2.395 -0.205 -1.399 67 16 0
2.404 -0.20299999 -1.398 72 16 0
2.408 -0.199 -1.3940001 68 16 0
2.415 -0.197 -1.392 75 16 0
2.4260001 -0.19400001 -1.391 68 16 0
2.4319999 -0.191 -1.388 80 16 0
2.4360001 -0.18799999 -1.3839999 73 16 0
2.444 -0.186 -1.381 65 16 0
2.4519999 -0.183 -1.3789999 78 16 0
2.4579999 -0.18000001 -1.375 68 16 0
2.464 -0.177 -1.3710001 74 16 0
2.4760001 -0.175 -1.3710001 71 16 0
2.4790001 -0.17200001 -1.3660001 73 16 0
2.4909999 -0.17 -1.365 78 16 0
2.497 -0.167 -1.3609999 74 16 0
2.5009999 -0.164 -1.3559999 66 16 0
2.5139999 -0.162 -1.355 40 16 0
2.52 -0.15899999 -1.351 39 16 0
2.5250001 -0.15700001 -1.347 38 16 0
2.5309999 -0.154 -1.342 38 16 0
2.539 -0.15099999 -1.3380001 38 16 0
2.5439999 -0.149 -1.3329999 39 16 0
2.552 -0.146 -1.33 40 16 0
2.5610001 -0.14399999 -1.326 39 16 0
2.5639999 -0.141 -1.3200001 40 16 0
2.573 -0.138 -1.317 41 16 0
2.5799999 -0.13600001 -1.313 42 16 0
2.5910001 -0.134 -1.3099999 39 16 0
2.596 -0.131 -1.304 40 16 0
2.605 -0.12899999 -1.301 41 16 0
2.612 -0.126 -1.296 40 16 0
2.6210001 -0.124 -1.2920001 42 16 0
2.6270001 -0.121 -1.2869999 42 16 0
2.631 -0.119 -1.28 41 16 0
2.642 -0.117 -1.278 40 16 0
2.648 -0.114 -1.272 41 16 0
2.655 -0.112 -1.267 41 16 0
2.6670001 -0.11 -1.2640001 41 16 0
2.6700001 -0.107 -1.257 41 16 0
2.6800001 -0.105 -1.253 40 16 0
2.6849999 -0.103 -1.2460001 40 16 0
2.691 -0.101 -1.2410001 41 16 0
2.7 -0.098999999 -1.2359999 41 16 0
2.707 -0.096000001 -1.23 42 16 0
2.7149999 -0.093999997 -1.225 54 16 0
2.721 -0.092 -1.2180001 92 16 0
2.7249999 -0.090000004 -1.211 150 16 0
2.737 -0.088 -1.2079999 150 16 0
2.737 -0.085000001 -1.199 150 16 0
2.7360001 -0.082999997 -1.189 150 16 0
2.7460001 -0.081 -1.184 150 16 0
2.7460001 -0.079000004 -1.176 150 16 0
2.7490001 -0.077 -1.1670001 150 16 0
2.7490001 -0.075000003 -1.159 150 16 0
2.753 -0.072999999 -1.151 150 16 0
2.7609999 -0.071000002 -1.145 150 16 0
2.7590001 -0.068999998 -1.135 150 16 0
2.7609999 -0.067000002 -1.127 150 16 0
2.763 -0.064999998 -1.118 150 16 0
2.7690001 -0.063000001 -1.112 150 16 0
2.7690001 -0.061000001 -1.103 150 16 0
2.7750001 -0.059 -1.096 150 16 0
2.776 -0.057 -1.086 150 16 0
2.777 -0.055 -1.0779999 150 16 0
2.7839999 -0.054000001 -1.071 150 16 0
2.7880001 -0.052000001 -1.063 150 16 0
2.786 -0.050000001 -1.053 150 16 0
2.7869999 -0.048 -1.044 150 16 0
