# .PCD v0.7 - Point Cloud Data file format
VERSION 0.7
FIELDS x y z intensity tag line
SIZE 4 4 4 4 1 1
TYPE F F F F U U
COUNT 1 1 1 1 1 1
WIDTH 1345
HEIGHT 1
VIEWPOINT 0 0 0 1 0 0 0
POINTS 1345
DATA ascii
1.846 -0.574 -0.72299999 150 19 0
1.849 -0.56999999 -0.72000003 150 16 0
1.851 -0.56599998 -0.71700001 150 16 0
1.8609999 -0.56400001 -0.71700001 150 16 0
1.8660001 -0.56099999 -0.71499997 150 16 0
1.875 -0.55800003 -0.71399999 150 16 0
1.881 -0.55599999 -0.71200001 150 16 0
1.888 -0.55299997 -0.71100003 150 16 0
1.896 -0.55000001 -0.70999998 150 16 0
1.899 -0.546 -0.70700002 150 16 0
1.908 -0.54400003 -0.70599997 150 16 0
1.916 -0.54100001 -0.70499998 150 16 0
1.924 -0.53899997 -0.70300001 141 16 0
1.928 -0.53500003 -0.70099998 130 16 0
1.939 -0.53299999 -0.69999999 126 16 0
1.941 -0.52899998 -0.69700003 129 16 0
1.9529999 -0.52700001 -0.69599998 134 16 0
1.965 -0.52600002 -0.69599998 128 16 0
1.965 -0.52100003 -0.69199997 127 16 0
1.977 -0.51899999 -0.69099998 123 16 0
1.983 -0.51499999 -0.68900001 145 16 0
1.99 -0.51200002 -0.68599999 121 16 0
1.997 -0.509 -0.68400002 126 16 0
2.0039999 -0.50599998 -0.68199998 116 16 0
2.013 -0.50300002 -0.68000001 126 16 0
2.0179999 -0.5 -0.67699999 114 16 0
2.0280001 -0.49700001 -0.67500001 118 16 0
2.0369999 -0.495 -0.67400002 129 16 0
2.0469999 -0.49200001 -0.67199999 113 16 0
2.052 -0.48800001 -0.66900003 109 16 0
2.0580001 -0.48500001 -0.66600001 111 16 0
2.0650001 -0.48100001 -0.66299999 102 16 0
2.082 -0.47999999 -0.66299999 121 16 0
2.0929999 -0.47799999 -0.662 105 16 0
2.0999999 -0.47400001 -0.65899998 116 16 0
2.109 -0.47099999 -0.65600002 107 16 0
2.1199999 -0.46900001 -0.65499997 100 16 0
2.1229999 -0.465 -0.64999998 98 16 0
2.132 -0.46200001 -0.648 106 16 0
2.1389999 -0.458 -0.64499998 85 16 0
2.1500001 -0.456 -0.64300001 94 16 0
2.1600001 -0.45300001 -0.63999999 99 16 0
2.1659999 -0.449 -0.63599998 106 16 0
2.1730001 -0.44600001 -0.63300002 92 16 0
2.184 -0.44299999 -0.63099998 87 16 0
2.191 -0.43900001 -0.62699997 89 16 0
2.201 -0.43599999 -0.625 82 16 0
2.2060001 -0.43200001 -0.62099999 82 16 0
2.214 -0.42899999 -0.61699998 88 16 0
2.2219999 -0.42500001 -0.61400002 82 16 0
2.2290001 -0.42199999 -0.61000001 87 16 0
2.2409999 -0.419 -0.60699999 82 16 0
2.256 -0.417 -0.60600001 84 16 0
2.263 -0.41299999 -0.602 89 16 0
2.27 -0.40900001 -0.59799999 76 16 0
2.2750001 -0.405 -0.59299999 82 16 0
2.2880001 -0.40200001 -0.59100002 71 16 0
2.3 -0.39899999 -0.588 67 16 0
2.3080001 -0.396 -0.58399999 53 16 0
2.3180001 -0.39199999 -0.57999998 68 16 0
2.325 -0.389 -0.57599998 53 16 0
2.3299999 -0.384 -0.57099998 57 16 0
2.3429999 -0.382 -0.56900001 51 16 0
2.355 -0.37799999 -0.565 50 16 0
2.3659999 -0.375 -0.56199998 53 16 0
2.3699999 -0.37099999 -0.55599999 49 16 0
2.391 -0.36899999 -0.55500001 50 16 0
2.395 -0.36500001 -0.55000001 54 16 0
2.4059999 -0.361 -0.546 47 16 0
2.4170001 -0.35800001 -0.542 53 16 0
2.4200001 -0.35299999 -0.53600001 45 16 0
2.4319999 -0.34999999 -0.53299999 46 16 0
2.4419999 -0.34599999 -0.528 41 16 0
2.4549999 -0.34299999 -0.52499998 44 16 0
2.4590001 -0.33899999 -0.51899999 39 16 0
2.47 -0.33500001 -0.51499999 45 16 0
2.4779999 -0.331 -0.50999999 43 16 0
2.494 -0.32800001 -0.50700003 37 16 0
2.497 -0.324 -0.50099999 37 16 0
2.5079999 -0.31999999 -0.49599999 40 16 0
2.516 -0.31600001 -0.491 33 16 0
2.536 -0.31400001 -0.48800001 35 16 0
2.5450001 -0.31 -0.48300001 34 16 0
2.5550001 -0.30599999 -0.47799999 34 16 0
2.5610001 -0.301 -0.472 34 16 0
2.573 -0.29800001 -0.46799999 33 16 0
2.579 -0.29300001 -0.46200001 33 16 0
2.5899999 -0.28999999 -0.45699999 32 16 0
2.6029999 -0.28600001 -0.45199999 32 16 0
2.6170001 -0.28299999 -0.44800001 32 16 0
2.622 -0.278 -0.44100001 33 16 0
2.6429999 -0.27500001 -0.43799999 32 16 0
2.651 -0.271 -0.43200001 31 16 0
2.6619999 -0.26699999 -0.42699999 33 16 0
2.675 -0.26300001 -0.421 34 16 0
2.6830001 -0.259 -0.41499999 32 16 0
2.6949999 -0.255 -0.41 31 16 0
2.701 -0.25 -0.40400001 32 16 0
2.7119999 -0.24600001 -0.398 31 16 0
2.7179999 -0.242 -0.391 29 16 0
2.737 -0.23800001 -0.38699999 31 16 0
2.7420001 -0.234 -0.38 31 16 0
2.756 -0.23 -0.37400001 32 16 0
2.767 -0.226 -0.368 29 16 0
2.78 -0.222 -0.36199999 29 16 0
2.79 -0.21699999 -0.35600001 29 16 0
2.8 -0.213 -0.34999999 28 16 0
2.8169999 -0.20900001 -0.34400001 28 16 0
2.829 -0.205 -0.338 29 16 0
2.8399999 -0.20100001 -0.33199999 27 16 0
2.8540001 -0.19599999 -0.32499999 27 16 0
2.8640001 -0.192 -0.31900001 29 16 0
2.875 -0.18799999 -0.31200001 28 16 0
2.8900001 -0.183 -0.30599999 28 16 0
2.9030001 -0.17900001 -0.29899999 28 16 0
2.9130001 -0.175 -0.292 29 16 0
2.9300001 -0.17 -0.28600001 27 16 0
2.9389999 -0.16599999 -0.27900001 27 16 0
2.951 -0.161 -0.27200001 27 16 0
2.9619999 -0.15700001 -0.26499999 28 16 0
2.977 -0.152 -0.25799999 28 16 0
2.9879999 -0.148 -0.25099999 28 16 0
2.9990001 -0.14300001 -0.243 28 16 0
3.0239999 -0.139 -0.237 29 16 0
3.0350001 -0.134 -0.229 28 16 0
3.0480001 -0.13 -0.222 28 16 0
3.059 -0.125 -0.214 29 16 0
3.075 -0.12 -0.207 28 16 0
3.089 -0.116 -0.199 28 16 0
3.102 -0.111 -0.191 28 16 0
3.1129999 -0.106 -0.183 29 16 0
3.132 -0.102 -0.176 29 16 0
3.142 -0.097000003 -0.168 29 16 0
3.158 -0.092 -0.16 29 16 0
3.1760001 -0.086999997 -0.152 29 16 0
3.1919999 -0.082000002 -0.14399999 32 16 0
3.204 -0.077 -0.13500001 32 16 0
3.2179999 -0.071999997 -0.127 68 16 0
3.2249999 -0.067000002 -0.118 150 16 0
3.221 -0.061999999 -0.109 150 16 0
3.227 -0.057 -0.1 150 16 0
3.2279999 -0.050999999 -0.090999998 150 16 0
3.2279999 -0.046 -0.082000002 150 16 0
3.233 -0.041000001 -0.072999999 150 16 0
3.2320001 -0.035999998 -0.064000003 150 16 0
3.2320001 -0.030999999 -0.055 150 16 0
3.2349999 -0.025 -0.046 150 16 0
3.2349999 -0.02 -0.037 134 16 0
3.2379999 -0.015 -0.028000001 40 16 0
3.243 -0.0099999998 -0.017999999 24 16 0
3.2620001 -0.0049999999 -0.0089999996 18 16 0
3.277 0 0 19 16 0
3.293 0.0040000002 0.0080000004 18 16 0
3.3080001 0.0099999998 0.017999999 19 16 0
3.3199999 0.015 0.027000001 20 16 0
3.339 0.02 0.037 24 16 0
3.3469999 0.025 0.046 40 16 0
3.3610001 0.030999999 0.056000002 90 16 0
3.3659999 0.035999998 0.066 101 16 0
3.3570001 0.041000001 0.075000003 31 16 0
3.3410001 0.046 0.083999999 19 16 0
3.3280001 0.050999999 0.093999997 34 16 0
3.3099999 0.055 0.102 37 16 0
3.2839999 0.059999999 0.111 35 16 0
3.266 0.064999998 0.12 58 16 0
3.2650001 0.07 0.12899999 150 16 0
3.2639999 0.074000001 0.138 150 16 0
3.266 0.079000004 0.148 150 16 0
3.266 0.083999999 0.15700001 150 16 0
3.2650001 0.089000002 0.167 150 16 0
3.2639999 0.093999997 0.176 150 16 0
3.2690001 0.098999999 0.186 150 16 0
3.273 0.104 0.19599999 150 16 0
3.2709999 0.109 0.205 150 16 0
3.2750001 0.114 0.215 150 16 0
3.2750001 0.118 0.22400001 150 16 0
3.2809999 0.123 0.234 150 16 0
3.2780001 0.12800001 0.243 150 16 0
3.283 0.133 0.25299999 150 16 0
3.2820001 0.138 0.26300001 150 16 0
3.2839999 0.14300001 0.273 150 16 0
3.2880001 0.147 0.28299999 150 16 0
3.2869999 0.152 0.292 150 16 0
3.2869999 0.15700001 0.30199999 150 16 0
3.289 0.162 0.31200001 150 16 0
3.2920001 0.16599999 0.32100001 150 16 0
3.2950001 0.171 0.33199999 150 16 0
3.2939999 0.176 0.34099999 150 16 0
3.3010001 0.18099999 0.352 150 16 0
3.3039999 0.185 0.36199999 150 16 0
3.302 0.19 0.37099999 150 16 0
3.2939999 0.19400001 0.38 52 16 0
3.276 0.198 0.38800001 41 16 0
3.2590001 0.20100001 0.39500001 41 16 0
3.2420001 0.204 0.403 41 16 0
3.2249999 0.208 0.41 40 16 0
3.204 0.211 0.417 42 16 0
3.191 0.214 0.42500001 44 16 0
3.175 0.21699999 0.43200001 44 16 0
3.154 0.22 0.43900001 47 16 0
3.1440001 0.22400001 0.447 42 16 0
3.1259999 0.226 0.454 42 16 0
3.108 0.229 0.461 39 16 0
3.089 0.23199999 0.46700001 43 16 0
3.073 0.235 0.47400001 41 16 0
3.0580001 0.23800001 0.48100001 42 16 0
3.0369999 0.23999999 0.48699999 44 16 0
3.023 0.243 0.49399999 43 16 0
3.0020001 0.245 0.49900001 43 16 0
2.9890001 0.248 0.50599998 43 16 0
2.9790001 0.25099999 0.514 44 16 0
2.96 0.25299999 0.51999998 45 16 0
2.9449999 0.25600001 0.52600002 45 16 0
2.9330001 0.25799999 0.53299999 45 16 0
2.9230001 0.26100001 0.54000002 43 16 0
2.9119999 0.264 0.54699999 45 16 0
2.892 0.266 0.55199999 43 16 0
2.8800001 0.26800001 0.55900002 41 16 0
2.8659999 0.27000001 0.56400001 43 16 0
2.8499999 0.27200001 0.56999999 44 16 0
2.8369999 0.27500001 0.57599998 46 16 0
2.826 0.27700001 0.583 47 16 0
2.8150001 0.27900001 0.58899999 53 16 0
2.796 0.28099999 0.59399998 54 16 0
2.786 0.28299999 0.60100001 52 16 0
2.77 0.285 0.60600001 55 16 0
2.76 0.287 0.61199999 86 16 0
2.7460001 0.289 0.61799997 99 16 0
2.7309999 0.29100001 0.62300003 141 16 0
2.72 0.29300001 0.62900001 96 16 0
2.711 0.29499999 0.63499999 101 16 0
2.6960001 0.296 0.63999999 107 16 0
2.678 0.29699999 0.64399999 96 16 0
2.671 0.30000001 0.65100002 101 16 0
2.661 0.301 0.65700001 107 16 0
2.648 0.303 0.662 104 16 0
2.6370001 0.30500001 0.66799998 101 16 0
2.6259999 0.30599999 0.67299998 96 16 0
2.612 0.308 0.67799997 106 16 0
2.6029999 0.30899999 0.68400002 67 16 0
2.5899999 0.31099999 0.68900001 36 16 0
2.573 0.31099999 0.69300002 116 16 0
2.5639999 0.31299999 0.69800001 150 16 0
2.556 0.315 0.704 150 16 0
2.543 0.31600001 0.70899999 150 16 0
2.5280001 0.317 0.713 150 16 0
2.5220001 0.31900001 0.71899998 150 16 0
2.51 0.31999999 0.72399998 147 16 0
2.4990001 0.32100001 0.72899997 146 16 0
2.4890001 0.322 0.73400003 150 16 0
2.48 0.324 0.73900002 147 16 0
2.4660001 0.324 0.74299997 150 16 0
2.4549999 0.32499999 0.74800003 149 16 0
2.4419999 0.32600001 0.75199997 150 16 0
2.4319999 0.32699999 0.75599998 150 16 0
2.4189999 0.32699999 0.75999999 150 16 0
2.4130001 0.329 0.76599997 150 16 0
2.402 0.33000001 0.77100003 150 16 0
2.3900001 0.33000001 0.77499998 150 16 0
2.385 0.33199999 0.78100002 150 16 0
2.369 0.33199999 0.78299999 150 16 0
2.3659999 0.33399999 0.79000002 150 16 0
2.355 0.33399999 0.79400003 150 16 0
2.3469999 0.33500001 0.79900002 150 16 0
2.335 0.336 0.80299997 150 16 0
2.3239999 0.336 0.80699998 150 16 0
2.3180001 0.33700001 0.81199998 150 16 0
2.3080001 0.338 0.81599998 150 16 0
2.296 0.338 0.81999999 149 16 0
2.2869999 0.338 0.824 150 16 0
2.2780001 0.33899999 0.82800001 150 16 0
2.263 0.338 0.83099997 150 16 0
2.2590001 0.34 0.83600003 150 16 0
2.243 0.33899999 0.838 150 16 0
2.237 0.34 0.84299999 150 16 0
2.2290001 0.34 0.84799999 150 16 0
2.2260001 0.34200001 0.85399997 150 16 0
2.2119999 0.34099999 0.85600001 148 16 0
2.204 0.34099999 0.86000001 150 16 0
2.1960001 0.34200001 0.86400002 150 16 0
2.184 0.34099999 0.86699998 150 16 0
2.174 0.34099999 0.87 150 16 0
2.171 0.34200001 0.87599999 150 16 0
2.1570001 0.34200001 0.87699997 150 16 0
2.1470001 0.34099999 0.88099998 150 16 0
2.1400001 0.34200001 0.88499999 150 16 0
2.1359999 0.34200001 0.88999999 150 16 0
2.1259999 0.34200001 0.89300001 150 16 0
2.118 0.34200001 0.89700001 150 16 0
2.1059999 0.34099999 0.89899999 150 16 0
2.098 0.34099999 0.903 150 16 0
2.092 0.34099999 0.90700001 150 16 0
2.085 0.34200001 0.91100001 150 16 0
2.076 0.34099999 0.91399997 150 16 0
2.0710001 0.34099999 0.91900003 150 16 0
2.0599999 0.34099999 0.921 150 16 0
2.056 0.34099999 0.926 150 16 0
2.0469999 0.34 0.92799997 150 16 0
2.04 0.34 0.93199998 150 16 0
2.033 0.34 0.935 150 16 0
2.0250001 0.33899999 0.93900001 150 16 0
2.016 0.33899999 0.94099998 150 16 0
2.01 0.338 0.94499999 150 16 0
2.0020001 0.338 0.94800001 150 16 0
1.9960001 0.338 0.95200002 150 16 0
1.9859999 0.33700001 0.95300001 150 16 0
1.973 0.33500001 0.954 150 16 0
1.967 0.33500001 0.95700002 150 16 0
1.96 0.33399999 0.95999998 150 16 0
1.956 0.33399999 0.96499997 150 16 0
1.95 0.333 0.96799999 150 16 0
1.941 0.33199999 0.97000003 150 16 0
1.936 0.33199999 0.97399998 150 16 0
1.929 0.331 0.97600001 150 16 0
1.921 0.33000001 0.97899997 150 16 0
1.91 0.329 0.97899997 150 16 0
1.9069999 0.32800001 0.98299998 150 16 0
1.902 0.32800001 0.98699999 150 16 0
1.896 0.32699999 0.99000001 150 16 0
1.885 0.32499999 0.99000001 150 16 0
1.8789999 0.324 0.99299997 150 16 0
1.875 0.324 0.99699998 150 16 0
1.869 0.32300001 1 150 16 0
1.863 0.322 1.002 150 16 0
1.851 0.31999999 1.002 150 16 0
1.852 0.31999999 1.008 150 16 0
1.841 0.31799999 1.007 150 16 0
1.8380001 0.317 1.012 150 16 0
1.8329999 0.317 1.015 150 16 0
1.826 0.315 1.016 150 16 0
1.8200001 0.31400001 1.0190001 150 16 0
1.818 0.31299999 1.023 150 16 0
1.814 0.31200001 1.026 150 16 0
1.8049999 0.31099999 1.026 150 16 0
1.798 0.30899999 1.028 150 16 0
1.794 0.308 1.03 150 16 0
1.791 0.30700001 1.034 150 16 0
1.781 0.30500001 1.033 150 16 0
1.777 0.30399999 1.036 150 16 0
1.773 0.303 1.039 150 16 0
1.77 0.30199999 1.0420001 150 16 0
1.765 0.30000001 1.044 150 16 0
1.7589999 0.29899999 1.046 150 16 0
1.744 0.29499999 1.041 150 18 0
1.739 0.294 1.043 150 16 0
1.735 0.292 1.046 150 16 0
1.733 0.29100001 1.049 150 16 0
1.727 0.28999999 1.05 150 16 0
1.727 0.289 1.0549999 150 16 0
1.725 0.28799999 1.058 150 16 0
1.719 0.28600001 1.059 150 16 0
1.7180001 0.285 1.063 150 16 0
1.711 0.28200001 1.062 150 16 0
1.7079999 0.28099999 1.0650001 150 16 0
1.705 0.28 1.067 150 16 0
1.704 0.278 1.0700001 150 16 0
1.699 0.27599999 1.071 150 16 0
1.694 0.27399999 1.072 150 16 0
1.686 0.27200001 1.071 150 16 0
1.682 0.27000001 1.073 150 16 0
1.681 0.26899999 1.075 150 16 0
1.677 0.26699999 1.077 150 16 0
1.674 0.26499999 1.079 150 16 0
1.671 0.26300001 1.08 150 16 0
1.666 0.26100001 1.081 150 16 0
1.6619999 0.259 1.082 150 16 0
1.659 0.25799999 1.0829999 150 16 0
1.659 0.25600001 1.086 150 16 0
1.654 0.25400001 1.086 150 16 0
1.652 0.252 1.0880001 150 16 0
1.649 0.25 1.089 150 16 0
1.647 0.248 1.09 150 16 0
1.642 0.24600001 1.09 150 16 0
1.6440001 0.245 1.094 150 16 0
1.641 0.242 1.095 150 16 0
1.64 0.241 1.097 150 16 0
1.635 0.23800001 1.097 150 16 0
1.635 0.236 1.099 150 16 0
1.6339999 0.235 1.101 150 16 0
1.624 0.23100001 1.096 150 18 0
1.623 0.229 1.098 150 16 0
1.6210001 0.227 1.099 150 16 0
1.62 0.22499999 1.1 150 16 0
1.618 0.223 1.101 150 16 0
1.6160001 0.221 1.101 150 16 0
1.614 0.219 1.102 150 16 0
1.615 0.21699999 1.104 150 16 0
1.614 0.215 1.1059999 150 16 0
1.605 0.212 1.101 150 18 0
1.607 0.20999999 1.104 150 16 0
1.607 0.208 1.105 150 16 0
1.6059999 0.206 1.1059999 150 16 0
1.608 0.204 1.108 150 16 0
1.603 0.20200001 1.1059999 150 16 0
1.6059999 0.2 1.11 150 16 0
1.602 0.197 1.108 150 16 0
1.605 0.19499999 1.1109999 150 16 0
1.601 0.193 1.109 150 16 0
1.599 0.19 1.108 150 16 0
1.599 0.18799999 1.109 150 16 0
1.601 0.186 1.1109999 150 16 0
1.599 0.184 1.11 150 16 0
1.599 0.182 1.11 150 16 0
1.599 0.17900001 1.1109999 150 16 0
1.601 0.177 1.112 150 16 0
1.595 0.17399999 1.108 150 19 0
1.594 0.17200001 1.107 150 16 0
1.596 0.17 1.109 150 16 0
1.6 0.168 1.1109999 150 16 0
1.597 0.16500001 1.109 150 16 0
1.602 0.164 1.113 150 16 0
1.597 0.161 1.109 150 16 0
1.598 0.15899999 1.109 150 16 0
1.602 0.15700001 1.1109999 150 16 0
1.602 0.154 1.11 150 16 0
1.602 0.152 1.11 150 16 0
1.6 0.149 1.107 150 16 0
1.603 0.147 1.108 150 16 0
1.604 0.145 1.108 150 16 0
1.605 0.14300001 1.108 150 16 0
1.605 0.14 1.107 150 16 0
1.608 0.138 1.108 150 16 0
1.609 0.13600001 1.107 150 16 0
1.609 0.133 1.1059999 150 16 0
1.6109999 0.131 1.1059999 150 16 0
1.614 0.12899999 1.1059999 150 16 0
1.617 0.127 1.1059999 150 16 0
1.615 0.124 1.103 150 16 0
1.619 0.122 1.104 150 16 0
1.62 0.12 1.103 150 16 0
1.6210001 0.117 1.102 150 16 0
1.622 0.115 1.1 150 16 0
1.62 0.113 1.097 150 16 0
1.628 0.111 1.1 150 16 0
1.625 0.108 1.096 150 16 0
1.631 0.106 1.097 150 16 0
1.633 0.104 1.096 150 16 0
1.637 0.102 1.096 150 16 0
1.638 0.098999999 1.094 150 16 0
1.6390001 0.097000003 1.092 150 16 0
1.648 0.094999999 1.095 150 16 0
1.645 0.093000002 1.09 150 16 0
1.653 0.090999998 1.0930001 150 16 0
1.6569999 0.089000002 1.0930001 150 16 0
1.659 0.086999997 1.091 150 16 0
1.661 0.083999999 1.089 150 16 0
1.663 0.082000002 1.087 150 16 0
1.665 0.079999998 1.085 150 16 0
1.668 0.078000002 1.0829999 150 16 0
1.67 0.075999998 1.082 150 16 0
1.674 0.072999999 1.081 150 16 0
1.675 0.071000002 1.0779999 150 16 0
1.681 0.068999998 1.0779999 150 16 0
1.684 0.067000002 1.076 150 16 0
1.686 0.064999998 1.073 150 16 0
1.691 0.063000001 1.073 150 16 0
1.693 0.061000001 1.0700001 150 16 0
1.698 0.059 1.069 150 16 0
1.7029999 0.057 1.068 150 16 0
1.7079999 0.055 1.067 150 16 0
1.71 0.052999999 1.064 150 16 0
1.715 0.050999999 1.063 150 16 0
1.722 0.048999999 1.063 150 16 0
1.724 0.046999998 1.0599999 150 16 0
1.733 0.045000002 1.061 150 16 0
1.735 0.043000001 1.058 150 16 0
1.737 0.041000001 1.054 150 16 0
1.742 0.039000001 1.053 150 16 0
1.745 0.037 1.05 150 16 0
1.753 0.035 1.05 150 16 0
1.752 0.033 1.045 150 16 0
1.758 0.030999999 1.043 150 16 0
1.761 0.029999999 1.04 150 16 0
1.765 0.028000001 1.038 150 16 0
1.771 0.026000001 1.0369999 150 16 0
1.773 0.024 1.033 150 16 0
1.789 0.022 1.0369999 150 19 0
1.7920001 0.02 1.033 150 16 0
1.8 0.018999999 1.033 150 16 0
1.802 0.017000001 1.029 150 16 0
1.806 0.015 1.026 150 16 0
1.821 0.014 1.029 150 16 0
1.821 0.012 1.023 150 16 0
1.8279999 0.0099999998 1.022 150 16 0
1.832 0.0080000004 1.018 150 16 0
1.839 0.0070000002 1.017 150 16 0
1.845 0.0049999999 1.0140001 150 16 0
1.85 0.003 1.011 150 16 0
1.855 0.0020000001 1.008 150 16 0
1.864 0 1.007 150 16 0
1.869 -0.001 1.005 150 16 0
1.872 -0.0020000001 1 150 16 0
1.882 -0.0040000002 1 150 16 0
1.883 -0.0049999999 0.99400002 150 16 0
1.899 -0.0070000002 0.99599999 150 16 0
1.905 -0.0080000004 0.99400002 150 16 0
1.909 -0.0099999998 0.99000001 150 16 0
1.914 -0.011 0.986 150 16 0
1.924 -0.013 0.98500001 150 16 0
1.928 -0.014 0.98100001 150 16 0
1.937 -0.016000001 0.97899997 150 16 0
1.944 -0.017000001 0.97600001 150 16 0
1.951 -0.018999999 0.97399998 150 16 0
1.956 -0.02 0.97000003 150 16 0
1.9630001 -0.021 0.96700001 150 16 0
1.971 -0.023 0.96399999 150 16 0
1.9809999 -0.024 0.963 150 16 0
1.989 -0.025 0.95999998 150 16 0
1.992 -0.027000001 0.95499998 150 16 0
1.998 -0.028000001 0.95099998 150 16 0
2.0039999 -0.028999999 0.94800001 150 16 0
2.0209999 -0.030999999 0.949 150 16 0
2.023 -0.032000002 0.94300002 150 16 0
2.033 -0.033 0.94099998 150 16 0
2.0420001 -0.034000002 0.93800002 148 16 0
2.053 -0.035999998 0.93599999 145 16 0
2.056 -0.037 0.93099999 141 16 0
2.0669999 -0.037999999 0.92900002 138 16 0
2.0710001 -0.039000001 0.92400002 144 16 0
2.076 -0.039999999 0.91900003 125 16 0
2.086 -0.041000001 0.91600001 132 16 0
2.098 -0.041999999 0.91500002 146 16 0
2.105 -0.043000001 0.91100001 137 16 0
2.1129999 -0.045000002 0.90700001 135 16 0
2.1170001 -0.046 0.90100002 130 16 0
2.131 -0.046999998 0.89999998 124 16 0
2.1359999 -0.048 0.89499998 119 16 0
2.1440001 -0.048999999 0.89099997 124 16 0
2.1570001 -0.050000001 0.889 133 16 0
2.1619999 -0.050999999 0.884 125 16 0
2.1670001 -0.050999999 0.87900001 125 16 0
2.177 -0.052000001 0.875 120 16 0
2.1889999 -0.052999999 0.87300003 122 16 0
2.1949999 -0.054000001 0.86699998 116 16 0
2.2079999 -0.055 0.86500001 125 16 0
2.2130001 -0.056000002 0.85900003 133 16 0
2.227 -0.057 0.85799998 123 16 0
2.234 -0.057 0.852 106 16 0
2.2409999 -0.057999998 0.847 103 16 0
2.2539999 -0.059 0.84500003 132 16 0
2.2639999 -0.059999999 0.84100002 131 16 0
2.266 -0.059999999 0.83399999 117 16 0
2.2809999 -0.061000001 0.83200002 115 16 0
2.2920001 -0.061999999 0.82800001 119 16 0
2.3 -0.063000001 0.82300001 108 16 0
2.3069999 -0.063000001 0.81800002 111 16 0
2.322 -0.064000003 0.815 101 16 0
2.329 -0.064999998 0.80900002 104 16 0
2.345 -0.064999998 0.80699998 105 16 0
2.3529999 -0.066 0.80199999 108 16 0
2.3640001 -0.066 0.79699999 109 16 0
2.372 -0.067000002 0.792 114 16 0
2.381 -0.067000002 0.787 115 16 0
2.3870001 -0.068000004 0.78100002 105 16 0
2.401 -0.068000004 0.778 107 16 0
2.4119999 -0.068999998 0.773 109 16 0
2.4200001 -0.068999998 0.76700002 114 16 0
2.431 -0.07 0.76200002 141 16 0
2.441 -0.07 0.75700003 116 16 0
2.451 -0.071000002 0.75199997 113 16 0
2.461 -0.071000002 0.74699998 110 16 0
2.4719999 -0.071000002 0.74199998 76 16 0
2.484 -0.071999997 0.73699999 65 16 0
2.4909999 -0.071999997 0.73100001 71 16 0
2.5109999 -0.071999997 0.72799999 71 16 0
2.516 -0.071999997 0.72100002 58 16 0
2.5309999 -0.072999999 0.71700001 60 16 0
2.54 -0.072999999 0.71100003 68 16 0
2.553 -0.072999999 0.70599997 62 16 0
2.5669999 -0.074000001 0.70099998 61 16 0
2.5780001 -0.074000001 0.69599998 45 16 0
2.5969999 -0.074000001 0.69199997 55 16 0
2.6110001 -0.074000001 0.68699998 52 16 0
2.6210001 -0.074000001 0.68099999 48 16 0
2.6329999 -0.074000001 0.67500001 37 16 0
2.6459999 -0.074000001 0.67000002 43 16 0
2.6589999 -0.075000003 0.66399997 38 16 0
2.671 -0.075000003 0.65799999 38 16 0
2.677 -0.074000001 0.65100002 37 16 0
2.6919999 -0.074000001 0.64499998 41 16 0
2.7060001 -0.074000001 0.63999999 40 16 0
2.721 -0.074000001 0.634 37 16 0
2.7290001 -0.074000001 0.62699997 39 16 0
2.7449999 -0.074000001 0.62099999 37 16 0
2.76 -0.074000001 0.616 33 16 0
2.7739999 -0.074000001 0.61000001 31 16 0
2.7850001 -0.074000001 0.60299999 31 16 0
2.8 -0.074000001 0.59600002 26 16 0
2.8139999 -0.074000001 0.58999997 25 16 0
2.832 -0.072999999 0.58499998 28 16 0
2.845 -0.072999999 0.57800001 31 16 0
2.859 -0.072999999 0.57099998 31 16 0
2.8710001 -0.071999997 0.56400001 30 16 0
2.891 -0.071999997 0.55900002 31 16 0
2.908 -0.071999997 0.55199999 31 16 0
2.9159999 -0.071999997 0.54400003 30 16 0
2.938 -0.071000002 0.53899997 30 16 0
2.948 -0.071000002 0.53100002 31 16 0
2.9690001 -0.07 0.52499998 30 16 0
2.9849999 -0.07 0.51800001 31 16 0
2.994 -0.068999998 0.509 31 16 0
3.0109999 -0.068999998 0.50199997 31 16 0
3.0280001 -0.068000004 0.49599999 30 16 0
3.052 -0.068000004 0.48899999 31 16 0
3.0610001 -0.067000002 0.48100001 30 16 0
3.082 -0.067000002 0.47400001 30 16 0
3.1029999 -0.066 0.46700001 27 16 0
3.1159999 -0.066 0.45899999 27 16 0
3.1370001 -0.064999998 0.45199999 28 16 0
3.158 -0.064000003 0.44400001 27 16 0
3.175 -0.064000003 0.43700001 27 16 0
3.194 -0.063000001 0.42899999 29 16 0
3.2079999 -0.061999999 0.41999999 29 16 0
3.2290001 -0.061000001 0.412 29 16 0
3.2490001 -0.059999999 0.405 29 16 0
3.2690001 -0.059999999 0.396 29 16 0
3.283 -0.059 0.38699999 30 16 0
3.3050001 -0.057999998 0.37900001 29 16 0
3.326 -0.057 0.37099999 29 16 0
3.339 -0.056000002 0.36199999 27 16 0
3.362 -0.055 0.35299999 29 16 0
3.3829999 -0.054000001 0.345 30 16 0
3.4000001 -0.052000001 0.33500001 47 16 0
3.408 -0.050999999 0.32499999 135 16 0
3.402 -0.050000001 0.31299999 68 16 0
3.392 -0.048 0.30199999 65 16 0
3.3870001 -0.046 0.28999999 60 16 0
3.3829999 -0.045000002 0.27900001 63 16 0
3.3729999 -0.043000001 0.26699999 66 16 0
3.3699999 -0.041999999 0.25600001 66 16 0
3.365 -0.039999999 0.245 73 16 0
3.359 -0.037999999 0.234 81 16 0
3.3540001 -0.037 0.223 69 16 0
3.346 -0.035 0.211 66 16 0
3.336 -0.033 0.2 74 16 0
3.335 -0.032000002 0.189 73 16 0
3.3269999 -0.029999999 0.178 58 16 0
3.319 -0.028000001 0.167 85 16 0
3.313 -0.026000001 0.156 86 16 0
3.306 -0.025 0.145 90 16 0
3.303 -0.023 0.134 93 16 0
3.3 -0.021 0.124 92 16 0
3.296 -0.018999999 0.113 61 16 0
3.2880001 -0.017999999 0.102 44 16 0
3.279 -0.016000001 0.092 32 16 0
3.2820001 -0.014 0.081 26 16 0
3.277 -0.012 0.071000002 21 16 0
3.2809999 -0.0099999998 0.059999999 19 16 0
3.2780001 -0.0089999996 0.050000001 16 16 0
3.2809999 -0.0070000002 0.039000001 16 16 0
3.279 -0.0049999999 0.028999999 16 16 0
3.283 -0.003 0.017999999 16 16 0
3.279 -0.001 0.0080000004 16 16 0
3.2780001 0 -0.0020000001 15 16 0
3.279 0.0020000001 -0.012 16 16 0
3.279 0.0040000002 -0.022 17 16 0
3.2780001 0.0060000001 -0.033 16 16 0
3.279 0.0080000004 -0.043000001 17 16 0
3.279 0.0099999998 -0.054000001 17 16 0
3.2850001 0.012 -0.064000003 17 16 0
3.2820001 0.014 -0.075000003 19 16 0
3.283 0.016000001 -0.085000001 20 16 0
3.283 0.017999999 -0.096000001 23 16 0
3.2850001 0.02 -0.106 29 16 0
3.2809999 0.022 -0.116 37 16 0
3.277 0.024 -0.127 43 16 0
3.2720001 0.027000001 -0.13699999 52 16 0
3.2539999 0.028999999 -0.146 51 16 0
3.2539999 0.030999999 -0.156 59 16 0
3.2509999 0.033 -0.167 54 16 0
3.2449999 0.035 -0.177 53 16 0
3.2349999 0.037 -0.186 56 16 0
3.2309999 0.039000001 -0.197 58 16 0
3.2279999 0.041999999 -0.207 55 16 0
3.224 0.044 -0.21600001 45 16 0
3.2190001 0.046 -0.226 43 16 0
3.211 0.048 -0.236 39 16 0
3.2079999 0.050999999 -0.24600001 39 16 0
3.201 0.052999999 -0.255 39 16 0
3.197 0.055 -0.26499999 41 16 0
3.1919999 0.057 -0.27500001 45 16 0
3.181 0.059999999 -0.28400001 51 16 0
3.1789999 0.061999999 -0.294 53 16 0
3.171 0.064000003 -0.303 50 16 0
3.168 0.066 -0.31299999 56 16 0
3.1600001 0.068999998 -0.322 51 16 0
3.1559999 0.071000002 -0.33199999 51 16 0
3.152 0.072999999 -0.34099999 54 16 0
3.145 0.075999998 -0.35100001 48 16 0
3.141 0.078000002 -0.36000001 50 16 0
3.135 0.081 -0.36899999 49 16 0
3.1259999 0.082999997 -0.37799999 48 16 0
3.1210001 0.085000001 -0.38800001 59 16 0
3.1140001 0.088 -0.39700001 49 16 0
3.1070001 0.090000004 -0.405 53 16 0
3.1029999 0.092 -0.41499999 66 16 0
3.1010001 0.094999999 -0.42399999 64 16 0
3.096 0.097000003 -0.433 50 16 0
3.0929999 0.1 -0.44299999 85 16 0
3.086 0.102 -0.45100001 82 16 0
3.075 0.105 -0.46000001 84 16 0
3.0739999 0.107 -0.46900001 85 16 0
3.069 0.11 -0.47799999 95 16 0
3.062 0.112 -0.48699999 82 16 0
3.0539999 0.115 -0.495 82 16 0
3.053 0.118 -0.505 87 16 0
3.0409999 0.12 -0.51200002 83 16 0
3.0409999 0.123 -0.52200001 88 16 0
3.036 0.125 -0.53100002 86 16 0
3.03 0.12800001 -0.53899997 91 16 0
3.0239999 0.13 -0.54799998 84 16 0
3.0220001 0.133 -0.55699998 92 16 0
3.016 0.13600001 -0.56599998 85 16 0
3.006 0.138 -0.57300001 83 16 0
3.0039999 0.141 -0.58200002 85 16 0
3 0.14399999 -0.59100002 72 16 0
2.9909999 0.146 -0.59899998 69 16 0
2.9879999 0.149 -0.60699999 89 16 0
2.98 0.152 -0.61500001 75 16 0
2.9779999 0.154 -0.62400001 81 16 0
2.9760001 0.15700001 -0.63300002 81 16 0
2.97 0.16 -0.64099997 80 16 0
2.9690001 0.163 -0.65100002 81 16 0
2.9579999 0.16500001 -0.65799999 70 16 0
2.951 0.168 -0.66500002 81 16 0
2.947 0.171 -0.67400002 85 16 0
2.937 0.17399999 -0.68099999 81 16 0
2.9349999 0.177 -0.69 109 16 0
2.934 0.18000001 -0.699 117 16 0
2.924 0.182 -0.70499998 133 16 0
2.9170001 0.185 -0.713 113 16 0
2.918 0.18799999 -0.72299999 116 16 0
2.9159999 0.191 -0.73100001 121 16 0
2.9100001 0.19400001 -0.73900002 125 16 0
2.9030001 0.197 -0.74599999 118 16 0
2.895 0.2 -0.75300002 122 16 0
2.8929999 0.20299999 -0.76200002 136 16 0
2.888 0.206 -0.76999998 130 16 0
2.878 0.208 -0.77600002 132 16 0
2.868 0.211 -0.78299999 121 16 0
2.865 0.214 -0.79100001 118 16 0
2.858 0.21699999 -0.79799998 128 16 0
2.8559999 0.22 -0.80599999 130 16 0
2.8529999 0.223 -0.81400001 117 16 0
2.845 0.226 -0.82099998 150 16 0
2.842 0.229 -0.829 145 16 0
2.8369999 0.233 -0.83700001 148 16 0
2.835 0.236 -0.84500003 150 16 0
2.8280001 0.23899999 -0.852 150 16 0
2.822 0.242 -0.85900003 146 16 0
2.8180001 0.245 -0.86699998 148 16 0
2.8139999 0.248 -0.87400001 148 16 0
2.8110001 0.252 -0.88200003 150 16 0
2.8069999 0.255 -0.88999999 150 16 0
2.7969999 0.25799999 -0.89499998 150 16 0
2.7939999 0.26100001 -0.903 150 16 0
2.79 0.264 -0.91000003 150 16 0
2.786 0.26800001 -0.91799998 150 16 0
2.776 0.271 -0.92299998 150 16 0
2.7720001 0.27399999 -0.93099999 150 16 0
2.7620001 0.27700001 -0.93599999 150 16 0
2.766 0.28099999 -0.94599998 150 16 0
2.756 0.28400001 -0.95099998 149 16 0
2.757 0.287 -0.95999998 149 16 0
2.76 0.292 -0.96899998 86 16 0
2.756 0.29499999 -0.97600001 19 16 0
0 0 0 0 16 0
4.1240001 0.45300001 -1.487 0 17 0
0 0 0 0 16 0
0 0 0 0 16 0
0 0 0 0 16 0
3.1500001 0.36500001 -1.175 0 18 0
3.161 0.37099999 -1.188 0 16 0
3.135 0.37200001 -1.188 0 16 0
4.1729999 0.50199997 -1.595 0 17 0
3.1459999 0.38299999 -1.212 0 17 0
0 0 0 0 16 0
2.7 0.33700001 -1.057 15 17 0
2.687 0.33899999 -1.059 77 16 0
2.677 0.34200001 -1.064 150 16 0
2.681 0.347 -1.073 150 16 0
2.6700001 0.34999999 -1.077 150 16 0
2.6619999 0.35299999 -1.082 150 16 0
2.654 0.35600001 -1.087 150 16 0
2.6489999 0.36000001 -1.0930001 150 16 0
2.6459999 0.36399999 -1.099 150 16 0
2.6429999 0.36700001 -1.1059999 150 16 0
2.638 0.37099999 -1.1109999 150 16 0
2.6340001 0.375 -1.117 150 16 0
2.6300001 0.37900001 -1.124 150 16 0
2.6270001 0.38299999 -1.13 150 16 0
2.622 0.38600001 -1.136 150 16 0
2.619 0.38999999 -1.142 150 16 0
2.612 0.39300001 -1.147 150 16 0
2.608 0.39700001 -1.153 150 16 0
2.5999999 0.40099999 -1.1569999 150 16 0
2.5969999 0.405 -1.163 150 16 0
2.5929999 0.40900001 -1.168 150 16 0
2.5899999 0.41299999 -1.174 150 16 0
2.586 0.417 -1.1799999 150 16 0
2.579 0.41999999 -1.184 150 16 0
2.579 0.42399999 -1.191 150 16 0
2.5710001 0.428 -1.1950001 150 16 0
2.5680001 0.43200001 -1.201 150 16 0
2.5599999 0.435 -1.204 150 16 0
2.5610001 0.44 -1.212 150 16 0
2.553 0.44299999 -1.215 150 16 0
2.55 0.447 -1.221 150 16 0
2.5420001 0.45100001 -1.224 150 16 0
2.5420001 0.45500001 -1.2309999 150 16 0
2.5369999 0.45899999 -1.2359999 150 16 0
2.5339999 0.463 -1.2410001 150 16 0
2.529 0.46700001 -1.245 150 16 0
2.5239999 0.47099999 -1.249 150 16 0
2.5209999 0.47499999 -1.255 150 16 0
2.513 0.479 -1.257 150 16 0
2.5120001 0.48300001 -1.263 150 16 0
2.506 0.48699999 -1.267 150 16 0
2.506 0.49200001 -1.273 150 16 0
2.5020001 0.49599999 -1.278 150 16 0
2.494 0.49900001 -1.28 150 16 0
2.4960001 0.50400001 -1.2869999 150 16 0
2.4879999 0.50700003 -1.289 150 16 0
2.484 0.51200002 -1.293 150 16 0
2.4779999 0.51499999 -1.296 150 16 0
2.4749999 0.51999998 -1.301 150 16 0
2.471 0.52399999 -1.3049999 150 16 0
2.4660001 0.52700001 -1.308 150 16 0
2.4649999 0.53200001 -1.313 150 16 0
2.46 0.53600001 -1.316 150 16 0
2.461 0.54100001 -1.322 150 16 0
2.454 0.54400003 -1.324 150 16 0
2.451 0.54900002 -1.3279999 150 16 0
2.447 0.55299997 -1.332 150 16 0
2.441 0.55599999 -1.3329999 150 16 0
2.441 0.56099999 -1.339 150 16 0
2.438 0.56599998 -1.3430001 150 16 0
2.4289999 0.56800002 -1.3430001 150 16 0
2.4260001 0.57300001 -1.346 150 16 0
2.4230001 0.57700002 -1.35 150 16 0
2.4200001 0.58099997 -1.353 150 16 0
2.418 0.58499998 -1.3559999 150 16 0
2.415 0.58999997 -1.36 150 16 0
2.4119999 0.59399998 -1.363 150 16 0
2.4070001 0.59799999 -1.365 150 16 0
2.4059999 0.602 -1.369 150 16 0
2.404 0.60600001 -1.372 150 16 0
2.398 0.61000001 -1.373 150 16 0
2.3940001 0.61400002 -1.375 150 16 0
2.391 0.61799997 -1.377 150 16 0
2.391 0.62300003 -1.381 145 16 0
2.385 0.62599999 -1.382 150 16 0
2.382 0.63 -1.3839999 150 16 0
2.378 0.634 -1.386 150 16 0
2.3770001 0.639 -1.3890001 137 16 0
2.372 0.64200002 -1.39 150 16 0
2.368 0.64600003 -1.391 150 16 0
2.3699999 0.65100002 -1.395 150 16 0
2.365 0.65399998 -1.396 150 16 0
2.359 0.65799999 -1.396 150 16 0
2.3570001 0.662 -1.398 147 16 0
2.358 0.667 -1.402 150 16 0
2.3540001 0.67000002 -1.402 150 16 0
2.345 0.67199999 -1.399 150 16 0
2.349 0.67799997 -1.404 142 16 0
2.3469999 0.68199998 -1.406 141 16 0
2.3429999 0.685 -1.406 150 16 0
2.3429999 0.69 -1.408 147 16 0
2.3340001 0.69199997 -1.406 148 16 0
2.329 0.69499999 -1.405 145 16 0
2.325 0.69800001 -1.405 150 16 0
2.329 0.704 -1.409 150 16 0
2.3269999 0.708 -1.41 150 16 0
2.3239999 0.71100003 -1.41 150 16 0
2.319 0.71399999 -1.408 150 16 0
2.319 0.71799999 -1.41 150 16 0
2.316 0.72100002 -1.41 150 16 0
2.312 0.72500002 -1.409 150 16 0
2.3139999 0.72899997 -1.4119999 150 16 0
2.3110001 0.73299998 -1.411 150 16 0
2.3069999 0.73500001 -1.409 150 16 0
2.306 0.73900002 -1.41 150 16 0
2.3050001 0.74299997 -1.41 150 16 0
2.303 0.74599999 -1.409 150 16 0
2.303 0.75 -1.41 150 16 0
2.303 0.75400001 -1.411 150 16 0
2.3010001 0.75700003 -1.41 150 16 0
2.299 0.75999999 -1.409 150 16 0
2.3 0.764 -1.41 150 16 0
2.2969999 0.76700002 -1.408 150 16 0
2.2939999 0.76899999 -1.406 150 16 0
2.2950001 0.773 -1.406 150 16 0
2.29 0.77499998 -1.403 150 16 0
2.2909999 0.77899998 -1.403 150 16 0
2.29 0.78200001 -1.402 150 16 0
2.29 0.78500003 -1.402 150 16 0
2.289 0.78899997 -1.4 150 16 0
2.289 0.792 -1.399 150 16 0
2.289 0.79500002 -1.398 150 16 0
2.2869999 0.79699999 -1.396 150 16 0
2.286 0.80000001 -1.3940001 149 16 0
2.283 0.80199999 -1.391 150 16 0
2.286 0.80599999 -1.392 150 16 0
2.2850001 0.80800003 -1.39 150 16 0
2.2880001 0.81199998 -1.39 150 16 0
2.2880001 0.815 -1.388 150 16 0
2.2820001 0.81599998 -1.383 150 16 0
2.2809999 0.81800002 -1.38 150 16 0
2.2869999 0.82200003 -1.382 150 16 0
2.2820001 0.82300001 -1.377 150 16 0
2.279 0.82499999 -1.373 150 16 0
2.283 0.82800001 -1.372 150 16 0
2.283 0.83099997 -1.37 150 16 0
2.2750001 0.82999998 -1.363 150 19 0
2.2820001 0.83399999 -1.364 150 16 0
2.2780001 0.83499998 -1.359 150 16 0
2.276 0.83600003 -1.355 150 16 0
2.277 0.83899999 -1.353 150 16 0
2.2780001 0.84100002 -1.35 150 16 0
2.279 0.84299999 -1.348 150 16 0
2.279 0.84500003 -1.344 150 16 0
2.283 0.84799999 -1.3430001 150 16 0
2.2809999 0.84899998 -1.3380001 150 16 0
2.2820001 0.85000002 -1.336 150 16 0
2.283 0.852 -1.3329999 150 16 0
2.2809999 0.85299999 -1.3279999 150 16 0
2.2850001 0.85600001 -1.326 150 16 0
2.286 0.85699999 -1.323 150 16 0
2.286 0.85799998 -1.319 150 16 0
2.2869999 0.86000001 -1.316 150 16 0
2.29 0.86199999 -1.313 150 16 0
2.289 0.86199999 -1.308 150 16 0
2.2920001 0.86400002 -1.3049999 150 16 0
2.2950001 0.866 -1.303 150 16 0
2.2909999 0.86500001 -1.296 150 16 0
2.296 0.86699998 -1.294 150 16 0
2.2980001 0.86900002 -1.291 150 16 0
2.296 0.86900002 -1.285 150 16 0
2.3010001 0.87099999 -1.2819999 150 16 0
2.299 0.87 -1.277 150 16 0
2.3010001 0.87099999 -1.273 150 16 0
2.3050001 0.87300003 -1.27 150 16 0
2.309 0.87400001 -1.267 150 16 0
2.3069999 0.87400001 -1.261 150 16 0
2.3110001 0.875 -1.257 150 16 0
2.3150001 0.87599999 -1.2539999 150 16 0
2.3139999 0.87599999 -1.248 150 16 0
2.3169999 0.87699997 -1.244 150 16 0
2.3169999 0.87599999 -1.239 150 16 0
2.3199999 0.87699997 -1.235 150 16 0
2.3239999 0.87800002 -1.232 150 16 0
2.3269999 0.87800002 -1.227 150 16 0
2.3269999 0.87699997 -1.221 150 16 0
2.3310001 0.87800002 -1.2180001 150 16 0
2.336 0.87900001 -1.215 150 16 0
2.3299999 0.87599999 -1.205 150 16 0
2.336 0.87800002 -1.202 150 16 0
2.339 0.87699997 -1.198 150 16 0
2.3380001 0.87599999 -1.191 150 16 0
2.3440001 0.87699997 -1.188 150 16 0
2.346 0.87699997 -1.183 150 16 0
2.349 0.87599999 -1.178 150 16 0
2.3510001 0.87599999 -1.173 150 16 0
2.3559999 0.87599999 -1.169 150 16 0
2.3570001 0.875 -1.163 150 16 0
2.362 0.875 -1.159 150 16 0
2.3629999 0.87400001 -1.153 150 16 0
2.3640001 0.87199998 -1.147 150 16 0
2.3699999 0.87300003 -1.143 150 16 0
2.3710001 0.87099999 -1.137 150 16 0
2.3740001 0.87 -1.132 150 16 0
2.375 0.86900002 -1.126 150 16 0
2.378 0.86799997 -1.12 150 16 0
2.381 0.86699998 -1.115 150 16 0
2.3859999 0.86699998 -1.1109999 150 16 0
2.3889999 0.86500001 -1.105 150 16 0
2.3900001 0.86299998 -1.099 150 16 0
2.395 0.86299998 -1.094 150 16 0
2.398 0.86199999 -1.089 150 16 0
2.401 0.86000001 -1.0829999 150 16 0
2.404 0.85900003 -1.0779999 150 16 0
2.4070001 0.85699999 -1.072 150 16 0
2.4119999 0.85600001 -1.067 150 16 0
2.411 0.85299999 -1.0599999 150 16 0
2.418 0.852 -1.0549999 150 16 0
2.4219999 0.85100001 -1.05 150 16 0
2.425 0.84899998 -1.044 150 16 0
2.428 0.847 -1.039 150 16 0
2.431 0.84500003 -1.033 150 16 0
2.434 0.84299999 -1.027 150 16 0
2.437 0.84100002 -1.021 150 16 0
2.4400001 0.83899999 -1.015 150 16 0
2.4449999 0.838 -1.01 150 16 0
2.4489999 0.83499998 -1.0039999 150 16 0
2.4519999 0.833 -0.99800003 150 16 0
2.4560001 0.83099997 -0.99299997 150 16 0
2.461 0.829 -0.98699999 150 16 0
2.4630001 0.82700002 -0.98100001 150 16 0
2.4690001 0.82499999 -0.97600001 150 16 0
2.4660001 0.81999999 -0.96799999 126 16 0
2.477 0.82099998 -0.96499997 24 16 0
2.4809999 0.81800002 -0.95899999 10 16 0
2.4890001 0.81699997 -0.95499998 1 16 0
2.5569999 0.83499998 -0.97299999 1 17 0
2.527 0.82200003 -0.954 4 16 0
2.4519999 0.79400003 -0.91900003 9 16 0
2.441 0.78600001 -0.90700001 15 16 0
2.4460001 0.78399998 -0.90200001 16 16 0
2.451 0.78100002 -0.89700001 7 16 0
2.471 0.78399998 -0.89700001 0 16 0
2.6040001 0.82200003 -0.93699998 0 18 0
2.6059999 0.81800002 -0.93000001 0 16 0
2.5409999 0.79400003 -0.89999998 1 17 0
2.5350001 0.787 -0.88999999 23 16 0
2.5309999 0.78200001 -0.88099998 150 16 0
2.5380001 0.77999997 -0.87699997 150 16 0
2.539 0.77499998 -0.86900002 150 16 0
2.5420001 0.77200001 -0.86299998 150 16 0
2.5480001 0.76999998 -0.85799998 150 16 0
2.5510001 0.76599997 -0.85100001 150 16 0
2.5539999 0.76200002 -0.84500003 150 16 0
2.5569999 0.759 -0.83899999 150 16 0
2.5599999 0.755 -0.83200002 150 16 0
2.5650001 0.75199997 -0.82599998 150 16 0
2.569 0.74800003 -0.81999999 150 16 0
2.572 0.74400002 -0.81400001 150 16 0
2.575 0.741 -0.80699998 150 16 0
2.5869999 0.73900002 -0.80400002 150 16 0
2.5929999 0.736 -0.79799998 150 16 0
2.5969999 0.73199999 -0.792 150 16 0
2.6040001 0.72899997 -0.787 150 16 0
2.609 0.72600001 -0.78100002 150 16 0
2.609 0.72100002 -0.77399999 150 16 0
2.615 0.71799999 -0.76800001 150 16 0
2.618 0.713 -0.76099998 150 16 0
2.6270001 0.71100003 -0.75700003 150 16 0
2.6270001 0.70599997 -0.74900001 150 16 0
2.6329999 0.70200002 -0.74400002 150 16 0
2.6359999 0.69800001 -0.73699999 150 16 0
2.642 0.69400001 -0.73199999 150 16 0
2.645 0.69 -0.72500002 150 16 0
2.6500001 0.68599999 -0.71899998 150 16 0
2.6559999 0.68199998 -0.713 150 16 0
2.6600001 0.67799997 -0.70700002 150 16 0
2.6689999 0.67500001 -0.70200002 150 16 0
2.674 0.67000002 -0.69599998 150 16 0
2.677 0.66600001 -0.69 150 16 0
2.6800001 0.66100001 -0.68300003 150 16 0
2.6860001 0.65700001 -0.67699999 150 16 0
2.691 0.653 -0.671 150 16 0
2.6989999 0.64899999 -0.66600001 150 16 0
2.7 0.64399999 -0.65899998 150 16 0
2.7079999 0.63999999 -0.653 150 16 0
2.711 0.63499999 -0.64700001 150 16 0
2.7149999 0.63 -0.64099997 150 16 0
2.7219999 0.62599999 -0.63499999 150 16 0
2.7249999 0.62099999 -0.62800002 150 16 0
2.727 0.616 -0.62199998 150 16 0
2.733 0.611 -0.616 150 16 0
2.74 0.60699999 -0.61000001 150 16 0
2.7449999 0.602 -0.60399997 150 16 0
2.747 0.597 -0.597 150 16 0
2.76 0.59399998 -0.59299999 150 16 0
2.766 0.58899999 -0.58700001 150 16 0
2.767 0.58399999 -0.57999998 150 16 0
2.7780001 0.57999998 -0.57499999 150 16 0
2.7739999 0.57300001 -0.56699997 150 16 0
2.783 0.56900001 -0.56199998 150 16 0
2.7920001 0.565 -0.55599999 150 16 0
2.7950001 0.55900002 -0.55000001 150 16 0
2.8069999 0.55500001 -0.54500002 150 16 0
2.803 0.54900002 -0.537 150 16 0
2.8110001 0.54400003 -0.53100002 150 16 0
2.816 0.53899997 -0.52499998 150 16 0
2.822 0.53399998 -0.51899999 150 16 0
2.8299999 0.52899998 -0.51300001 150 16 0
2.8329999 0.52399999 -0.50700003 150 16 0
2.839 0.51800001 -0.50099999 150 16 0
2.842 0.51200002 -0.49399999 150 16 0
2.8529999 0.50800002 -0.48899999 150 16 0
2.8559999 0.50199997 -0.48199999 150 16 0
2.8599999 0.49700001 -0.47600001 150 16 0
2.869 0.49200001 -0.47 150 16 0
2.8710001 0.486 -0.463 150 16 0
2.878 0.47999999 -0.45699999 150 16 0
2.882 0.47499999 -0.45100001 150 16 0
2.8859999 0.46900001 -0.44400001 150 16 0
2.8929999 0.463 -0.43799999 150 16 0
2.902 0.458 -0.433 150 16 0
2.9119999 0.45300001 -0.42699999 150 16 0
2.9130001 0.447 -0.41999999 150 16 0
2.9219999 0.442 -0.41499999 150 16 0
2.924 0.435 -0.40799999 150 16 0
2.9319999 0.43000001 -0.40200001 150 16 0
2.9419999 0.42399999 -0.396 150 16 0
2.9460001 0.41800001 -0.38999999 150 16 0
2.948 0.412 -0.38299999 150 16 0
2.9590001 0.40599999 -0.377 150 16 0
2.9630001 0.40000001 -0.37099999 150 16 0
2.97 0.39399999 -0.36500001 150 16 0
2.9760001 0.38800001 -0.35800001 150 16 0
2.98 0.382 -0.352 150 16 0
2.9849999 0.37599999 -0.345 150 16 0
2.9909999 0.36899999 -0.33899999 150 16 0
2.9949999 0.36300001 -0.33199999 150 16 0
3.0039999 0.35699999 -0.32600001 150 16 0
3.006 0.34999999 -0.31999999 150 16 0
3.0090001 0.34400001 -0.31299999 150 16 0
3.0209999 0.338 -0.30700001 150 16 0
3.029 0.33199999 -0.301 150 16 0
3.0339999 0.32499999 -0.29499999 150 16 0
3.04 0.31900001 -0.28799999 150 16 0
3.0450001 0.31200001 -0.28200001 150 16 0
3.0480001 0.30500001 -0.27500001 150 16 0
3.0580001 0.29899999 -0.26899999 150 16 0
3.0650001 0.29300001 -0.26300001 150 16 0
3.0699999 0.28600001 -0.25600001 150 16 0
3.0739999 0.27900001 -0.25 150 16 0
3.0810001 0.27200001 -0.243 150 16 0
3.089 0.266 -0.237 150 16 0
3.095 0.259 -0.23 150 16 0
3.105 0.25299999 -0.22400001 150 16 0
3.1129999 0.24600001 -0.21799999 150 16 0
3.1140001 0.23899999 -0.211 150 16 0
3.1259999 0.23199999 -0.205 150 16 0
3.128 0.22499999 -0.198 129 16 0
3.1359999 0.21799999 -0.192 141 16 0
3.148 0.211 -0.185 150 16 0
3.155 0.204 -0.17900001 150 16 0
3.1570001 0.197 -0.17200001 150 16 0
3.1689999 0.19 -0.16599999 150 16 0
3.1719999 0.182 -0.15899999 150 16 0
3.1800001 0.175 -0.152 144 16 0
3.1860001 0.168 -0.146 124 16 0
3.1919999 0.16 -0.139 149 16 0
3.204 0.153 -0.133 137 16 0
3.214 0.146 -0.126 122 16 0
3.2149999 0.138 -0.119 127 16 0
3.2249999 0.131 -0.112 144 16 0
3.2309999 0.123 -0.106 139 16 0
3.2379999 0.116 -0.098999999 140 16 0
3.2460001 0.108 -0.092 139 16 0
3.2520001 0.1 -0.086000003 121 16 0
3.2590001 0.092 -0.079000004 127 16 0
3.266 0.085000001 -0.071999997 110 16 0
3.2739999 0.077 -0.064999998 110 16 0
3.2809999 0.068999998 -0.057999998 120 16 0
3.289 0.061000001 -0.052000001 54 16 0
3.2939999 0.052999999 -0.045000002 55 16 0
3.3010001 0.045000002 -0.037999999 125 16 0
3.3099999 0.037 -0.030999999 112 16 0
3.3169999 0.028999999 -0.024 48 16 0
3.313 0.021 -0.017000001 24 16 0
3.296 0.012 -0.0099999998 20 16 0
3.279 0.0040000002 -0.003 19 16 0
3.2639999 -0.003 0.0020000001 19 16 0
3.25 -0.011 0.0089999996 30 16 0
3.253 -0.018999999 0.016000001 137 16 0
3.263 -0.027000001 0.023 150 16 0
3.266 -0.035 0.028999999 150 16 0
3.2750001 -0.044 0.035999998 150 16 0
3.2909999 -0.052000001 0.043000001 150 16 0
3.2920001 -0.061000001 0.050000001 150 16 0
3.289 -0.068999998 0.057 59 16 0
3.2809999 -0.077 0.063000001 33 16 0
3.2620001 -0.085000001 0.068999998 33 16 0
3.2420001 -0.092 0.075999998 33 16 0
3.234 -0.1 0.082000002 33 16 0
3.2190001 -0.108 0.088 32 16 0
3.2019999 -0.115 0.093999997 31 16 0
3.1860001 -0.123 0.1 32 16 0
3.1700001 -0.131 0.106 32 16 0
3.1589999 -0.138 0.112 31 16 0
3.1429999 -0.145 0.118 32 16 0
3.132 -0.153 0.124 31 16 0
3.1170001 -0.16 0.12899999 30 16 0
3.099 -0.167 0.13500001 30 16 0
3.0869999 -0.17399999 0.14 30 16 0
3.0739999 -0.182 0.146 29 16 0
3.059 -0.189 0.15099999 31 16 0
3.0409999 -0.19499999 0.156 28 16 0
3.0350001 -0.20299999 0.162 32 16 0
3.02 -0.20999999 0.167 31 16 0
2.997 -0.21600001 0.171 32 16 0
2.984 -0.222 0.177 30 16 0
2.9760001 -0.23 0.182 31 16 0
2.9619999 -0.236 0.18700001 31 16 0
2.951 -0.243 0.192 31 16 0
2.934 -0.25 0.197 33 16 0
2.924 -0.25600001 0.20100001 33 16 0
2.911 -0.26300001 0.206 33 16 0
2.8989999 -0.26899999 0.211 33 16 0
2.882 -0.27500001 0.215 33 16 0
2.8699999 -0.28200001 0.22 34 16 0
2.859 -0.28799999 0.22499999 35 16 0
2.8510001 -0.29499999 0.229 34 16 0
2.8340001 -0.301 0.233 34 16 0
2.822 -0.30700001 0.23800001 34 16 0
2.8080001 -0.31299999 0.242 34 16 0
2.799 -0.31999999 0.24699999 36 16 0
2.7850001 -0.32499999 0.25099999 35 16 0
2.776 -0.33199999 0.255 35 16 0
2.7609999 -0.33700001 0.259 37 16 0
2.7539999 -0.34400001 0.26300001 38 16 0
2.7449999 -0.34999999 0.26800001 39 16 0
2.7290001 -0.35600001 0.271 37 16 0
2.7179999 -0.361 0.27500001 37 16 0
2.707 -0.36700001 0.27900001 37 16 0
2.7 -0.37400001 0.28299999 42 16 0
2.6949999 -0.38 0.28799999 42 16 0
2.6719999 -0.38499999 0.28999999 45 16 0
2.661 -0.38999999 0.294 41 16 0
2.6559999 -0.39700001 0.29899999 50 16 0
2.642 -0.40200001 0.30199999 44 16 0
2.6300001 -0.40700001 0.30500001 50 16 0
2.622 -0.41299999 0.30899999 52 16 0
2.6110001 -0.419 0.31200001 47 16 0
2.598 -0.42399999 0.31600001 62 16 0
2.5910001 -0.43000001 0.31900001 59 16 0
2.5780001 -0.435 0.32300001 62 16 0
2.5669999 -0.44 0.32600001 53 16 0
2.556 -0.44499999 0.329 56 16 0
2.5469999 -0.45100001 0.333 60 16 0
2.5420001 -0.45699999 0.336 62 16 0
2.526 -0.461 0.33899999 60 16 0
2.5139999 -0.46599999 0.34200001 60 16 0
2.5009999 -0.47099999 0.34400001 62 16 0
2.4960001 -0.477 0.34799999 73 16 0
2.4909999 -0.48300001 0.352 60 16 0
2.4719999 -0.486 0.35299999 61 16 0
2.4660001 -0.49200001 0.35699999 64 16 0
2.4549999 -0.49700001 0.36000001 68 16 0
2.4460001 -0.50199997 0.36300001 76 16 0
2.4389999 -0.50800002 0.366 82 16 0
2.427 -0.51200002 0.368 74 16 0
2.4189999 -0.51700002 0.37099999 71 16 0
2.411 -0.523 0.37400001 85 16 0
2.4000001 -0.52700001 0.37599999 77 16 0
2.3900001 -0.53200001 0.37900001 76 16 0
2.3770001 -0.53600001 0.38100001 66 16 0
2.3710001 -0.54100001 0.384 70 16 0
2.359 -0.546 0.38600001 85 16 0
2.3510001 -0.55000001 0.38800001 81 16 0
2.336 -0.55400002 0.38999999 74 16 0
2.3269999 -0.55900002 0.39199999 86 16 0
2.3199999 -0.56400001 0.39500001 80 16 0
2.3110001 -0.56800002 0.39700001 79 16 0
2.299 -0.57200003 0.39899999 80 16 0
2.2880001 -0.57599998 0.40099999 91 16 0
2.283 -0.58200002 0.40400001 93 16 0
2.2780001 -0.58700001 0.40700001 112 16 0
2.263 -0.58999997 0.40799999 113 16 0
2.257 -0.59500003 0.41 111 16 0
2.2490001 -0.60000002 0.412 104 16 0
2.2360001 -0.60299999 0.41299999 113 16 0
2.2249999 -0.60699999 0.41499999 112 16 0
2.2160001 -0.611 0.417 106 16 0
2.211 -0.616 0.419 109 16 0
2.198 -0.61900002 0.41999999 120 16 0
2.1900001 -0.62400001 0.42199999 113 16 0
2.1819999 -0.62800002 0.42399999 117 16 0
2.175 -0.63200003 0.426 109 16 0
2.1659999 -0.63599998 0.428 115 16 0
2.158 -0.64099997 0.42899999 133 16 0
2.1530001 -0.64499998 0.43099999 123 16 0
2.145 -0.64999998 0.433 120 16 0
2.1289999 -0.65200001 0.433 120 16 0
2.125 -0.65700001 0.43599999 137 16 0
2.1159999 -0.66000003 0.43700001 124 16 0
2.1059999 -0.66399997 0.43799999 137 16 0
2.0999999 -0.66799998 0.44 134 16 0
2.0910001 -0.67199999 0.44100001 136 16 0
2.0810001 -0.67500001 0.442 139 16 0
2.076 -0.68000001 0.44400001 140 16 0
2.0599999 -0.68099999 0.44299999 141 16 0
2.0550001 -0.68599999 0.44499999 144 16 0
2.052 -0.69099998 0.447 141 16 0
2.0369999 -0.69199997 0.447 135 16 0
2.026 -0.69499999 0.447 150 16 0
2.0239999 -0.70099998 0.449 146 16 0
2.0190001 -0.70499998 0.45100001 150 16 0
2.007 -0.70700002 0.45100001 150 16 0
2 -0.71100003 0.45199999 149 16 0
1.995 -0.71600002 0.454 150 16 0
1.985 -0.71799999 0.454 150 16 0
1.974 -0.72100002 0.454 144 16 0
1.97 -0.72500002 0.456 147 16 0
1.966 -0.73000002 0.45699999 150 16 0
1.952 -0.73100001 0.456 150 16 0
1.9450001 -0.73500001 0.45699999 150 16 0
1.9349999 -0.73699999 0.45699999 150 16 0
1.932 -0.74199998 0.45899999 150 16 0
1.9220001 -0.74400002 0.45899999 150 16 0
1.918 -0.74900001 0.46000001 150 16 0
1.908 -0.75099999 0.46000001 150 16 0
1.905 -0.75599998 0.46200001 150 16 0
1.897 -0.75800002 0.46200001 150 16 0
1.8890001 -0.76099998 0.46200001 150 16 0
1.883 -0.76499999 0.463 150 16 0
1.874 -0.76700002 0.463 150 16 0
1.867 -0.76999998 0.463 150 16 0
1.8609999 -0.77399999 0.463 150 16 0
1.842 -0.77100003 0.461 150 19 0
1.837 -0.77499998 0.461 150 16 0
1.8430001 -0.78399998 0.465 3 0 0
1.8279999 -0.78299999 0.463 150 16 0
1.825 -0.78799999 0.46399999 150 16 0
1.818 -0.79000002 0.46399999 150 16 0
1.812 -0.79400003 0.46399999 150 16 0
1.807 -0.79699999 0.465 150 16 0
1.798 -0.79900002 0.46399999 150 16 0
1.795 -0.80299997 0.465 150 16 0
1.785 -0.80400002 0.46399999 150 16 0
1.778 -0.80699998 0.46399999 150 16 0
1.771 -0.80900002 0.463 150 16 0
1.7640001 -0.81199998 0.463 150 16 0
1.757 -0.81400001 0.463 150 16 0
1.752 -0.81699997 0.463 150 16 0
1.75 -0.82200003 0.46399999 150 16 0
1.747 -0.82599998 0.46399999 150 16 0
1.745 -0.82999998 0.465 150 16 0
1.728 -0.82800001 0.46200001 150 19 0
1.719 -0.829 0.46000001 150 16 0
1.715 -0.83200002 0.461 150 16 0
1.711 -0.83499998 0.461 150 16 0
1.706 -0.838 0.46000001 150 16 0
1.699 -0.83999997 0.46000001 150 16 0
1.693 -0.84200001 0.45899999 150 16 0
1.687 -0.84399998 0.458 150 16 0
1.6849999 -0.84799999 0.45899999 150 16 0
1.677 -0.85000002 0.458 3 0 0
1.674 -0.85299999 0.45699999 4 0 0
1.665 -0.85299999 0.456 2 0 0
1.663 -0.85699999 0.456 2 0 0
1.656 -0.85900003 0.45500001 150 16 0
1.649 -0.86000001 0.454 4 0 0
1.647 -0.86400002 0.454 6 0 0
1.6440001 -0.86699998 0.454 6 0 0
1.633 -0.866 0.45100001 116 0 0
1.631 -0.87 0.45100001 107 0 0
1.6289999 -0.87400001 0.45100001 129 0 0
1.6210001 -0.87400001 0.449 112 0 0
1.618 -0.87699997 0.449 150 0 0
1.613 -0.87900001 0.44800001 97 0 0
1.612 -0.88300002 0.44800001 97 0 0
