# .PCD v0.7 - Point Cloud Data file format
VERSION 0.7
FIELDS x y z intensity tag line
SIZE 4 4 4 4 1 1
TYPE F F F F U U
COUNT 1 1 1 1 1 1
WIDTH 1365
HEIGHT 1
VIEWPOINT 0 0 0 1 0 0 0
POINTS 1365
DATA ascii
3.108 0.171 -0.324 66 16 0
3.1010001 0.175 -0.33199999 60 16 0
3.0929999 0.18000001 -0.34 58 16 0
3.0840001 0.184 -0.34799999 65 16 0
3.0829999 0.189 -0.35699999 64 16 0
3.075 0.19400001 -0.36399999 69 16 0
3.069 0.199 -0.37200001 68 16 0
3.0569999 0.20299999 -0.37900001 66 16 0
3.0539999 0.208 -0.38800001 66 16 0
3.049 0.212 -0.396 67 16 0
3.043 0.21699999 -0.40400001 73 16 0
3.0380001 0.222 -0.41100001 63 16 0
3.029 0.226 -0.419 76 16 0
3.0250001 0.23100001 -0.42699999 59 16 0
3.0150001 0.236 -0.43399999 56 16 0
3.0150001 0.241 -0.442 78 16 0
3.0090001 0.245 -0.44999999 54 16 0
3.007 0.25 -0.458 59 16 0
2.997 0.255 -0.465 64 16 0
2.9879999 0.259 -0.472 83 16 0
2.987 0.264 -0.47999999 82 16 0
2.9820001 0.26899999 -0.48800001 121 16 0
2.971 0.273 -0.49399999 107 16 0
2.9630001 0.278 -0.50099999 112 16 0
2.9660001 0.28299999 -0.50999999 108 16 0
2.9530001 0.287 -0.51599997 109 16 0
2.948 0.292 -0.523 112 16 0
2.9449999 0.29699999 -0.53100002 119 16 0
2.938 0.30199999 -0.53799999 114 16 0
2.9360001 0.30700001 -0.546 108 16 0
2.934 0.31200001 -0.55400002 128 16 0
2.9189999 0.315 -0.55900002 124 16 0
2.915 0.31999999 -0.56599998 125 16 0
2.9130001 0.32499999 -0.574 137 16 0
2.9000001 0.329 -0.579 122 16 0
2.8959999 0.33399999 -0.58600003 133 16 0
2.888 0.33899999 -0.59299999 136 16 0
2.8859999 0.34400001 -0.60000002 125 16 0
2.8789999 0.34799999 -0.60699999 133 16 0
2.8729999 0.35299999 -0.61400002 140 16 0
2.869 0.35800001 -0.62099999 142 16 0
2.8670001 0.36300001 -0.62800002 130 16 0
2.8599999 0.368 -0.634 129 16 0
2.8540001 0.37200001 -0.64099997 112 16 0
2.8469999 0.377 -0.64700001 133 16 0
2.8380001 0.38100001 -0.653 122 16 0
2.836 0.38600001 -0.66000003 129 16 0
2.826 0.391 -0.66600001 123 16 0
2.8210001 0.396 -0.67199999 145 16 0
2.8180001 0.40000001 -0.67900002 136 16 0
2.816 0.40599999 -0.68599999 131 16 0
2.806 0.41 -0.69199997 131 16 0
2.802 0.41499999 -0.69800001 136 16 0
2.7969999 0.41999999 -0.70499998 140 16 0
2.7939999 0.42500001 -0.71200001 147 16 0
2.789 0.43000001 -0.71799999 150 16 0
2.7809999 0.43399999 -0.72299999 150 16 0
2.779 0.43900001 -0.73000002 150 16 0
2.7709999 0.44400001 -0.736 147 16 0
2.763 0.44800001 -0.741 150 16 0
2.7579999 0.45300001 -0.74699998 150 16 0
2.7490001 0.45699999 -0.75199997 147 16 0
2.7460001 0.46200001 -0.759 150 16 0
2.7420001 0.46700001 -0.76499999 143 16 0
2.7379999 0.472 -0.77100003 150 16 0
2.73 0.477 -0.77600002 150 16 0
2.727 0.48199999 -0.78200001 150 16 0
2.724 0.48699999 -0.78899997 150 16 0
2.7190001 0.49200001 -0.79500002 150 16 0
2.7079999 0.49599999 -0.79900002 150 16 0
2.7049999 0.50099999 -0.80500001 150 16 0
2.7019999 0.50599998 -0.81099999 150 16 0
2.6989999 0.51099998 -0.81699997 150 16 0
2.6919999 0.51599997 -0.82200003 150 16 0
2.684 0.51999998 -0.82700002 150 16 0
2.681 0.52499998 -0.833 150 16 0
2.678 0.53100002 -0.83899999 150 16 0
2.6730001 0.53600001 -0.84500003 150 16 0
2.6670001 0.54000002 -0.84899998 150 16 0
2.664 0.54500002 -0.85500002 150 16 0
2.6570001 0.55000001 -0.86000001 150 16 0
2.655 0.55599999 -0.866 150 16 0
2.651 0.56099999 -0.87199998 150 16 0
2.642 0.565 -0.87599999 150 16 0
2.6400001 0.56999999 -0.88200003 150 16 0
2.631 0.574 -0.88599998 150 16 0
2.628 0.57999998 -0.89099997 150 16 0
2.625 0.58499998 -0.89700001 150 16 0
2.622 0.58999997 -0.90200001 150 16 0
2.619 0.59600002 -0.90799999 150 16 0
2.6110001 0.60000002 -0.912 150 16 0
2.6070001 0.60500002 -0.917 23 16 0
2.6110001 0.61199999 -0.92500001 5 16 0
2.648 0.62699997 -0.94400001 0 18 0
2.6589999 0.63599998 -0.95499998 0 16 0
2.668 0.64399999 -0.96499997 0 16 0
2.6459999 0.64499998 -0.963 0 16 0
2.677 0.65899998 -0.98100001 0 16 0
2.6600001 0.66100001 -0.98100001 0 16 0
2.645 0.66299999 -0.98199999 0 16 0
0 0 0 0 16 0
0 0 0 0 16 0
2.6270001 0.67799997 -0.99400002 0 16 0
2.6129999 0.68000001 -0.995 0 16 0
2.642 0.69400001 -1.013 0 18 0
2.6210001 0.69499999 -1.011 0 16 0
2.609 0.69800001 -1.012 0 16 0
2.53 0.68300003 -0.98699999 3 17 0
2.5339999 0.69099998 -0.995 20 16 0
2.527 0.69499999 -0.99800003 100 16 0
2.523 0.69999999 -1.002 150 16 0
2.5109999 0.70300001 -1.003 150 16 0
2.506 0.708 -1.007 150 16 0
2.503 0.713 -1.011 150 16 0
2.4979999 0.71799999 -1.015 150 16 0
2.4949999 0.72299999 -1.0190001 150 16 0
2.4890001 0.72799999 -1.022 150 16 0
2.487 0.73299998 -1.026 150 16 0
2.483 0.73799998 -1.03 150 16 0
2.477 0.74199998 -1.033 150 16 0
2.4760001 0.74900001 -1.038 150 16 0
2.47 0.75300002 -1.041 150 16 0
2.4649999 0.75800002 -1.044 150 16 0
2.464 0.764 -1.048 150 16 0
2.4590001 0.76800001 -1.051 150 16 0
2.454 0.773 -1.054 150 16 0
2.451 0.778 -1.058 150 16 0
2.447 0.78299999 -1.061 150 16 0
2.4449999 0.78899997 -1.0650001 150 16 0
2.441 0.79400003 -1.068 150 16 0
2.434 0.79699999 -1.0700001 150 16 0
2.4300001 0.80299997 -1.073 150 16 0
2.427 0.80800003 -1.076 150 16 0
2.4230001 0.81199998 -1.079 150 16 0
2.4200001 0.81800002 -1.082 150 16 0
2.4170001 0.82300001 -1.085 150 16 0
2.4130001 0.82700002 -1.0880001 150 16 0
2.4100001 0.833 -1.091 150 16 0
2.4070001 0.838 -1.0930001 150 16 0
2.4030001 0.84200001 -1.096 150 16 0
2.3989999 0.847 -1.098 150 16 0
2.3959999 0.852 -1.101 150 16 0
2.3940001 0.85799998 -1.104 150 16 0
2.3870001 0.861 -1.104 150 16 0
2.3840001 0.866 -1.107 150 16 0
2.3789999 0.87 -1.109 150 16 0
2.378 0.87599999 -1.112 150 16 0
2.3759999 0.88099998 -1.114 150 16 0
2.3699999 0.88499999 -1.115 150 16 0
2.369 0.89099997 -1.118 150 16 0
2.3629999 0.89399999 -1.119 150 16 0
2.362 0.89999998 -1.122 150 16 0
2.359 0.90499997 -1.124 150 16 0
2.352 0.90799999 -1.123 150 16 0
2.3540001 0.91399997 -1.127 150 16 0
2.345 0.917 -1.126 150 16 0
2.342 0.921 -1.128 150 16 0
2.3399999 0.926 -1.13 150 16 0
2.3340001 0.93000001 -1.1289999 150 16 0
2.3340001 0.93599999 -1.133 150 16 0
2.332 0.94 -1.1339999 150 16 0
2.3329999 0.94599998 -1.137 150 16 0
2.348 0.958 -1.147 151 18 0
2.345 0.96200001 -1.148 151 16 0
2.3310001 0.963 -1.1440001 151 16 0
2.3199999 0.963 -1.14 150 16 0
2.3139999 0.96600002 -1.1390001 150 16 0
2.3150001 0.972 -1.142 150 16 0
2.309 0.97500002 -1.141 150 16 0
2.306 0.97899997 -1.142 150 16 0
2.3039999 0.98299998 -1.142 150 16 0
2.3 0.98699999 -1.142 150 16 0
2.2980001 0.991 -1.143 150 16 0
2.296 0.99599999 -1.143 150 16 0
2.2920001 0.99900001 -1.143 150 16 0
2.2920001 1.0039999 -1.1440001 150 16 0
2.286 1.007 -1.143 150 16 0
2.286 1.012 -1.1440001 150 16 0
2.2820001 1.015 -1.143 150 16 0
2.279 1.018 -1.143 150 16 0
2.2809999 1.024 -1.1440001 150 16 0
2.276 1.026 -1.143 150 16 0
2.2750001 1.031 -1.143 150 16 0
2.273 1.034 -1.143 150 16 0
2.2709999 1.038 -1.142 150 16 0
2.27 1.0420001 -1.143 150 16 0
2.2690001 1.046 -1.142 150 16 0
2.266 1.049 -1.141 150 16 0
2.266 1.053 -1.141 150 16 0
2.263 1.056 -1.14 150 16 0
2.2620001 1.0599999 -1.1390001 150 16 0
2.26 1.063 -1.138 150 16 0
2.2590001 1.067 -1.138 150 16 0
2.2579999 1.0700001 -1.137 150 16 0
2.2590001 1.075 -1.137 150 16 0
2.2590001 1.079 -1.137 150 16 0
2.2550001 1.08 -1.1339999 150 16 0
2.2539999 1.0829999 -1.133 150 16 0
2.2550001 1.0880001 -1.133 150 16 0
2.2509999 1.089 -1.13 150 16 0
2.2509999 1.0930001 -1.1289999 150 16 0
2.25 1.096 -1.128 150 16 0
2.25 1.099 -1.126 150 16 0
2.244 1.099 -1.122 150 16 0
2.2490001 1.105 -1.123 150 16 0
2.244 1.1059999 -1.119 150 16 0
2.243 1.108 -1.118 150 16 0
2.2460001 1.113 -1.117 150 16 0
2.2409999 1.113 -1.114 150 16 0
2.2420001 1.1160001 -1.112 150 16 0
2.2409999 1.118 -1.11 150 16 0
2.2409999 1.1210001 -1.108 150 16 0
2.2409999 1.123 -1.1059999 150 16 0
2.243 1.127 -1.105 150 16 0
2.243 1.1289999 -1.102 150 16 0
2.2409999 1.13 -1.099 150 16 0
2.243 1.133 -1.098 150 16 0
2.2409999 1.135 -1.095 151 16 0
2.244 1.138 -1.0930001 151 16 0
2.244 1.14 -1.091 151 16 0
2.244 1.142 -1.0880001 150 16 0
2.2449999 1.1440001 -1.086 151 16 0
2.243 1.1440001 -1.082 150 16 0
2.2449999 1.147 -1.08 151 16 0
2.2449999 1.148 -1.077 151 16 0
2.2479999 1.151 -1.075 151 16 0
2.2460001 1.151 -1.071 151 16 0
2.2479999 1.153 -1.069 151 16 0
2.2490001 1.155 -1.066 151 16 0
2.2490001 1.156 -1.063 151 16 0
2.25 1.1569999 -1.0599999 151 16 0
2.2509999 1.158 -1.056 151 16 0
2.25 1.159 -1.052 151 16 0
2.253 1.161 -1.05 151 16 0
2.2520001 1.161 -1.046 151 16 0
2.2550001 1.163 -1.043 151 16 0
2.2539999 1.163 -1.039 151 16 0
2.257 1.164 -1.036 151 16 0
2.257 1.164 -1.0319999 151 16 0
2.26 1.165 -1.03 151 16 0
2.2609999 1.166 -1.026 151 16 0
2.2609999 1.166 -1.022 151 16 0
2.2639999 1.1670001 -1.0190001 151 16 0
2.2650001 1.1670001 -1.015 151 16 0
2.2650001 1.1670001 -1.01 151 16 0
2.267 1.1670001 -1.007 151 16 0
2.2709999 1.168 -1.0039999 151 16 0
2.27 1.1670001 -0.99900001 151 16 0
2.2720001 1.1670001 -0.995 151 16 0
2.2750001 1.168 -0.99199998 151 16 0
2.2750001 1.1670001 -0.98699999 151 16 0
2.279 1.168 -0.98400003 151 16 0
2.2809999 1.1670001 -0.98000002 151 16 0
2.283 1.1670001 -0.97600001 151 16 0
2.2869999 1.168 -0.97299999 151 16 0
2.2869999 1.166 -0.96700001 151 16 0
2.289 1.166 -0.963 151 16 0
2.289 1.164 -0.958 151 16 0
2.2909999 1.163 -0.954 151 16 0
2.2969999 1.164 -0.95099998 151 16 0
2.299 1.164 -0.94700003 151 16 0
2.3010001 1.163 -0.94199997 151 16 0
2.302 1.161 -0.93699998 151 16 0
2.302 1.158 -0.93199998 150 16 0
2.3099999 1.16 -0.93000001 150 16 0
2.312 1.159 -0.92500001 151 16 0
2.3139999 1.1569999 -0.921 151 16 0
2.322 1.159 -0.91799998 150 16 0
2.322 1.156 -0.91299999 52 16 0
2.332 1.158 -0.91100001 9 16 0
2.342 1.161 -0.90899998 2 16 0
2.349 1.161 -0.90600002 2 16 0
2.3540001 1.161 -0.903 2 16 0
2.352 1.1569999 -0.89600003 1 16 0
2.3540001 1.155 -0.89099997 1 16 0
2.3540001 1.151 -0.88499999 1 16 0
2.359 1.151 -0.88200003 1 16 0
2.355 1.145 -0.87400001 1 16 0
2.3599999 1.1440001 -0.87 1 16 0
2.358 1.14 -0.86400002 1 16 0
2.355 1.135 -0.85699999 1 16 0
2.3670001 1.137 -0.85500002 1 16 0
2.3840001 1.141 -0.85500002 1 16 0
2.391 1.141 -0.852 1 16 0
2.3829999 1.133 -0.84299999 1 16 0
2.391 1.133 -0.83999997 3 16 0
2.388 1.128 -0.833 15 16 0
2.385 1.122 -0.82599998 139 16 0
2.385 1.118 -0.81999999 150 16 0
2.3870001 1.115 -0.815 151 16 0
2.3929999 1.113 -0.81099999 150 16 0
2.395 1.11 -0.80500001 150 16 0
2.395 1.1059999 -0.79900002 150 16 0
2.4000001 1.103 -0.79500002 150 16 0
2.4030001 1.1 -0.79000002 150 16 0
2.408 1.098 -0.78500003 150 16 0
2.411 1.095 -0.77999997 150 16 0
2.4159999 1.092 -0.77600002 150 16 0
2.4170001 1.0880001 -0.76999998 150 16 0
2.4219999 1.085 -0.76599997 150 16 0
2.425 1.082 -0.76099998 150 16 0
2.4349999 1.082 -0.75800002 150 16 0
2.438 1.0779999 -0.75300002 150 16 0
2.4400001 1.073 -0.74699998 150 16 0
2.4449999 1.071 -0.74299997 150 16 0
2.448 1.067 -0.73799998 150 16 0
2.451 1.063 -0.73299998 150 16 0
2.454 1.059 -0.727 150 16 0
2.4560001 1.054 -0.722 150 16 0
2.4630001 1.052 -0.71799999 150 16 0
2.47 1.05 -0.71399999 150 16 0
2.473 1.046 -0.70899999 150 16 0
2.4749999 1.041 -0.70300001 150 16 0
2.477 1.036 -0.69800001 150 16 0
2.483 1.033 -0.69300002 150 16 0
2.4909999 1.031 -0.68900001 150 16 0
2.494 1.026 -0.68400002 150 16 0
2.497 1.022 -0.67900002 150 16 0
2.5079999 1.02 -0.676 150 16 0
2.5039999 1.013 -0.66900003 150 16 0
2.513 1.011 -0.66500002 150 16 0
2.5139999 1.005 -0.65899998 150 16 0
2.52 1.002 -0.65499997 150 16 0
2.5250001 0.99800003 -0.65100002 150 16 0
2.523 0.991 -0.64399999 150 16 0
2.5280001 0.98699999 -0.639 150 16 0
2.533 0.98199999 -0.63499999 150 16 0
2.54 0.97899997 -0.63 150 16 0
2.5450001 0.97500002 -0.62599999 150 16 0
2.5580001 0.97299999 -0.62300003 151 16 0
2.5769999 0.97399998 -0.62199998 150 16 0
2.5699999 0.96499997 -0.61400002 150 16 0
2.5539999 0.95300001 -0.60399997 150 16 0
2.562 0.949 -0.60000002 150 16 0
2.5650001 0.94400001 -0.59500003 150 16 0
2.5680001 0.93900001 -0.58999997 150 16 0
2.5810001 0.93699998 -0.58700001 150 16 0
2.585 0.93199998 -0.58200002 150 16 0
2.5880001 0.926 -0.57700002 150 16 0
2.598 0.92299998 -0.57300001 150 16 0
2.5999999 0.917 -0.56800002 150 16 0
2.6040001 0.912 -0.56300002 150 16 0
2.609 0.90700001 -0.55800003 150 16 0
2.612 0.90100002 -0.55299997 150 16 0
2.618 0.89600003 -0.54799998 150 16 0
2.6240001 0.89200002 -0.54400003 150 16 0
2.6270001 0.88599998 -0.53899997 150 16 0
2.6300001 0.88 -0.53399998 150 16 0
2.6370001 0.875 -0.52899998 150 16 0
2.638 0.86900002 -0.52399999 150 16 0
2.6459999 0.86400002 -0.51999998 150 16 0
2.6559999 0.861 -0.51599997 150 16 0
2.6570001 0.85399997 -0.50999999 150 16 0
2.6630001 0.84899998 -0.50599998 150 16 0
2.6659999 0.84200001 -0.50099999 150 16 0
2.675 0.838 -0.49700001 150 16 0
2.678 0.83200002 -0.49200001 150 16 0
2.688 0.82800001 -0.48800001 150 16 0
2.687 0.81999999 -0.48199999 150 16 0
2.6930001 0.815 -0.47799999 150 16 0
2.7 0.81 -0.47299999 150 16 0
2.7 0.80199999 -0.46799999 150 16 0
2.7079999 0.79699999 -0.46399999 150 16 0
2.7130001 0.79100001 -0.45899999 150 16 0
2.7160001 0.78500003 -0.454 150 16 0
2.72 0.77899998 -0.449 150 16 0
2.727 0.773 -0.44499999 150 16 0
2.73 0.76599997 -0.44 150 16 0
2.734 0.75999999 -0.435 150 16 0
2.74 0.75400001 -0.43000001 150 16 0
2.7509999 0.75 -0.42699999 150 16 0
2.7539999 0.74299997 -0.42199999 150 16 0
2.767 0.73900002 -0.41800001 150 16 0
2.7639999 0.73000002 -0.412 150 16 0
2.773 0.72500002 -0.40799999 150 16 0
2.776 0.71799999 -0.40400001 150 16 0
2.7820001 0.71200001 -0.39899999 150 16 0
2.786 0.70499998 -0.39399999 150 16 0
2.7909999 0.699 -0.38999999 150 16 0
2.8010001 0.69400001 -0.38600001 150 16 0
2.8039999 0.68699998 -0.38100001 150 16 0
2.8110001 0.68000001 -0.37599999 150 16 0
2.8110001 0.67299998 -0.37099999 150 16 0
2.8199999 0.667 -0.36700001 150 16 0
2.8269999 0.66100001 -0.36300001 150 16 0
2.829 0.653 -0.35800001 150 16 0
2.8399999 0.648 -0.354 150 16 0
2.8440001 0.64099997 -0.34900001 150 16 0
2.846 0.63300002 -0.34400001 150 16 0
2.8540001 0.62699997 -0.34 150 16 0
2.859 0.62 -0.33500001 150 16 0
2.862 0.61299998 -0.331 150 16 0
2.872 0.60699999 -0.32699999 150 16 0
2.8759999 0.60000002 -0.322 150 16 0
2.878 0.59200001 -0.317 150 16 0
2.885 0.58499998 -0.31299999 150 16 0
2.8889999 0.57800001 -0.308 150 16 0
2.902 0.57200003 -0.30399999 150 16 0
2.9089999 0.565 -0.30000001 150 16 0
2.914 0.55800003 -0.29499999 150 16 0
2.9159999 0.55000001 -0.28999999 150 16 0
2.9260001 0.54400003 -0.28600001 150 16 0
2.928 0.53600001 -0.28099999 150 16 0
2.9349999 0.52899998 -0.27700001 150 16 0
2.9419999 0.52200001 -0.273 150 16 0
2.944 0.514 -0.26800001 150 16 0
2.951 0.50700003 -0.26300001 150 16 0
2.9590001 0.5 -0.259 150 16 0
2.964 0.49200001 -0.255 150 16 0
2.9719999 0.48500001 -0.25 150 16 0
2.973 0.477 -0.24600001 150 16 0
2.9790001 0.46900001 -0.241 150 16 0
2.987 0.46200001 -0.237 150 16 0
2.987 0.45300001 -0.23199999 150 16 0
3.0020001 0.447 -0.228 150 16 0
3.003 0.43900001 -0.223 150 16 0
3.006 0.43000001 -0.219 150 16 0
3.0179999 0.42399999 -0.215 150 16 0
3.02 0.41499999 -0.20999999 150 16 0
3.0280001 0.40799999 -0.206 150 16 0
3.033 0.40000001 -0.20100001 150 16 0
3.0320001 0.391 -0.19599999 150 16 0
3.046 0.384 -0.192 150 16 0
3.0539999 0.37599999 -0.18799999 150 16 0
3.0550001 0.36700001 -0.183 150 16 0
3.062 0.359 -0.17900001 150 16 0
3.0710001 0.352 -0.175 150 16 0
3.079 0.34400001 -0.17 150 16 0
3.082 0.33500001 -0.16599999 150 16 0
3.0910001 0.32699999 -0.161 150 16 0
3.0999999 0.31900001 -0.15700001 147 16 0
3.1040001 0.31099999 -0.152 150 16 0
3.115 0.303 -0.148 143 16 0
3.118 0.294 -0.14399999 131 16 0
3.122 0.28600001 -0.139 119 16 0
3.1270001 0.27700001 -0.13500001 113 16 0
3.1359999 0.26899999 -0.13 125 16 0
3.1470001 0.26100001 -0.126 125 16 0
3.154 0.252 -0.122 142 16 0
3.1600001 0.243 -0.117 118 16 0
3.164 0.234 -0.113 108 16 0
3.175 0.226 -0.108 111 16 0
3.181 0.21699999 -0.104 102 16 0
3.1860001 0.208 -0.098999999 109 16 0
3.1949999 0.2 -0.094999999 114 16 0
3.2 0.191 -0.090000004 106 16 0
3.2090001 0.182 -0.086000003 99 16 0
3.221 0.17299999 -0.082000002 105 16 0
3.221 0.164 -0.077 99 16 0
3.2320001 0.155 -0.072999999 112 16 0
3.24 0.146 -0.068000004 101 16 0
3.2460001 0.13699999 -0.064000003 98 16 0
3.25 0.127 -0.059 101 16 0
3.2539999 0.118 -0.055 102 16 0
3.263 0.109 -0.050999999 94 16 0
3.2709999 0.098999999 -0.046 92 16 0
3.277 0.090000004 -0.041999999 92 16 0
3.2820001 0.081 -0.037 91 16 0
3.29 0.071000002 -0.033 80 16 0
3.3010001 0.061999999 -0.028000001 50 16 0
3.3039999 0.052000001 -0.024 50 16 0
3.3099999 0.041999999 -0.018999999 80 16 0
3.325 0.033 -0.015 76 16 0
3.322 0.023 -0.0099999998 28 16 0
3.3010001 0.013 -0.0060000001 19 16 0
3.2809999 0.0040000002 -0.001 19 16 0
3.26 -0.0049999999 0.0020000001 18 16 0
3.243 -0.015 0.0060000001 38 16 0
3.2550001 -0.024 0.011 150 16 0
3.263 -0.034000002 0.015 150 16 0
3.2650001 -0.044 0.018999999 150 16 0
3.277 -0.054000001 0.024 150 16 0
3.2809999 -0.063000001 0.028000001 150 16 0
3.276 -0.072999999 0.032000002 35 16 0
3.256 -0.082000002 0.035999998 30 16 0
3.234 -0.090999998 0.039999999 29 16 0
3.2179999 -0.1 0.044 30 16 0
3.201 -0.109 0.048 31 16 0
3.1830001 -0.118 0.052000001 31 16 0
3.1619999 -0.127 0.056000002 31 16 0
3.1429999 -0.13500001 0.059 32 16 0
3.1229999 -0.14399999 0.063000001 30 16 0
3.102 -0.152 0.066 29 16 0
3.089 -0.161 0.07 30 16 0
3.0710001 -0.169 0.072999999 31 16 0
3.0480001 -0.177 0.077 30 16 0
3.0369999 -0.185 0.079999998 31 16 0
3.0179999 -0.193 0.082999997 31 16 0
2.9990001 -0.20100001 0.086000003 29 16 0
2.984 -0.20900001 0.090000004 30 16 0
2.9649999 -0.21699999 0.093000002 31 16 0
2.9519999 -0.22499999 0.096000001 31 16 0
2.9360001 -0.23199999 0.098999999 31 16 0
2.918 -0.23999999 0.102 32 16 0
2.9070001 -0.248 0.105 32 16 0
2.885 -0.25400001 0.108 33 16 0
2.8710001 -0.26199999 0.111 32 16 0
2.8559999 -0.26899999 0.113 33 16 0
2.842 -0.27700001 0.116 33 16 0
2.8280001 -0.28400001 0.119 34 16 0
2.8150001 -0.29100001 0.122 35 16 0
2.7969999 -0.29800001 0.124 36 16 0
2.78 -0.30399999 0.127 35 16 0
2.7679999 -0.31200001 0.12899999 34 16 0
2.7590001 -0.31900001 0.132 37 16 0
2.7360001 -0.32499999 0.134 35 16 0
2.7320001 -0.333 0.13699999 37 16 0
2.7160001 -0.33899999 0.139 35 16 0
2.7079999 -0.34599999 0.142 38 16 0
2.6889999 -0.352 0.14399999 41 16 0
2.678 -0.359 0.146 40 16 0
2.6670001 -0.366 0.149 38 16 0
2.648 -0.37099999 0.15000001 39 16 0
2.631 -0.377 0.152 42 16 0
2.619 -0.38299999 0.155 42 16 0
2.609 -0.38999999 0.15700001 44 16 0
2.596 -0.396 0.15899999 53 16 0
2.582 -0.40200001 0.161 57 16 0
2.5699999 -0.40799999 0.163 57 16 0
2.5639999 -0.41499999 0.16500001 54 16 0
2.5439999 -0.41999999 0.167 65 16 0
2.53 -0.426 0.168 70 16 0
2.5190001 -0.43200001 0.17 80 16 0
2.5079999 -0.43700001 0.17200001 75 16 0
2.4960001 -0.44299999 0.17399999 69 16 0
2.484 -0.449 0.176 78 16 0
2.473 -0.45500001 0.177 78 16 0
2.4590001 -0.46000001 0.17900001 81 16 0
2.4519999 -0.46599999 0.18099999 89 16 0
2.4430001 -0.472 0.183 86 16 0
2.4289999 -0.477 0.184 75 16 0
2.4230001 -0.484 0.186 80 16 0
2.4059999 -0.48800001 0.18700001 82 16 0
2.388 -0.49200001 0.18799999 82 16 0
2.3789999 -0.49700001 0.19 82 16 0
2.3699999 -0.50300002 0.191 84 16 0
2.359 -0.50800002 0.192 89 16 0
2.3510001 -0.514 0.19400001 95 16 0
2.3380001 -0.51899999 0.19499999 78 16 0
2.3239999 -0.523 0.19599999 83 16 0
2.3150001 -0.528 0.198 92 16 0
2.303 -0.53299999 0.199 92 16 0
2.2950001 -0.53899997 0.2 87 16 0
2.2809999 -0.54299998 0.20100001 91 16 0
2.2690001 -0.54699999 0.20200001 93 16 0
2.2609999 -0.55299997 0.20299999 95 16 0
2.25 -0.55699998 0.204 86 16 0
2.243 -0.56300002 0.206 96 16 0
2.227 -0.56599998 0.206 97 16 0
2.2260001 -0.57300001 0.208 103 16 0
2.207 -0.57499999 0.208 104 16 0
2.2 -0.58099997 0.20999999 103 16 0
2.1919999 -0.58499998 0.211 110 16 0
2.1800001 -0.58899999 0.211 110 16 0
2.1719999 -0.59399998 0.212 119 16 0
2.161 -0.59799999 0.213 101 16 0
2.154 -0.60399997 0.214 109 16 0
2.1429999 -0.60699999 0.215 111 16 0
2.125 -0.60900003 0.215 117 16 0
2.1159999 -0.61400002 0.215 125 16 0
2.112 -0.61900002 0.21699999 122 16 0
2.1010001 -0.62300003 0.21699999 124 16 0
2.0899999 -0.62699997 0.21799999 117 16 0
2.0810001 -0.63099998 0.21799999 128 16 0
2.076 -0.63599998 0.219 116 16 0
2.063 -0.639 0.22 123 16 0
2.0539999 -0.64300001 0.22 138 16 0
2.0469999 -0.648 0.221 134 16 0
2.0380001 -0.65200001 0.221 150 16 0
2.0309999 -0.65600002 0.222 150 16 0
2.023 -0.66000003 0.222 150 16 0
2.0109999 -0.66299999 0.223 150 16 0
2.0009999 -0.66600001 0.223 150 16 0
1.994 -0.671 0.223 150 16 0
1.987 -0.67500001 0.22400001 150 16 0
1.976 -0.67799997 0.22400001 150 16 0
1.971 -0.68300003 0.22499999 150 16 0
1.961 -0.68599999 0.22499999 150 16 0
1.956 -0.69099998 0.22499999 150 16 0
1.942 -0.69199997 0.22499999 150 16 0
1.9400001 -0.69800001 0.226 150 16 0
1.931 -0.70099998 0.226 150 16 0
1.9119999 -0.70099998 0.22499999 150 19 0
1.908 -0.70599997 0.22499999 150 16 0
1.902 -0.70999998 0.226 150 16 0
1.899 -0.71499997 0.226 150 16 0
1.8890001 -0.71799999 0.226 150 16 0
1.8839999 -0.722 0.227 4 0 0
1.872 -0.72399998 0.226 3 0 0
1.8660001 -0.72799999 0.226 150 16 0
1.8609999 -0.73199999 0.227 150 16 0
1.848 -0.73400003 0.226 150 16 0
1.844 -0.73799998 0.226 2 0 0
1.837 -0.74199998 0.226 150 16 0
1.831 -0.745 0.226 150 16 0
1.823 -0.74800003 0.226 3 0 0
1.8150001 -0.75099999 0.226 2 0 0
1.8099999 -0.755 0.226 3 0 0
1.801 -0.75700003 0.22499999 4 0 0
1.794 -0.75999999 0.22499999 3 0 0
1.788 -0.764 0.22499999 150 16 0
1.781 -0.76700002 0.22499999 3 0 0
1.774 -0.76999998 0.22499999 2 0 0
1.766 -0.77200001 0.22400001 150 16 0
1.76 -0.77600002 0.22400001 4 0 0
1.75 -0.77700001 0.223 2 0 0
1.744 -0.77999997 0.223 3 0 0
1.738 -0.78399998 0.222 3 0 0
1.7309999 -0.78600001 0.222 80 0 0
1.72 -0.787 0.221 2 0 0
1.7180001 -0.792 0.221 1 0 0
1.709 -0.79400003 0.22 110 0 0
1.704 -0.79699999 0.22 114 0 0
1.702 -0.80199999 0.22 105 0 0
1.6950001 -0.80400002 0.219 112 0 0
1.686 -0.80500001 0.219 150 0 0
1.676 -0.80599999 0.21699999 112 0 0
1.6670001 -0.80800003 0.21699999 144 0 0
1.663 -0.81099999 0.21600001 131 0 0
1.66 -0.815 0.21600001 106 0 0
1.653 -0.81699997 0.215 150 0 0
1.645 -0.81900001 0.214 150 0 0
1.641 -0.82200003 0.214 105 0 0
1.635 -0.824 0.213 112 0 0
1.631 -0.82800001 0.212 118 0 0
1.6289999 -0.83200002 0.212 81 0 0
1.6210001 -0.833 0.211 124 0 0
1.61 -0.83200002 0.20999999 150 0 0
1.605 -0.83499998 0.20900001 130 0 0
1.6 -0.838 0.208 150 0 0
1.595 -0.84100002 0.207 150 0 0
1.592 -0.84399998 0.207 150 0 0
1.585 -0.84500003 0.206 150 0 0
1.574 -0.84399998 0.204 98 0 0
1.569 -0.847 0.20299999 150 0 0
1.566 -0.85000002 0.20200001 150 0 0
1.562 -0.85299999 0.20200001 150 0 0
1.5599999 -0.85699999 0.20100001 114 0 0
1.554 -0.85799998 0.2 142 0 0
1.55 -0.861 0.199 150 0 0
1.5470001 -0.86400002 0.198 150 0 0
1.545 -0.86799997 0.197 149 0 0
1.5369999 -0.86699998 0.19599999 140 0 0
1.531 -0.86900002 0.19499999 150 0 0
1.529 -0.87300003 0.19400001 135 0 0
1.521 -0.87300003 0.192 126 0 0
1.5190001 -0.87599999 0.192 5 0 0
1.513 -0.87699997 0.19 150 0 0
1.5089999 -0.87900001 0.189 150 0 0
1.5039999 -0.88 0.18799999 150 0 0
1.498 -0.88099998 0.186 150 0 0
1.494 -0.88300002 0.185 126 0 0
1.49 -0.88499999 0.184 128 0 0
1.4859999 -0.88700002 0.183 120 0 0
1.4809999 -0.88800001 0.18099999 139 0 0
1.479 -0.89099997 0.18000001 150 0 0
1.477 -0.89399999 0.17900001 150 0 0
1.466 -0.89099997 0.177 150 3 0
1.469 -0.89700001 0.176 150 0 0
1.462 -0.89700001 0.175 128 0 0
1.4579999 -0.898 0.17299999 140 0 0
1.4529999 -0.89899999 0.17200001 140 0 0
1.449 -0.89999998 0.17 149 0 0
1.4450001 -0.90100002 0.169 150 0 0
1.4400001 -0.90200001 0.167 138 0 0
1.437 -0.903 0.16599999 150 0 0
1.4349999 -0.90600002 0.164 150 0 0
1.4299999 -0.90700001 0.163 150 0 0
1.4299999 -0.91000003 0.162 150 0 0
1.427 -0.912 0.16 150 0 0
1.419 -0.90899998 0.15800001 150 3 0
1.415 -0.91000003 0.156 125 0 0
1.416 -0.91399997 0.155 150 0 0
1.409 -0.912 0.153 150 0 0
1.4069999 -0.91500002 0.152 119 0 0
1.406 -0.917 0.15000001 150 0 0
1.4 -0.91600001 0.148 146 0 0
1.399 -0.91799998 0.147 115 0 0
1.397 -0.92000002 0.146 119 0 0
1.3940001 -0.92000002 0.14399999 132 0 0
1.391 -0.921 0.142 128 0 0
1.387 -0.921 0.14 143 0 0
1.386 -0.92299998 0.139 147 0 0
1.383 -0.92299998 0.13699999 149 0 0
1.383 -0.926 0.13600001 139 0 0
1.381 -0.92699999 0.134 150 0 0
1.381 -0.93000001 0.132 130 0 0
1.374 -0.92799997 0.13 138 3 0
1.3710001 -0.92699999 0.12800001 146 0 0
1.37 -0.92900002 0.127 134 0 0
1.368 -0.92900002 0.125 133 0 0
1.364 -0.92900002 0.123 123 0 0
1.364 -0.93099999 0.121 110 0 0
1.362 -0.93099999 0.12 100 0 0
1.359 -0.93099999 0.118 136 0 0
1.359 -0.93300003 0.116 141 0 0
1.357 -0.93300003 0.114 123 0 0
1.357 -0.935 0.113 150 0 0
1.353 -0.93300003 0.11 147 0 0
1.352 -0.93400002 0.109 150 0 0
1.348 -0.93300003 0.107 127 0 0
1.351 -0.93599999 0.105 133 0 0
1.351 -0.93699998 0.103 122 0 0
1.349 -0.93699998 0.101 112 0 0
1.346 -0.93599999 0.098999999 110 0 0
1.344 -0.93599999 0.097999997 144 0 0
1.344 -0.93699998 0.096000001 133 0 0
1.344 -0.93800002 0.093999997 141 0 0
1.3430001 -0.93800002 0.092 120 0 0
1.341 -0.93699998 0.090000004 83 0 0
1.339 -0.93699998 0.088 124 0 0
1.339 -0.93699998 0.086000003 127 0 0
1.3430001 -0.94 0.085000001 118 0 0
1.336 -0.93599999 0.082000002 120 0 0
1.337 -0.93699998 0.081 142 0 0
1.336 -0.93699998 0.079000004 100 0 0
1.336 -0.93699998 0.077 150 0 0
1.3380001 -0.93900001 0.075000003 124 0 0
1.332 -0.93400002 0.072999999 108 2 0
1.336 -0.93699998 0.071000002 111 0 0
1.3380001 -0.93900001 0.068999998 124 0 0
1.336 -0.93699998 0.067000002 139 0 0
1.332 -0.93400002 0.064999998 117 0 0
1.3380001 -0.93800002 0.064000003 98 0 0
1.336 -0.93599999 0.061999999 117 0 0
1.336 -0.93599999 0.059999999 130 0 0
1.335 -0.93400002 0.057999998 137 0 0
1.3380001 -0.93599999 0.056000002 150 0 0
1.3380001 -0.935 0.054000001 122 0 0
1.3380001 -0.93400002 0.052000001 150 0 0
1.336 -0.93199998 0.050000001 141 0 0
1.339 -0.93400002 0.048 127 0 0
1.34 -0.93300003 0.046 136 0 0
1.336 -0.92900002 0.044 123 0 0
1.3430001 -0.93300003 0.043000001 99 0 0
1.341 -0.93099999 0.041000001 130 0 0
1.341 -0.92900002 0.039000001 149 0 0
1.342 -0.92900002 0.037 139 0 0
1.3430001 -0.92799997 0.035 150 0 0
1.347 -0.92900002 0.033 150 0 0
1.345 -0.926 0.030999999 150 0 0
1.345 -0.92500001 0.028999999 130 0 0
1.349 -0.926 0.028000001 124 0 0
1.349 -0.92400002 0.026000001 150 0 0
1.351 -0.92299998 0.024 143 0 0
1.352 -0.92199999 0.022 116 0 0
1.354 -0.92199999 0.02 139 0 0
1.351 -0.91799998 0.017999999 139 0 0
1.3559999 -0.91900003 0.016000001 150 0 0
1.357 -0.91799998 0.015 150 0 0
1.3609999 -0.91799998 0.013 113 0 0
1.36 -0.91500002 0.011 136 0 0
1.363 -0.91500002 0.0089999996 113 0 0
1.364 -0.91299999 0.0080000004 143 0 0
1.365 -0.912 0.0060000001 126 0 0
1.3660001 -0.91000003 0.0040000002 146 0 0
1.367 -0.90799999 0.0020000001 134 0 0
1.369 -0.90700001 0.001 150 0 0
1.372 -0.90600002 0 145 0 0
1.374 -0.90499997 -0.0020000001 134 0 0
1.376 -0.903 -0.0040000002 137 0 0
1.3789999 -0.90200001 -0.0049999999 141 0 0
1.381 -0.89999998 -0.0070000002 140 0 0
1.382 -0.898 -0.0089999996 115 0 0
1.386 -0.898 -0.0099999998 125 0 0
1.387 -0.89499998 -0.012 137 0 0
1.39 -0.89399999 -0.014 140 0 0
1.396 -0.89499998 -0.015 120 0 0
1.3940001 -0.88999999 -0.017000001 142 0 0
1.397 -0.88800001 -0.017999999 120 0 0
1.401 -0.88800001 -0.02 144 0 0
1.402 -0.88499999 -0.022 139 0 0
1.405 -0.884 -0.023 116 0 0
1.414 -0.88499999 -0.025 137 0 0
1.4119999 -0.88099998 -0.026000001 83 0 0
1.415 -0.87900001 -0.028000001 145 0 0
1.421 -0.87900001 -0.028999999 140 0 0
1.419 -0.87400001 -0.030999999 139 0 0
1.424 -0.87400001 -0.032000002 143 0 0
1.429 -0.87300003 -0.034000002 150 0 0
1.433 -0.87099999 -0.035 150 0 0
1.437 -0.87 -0.037 119 0 0
1.439 -0.86699998 -0.037999999 124 0 0
1.441 -0.86400002 -0.039999999 134 0 0
1.449 -0.86500001 -0.041000001 126 0 0
1.451 -0.86199999 -0.043000001 150 0 0
1.45 -0.85799998 -0.044 137 0 0
1.4579999 -0.85799998 -0.045000002 134 0 0
1.46 -0.85500002 -0.046999998 138 0 0
1.462 -0.852 -0.048 143 0 0
1.4630001 -0.84799999 -0.048999999 147 0 0
1.473 -0.85000002 -0.050999999 136 0 0
1.478 -0.84799999 -0.052000001 146 0 0
1.478 -0.84299999 -0.052999999 127 0 0
1.484 -0.84299999 -0.054000001 121 0 0
1.488 -0.83999997 -0.056000002 150 0 0
1.4910001 -0.838 -0.057 150 0 0
1.499 -0.838 -0.057999998 104 0 0
1.506 -0.83600003 -0.059999999 118 0 0
1.507 -0.833 -0.061000001 94 0 0
1.51 -0.82999998 -0.061999999 92 0 0
1.511 -0.82599998 -0.063000001 122 0 0
1.5190001 -0.82499999 -0.064000003 108 0 0
1.527 -0.824 -0.064999998 122 0 0
1.527 -0.81999999 -0.066 148 0 0
1.534 -0.81900001 -0.068000004 109 0 0
1.5420001 -0.81800002 -0.068999998 105 0 0
1.545 -0.815 -0.07 138 0 0
1.545 -0.80900002 -0.071000002 90 0 0
1.551 -0.80800003 -0.071999997 91 0 0
1.561 -0.80800003 -0.072999999 132 0 0
1.5650001 -0.80500001 -0.074000001 104 0 0
1.568 -0.801 -0.075000003 67 0 0
1.575 -0.80000001 -0.075999998 79 0 0
1.58 -0.79699999 -0.077 92 0 0
1.5880001 -0.796 -0.078000002 77 0 0
1.5930001 -0.79299998 -0.079000004 88 0 0
1.595 -0.78899997 -0.079999998 94 0 0
1.6 -0.78600001 -0.081 69 0 0
1.602 -0.78200001 -0.082000002 95 0 0
1.607 -0.77899998 -0.082000002 102 0 0
1.623 -0.78100002 -0.083999999 77 3 0
1.628 -0.778 -0.085000001 96 0 0
1.6339999 -0.77499998 -0.086000003 102 0 0
1.642 -0.77399999 -0.086999997 150 16 0
1.643 -0.76899999 -0.086999997 2 0 0
1.65 -0.76599997 -0.088 150 16 0
1.6569999 -0.764 -0.089000002 150 16 0
1.658 -0.759 -0.089000002 86 0 0
1.6670001 -0.75700003 -0.090000004 150 16 0
1.676 -0.75599998 -0.090999998 92 0 0
1.684 -0.75400001 -0.092 150 16 0
1.688 -0.75 -0.092 86 0 0
1.696 -0.74800003 -0.093000002 74 0 0
1.699 -0.74299997 -0.093999997 75 0 0
1.709 -0.74199998 -0.094999999 55 0 0
1.714 -0.73799998 -0.094999999 67 0 0
1.723 -0.736 -0.096000001 59 0 0
1.728 -0.73199999 -0.096000001 58 0 0
1.738 -0.73100001 -0.097000003 69 0 0
1.743 -0.727 -0.097999997 57 0 0
1.7539999 -0.72500002 -0.097999997 59 0 0
1.7589999 -0.722 -0.098999999 63 0 0
1.7640001 -0.71799999 -0.098999999 42 0 0
1.77 -0.71399999 -0.1 41 0 0
1.775 -0.70999998 -0.1 2 0 0
1.785 -0.708 -0.101 46 0 0
1.79 -0.704 -0.101 2 0 0
1.801 -0.70200002 -0.102 2 0 0
1.804 -0.69700003 -0.102 38 0 0
1.814 -0.69499999 -0.103 1 0 0
1.822 -0.69099998 -0.103 2 0 0
1.829 -0.68800002 -0.103 1 0 0
1.835 -0.68400002 -0.104 1 0 0
1.844 -0.68099999 -0.104 1 0 0
1.854 -0.67799997 -0.105 1 0 0
1.8609999 -0.67500001 -0.105 2 0 0
1.8660001 -0.67000002 -0.105 150 16 0
1.875 -0.667 -0.105 147 16 0
1.883 -0.66299999 -0.105 149 16 0
1.893 -0.66000003 -0.106 150 16 0
1.903 -0.65700001 -0.106 138 16 0
1.908 -0.653 -0.106 139 16 0
1.9170001 -0.64899999 -0.106 142 16 0
1.925 -0.64499998 -0.107 150 16 0
1.928 -0.63999999 -0.106 134 16 0
1.937 -0.63599998 -0.107 134 16 0
1.957 -0.63599998 -0.107 134 19 0
1.959 -0.63 -0.107 130 16 0
1.967 -0.62599999 -0.107 146 16 0
1.978 -0.62300003 -0.107 140 16 0
1.985 -0.61799997 -0.107 144 16 0
1.992 -0.61400002 -0.107 122 16 0
2 -0.61000001 -0.107 121 16 0
2.0109999 -0.60600001 -0.107 122 16 0
2.023 -0.60299999 -0.107 130 16 0
2.029 -0.59799999 -0.107 123 16 0
2.0380001 -0.59399998 -0.107 118 16 0
2.0510001 -0.59100002 -0.107 114 16 0
2.056 -0.58499998 -0.107 107 16 0
2.0669999 -0.58099997 -0.107 112 16 0
2.0810001 -0.57800001 -0.107 100 16 0
2.0869999 -0.57300001 -0.107 101 16 0
2.099 -0.56900001 -0.107 101 16 0
2.1099999 -0.565 -0.106 98 16 0
2.1170001 -0.56 -0.106 86 16 0
2.131 -0.55699998 -0.106 96 16 0
2.1400001 -0.55199999 -0.106 84 16 0
2.1459999 -0.546 -0.105 78 16 0
2.155 -0.54100001 -0.105 75 16 0
2.1670001 -0.537 -0.105 81 16 0
2.188 -0.53500003 -0.105 75 16 0
2.194 -0.52899998 -0.104 69 16 0
2.207 -0.52499998 -0.104 67 16 0
2.2190001 -0.51999998 -0.104 63 16 0
2.23 -0.51599997 -0.103 63 16 0
2.2409999 -0.51099998 -0.103 63 16 0
2.2490001 -0.505 -0.102 59 16 0
2.2650001 -0.50099999 -0.102 61 16 0
2.2750001 -0.49599999 -0.101 61 16 0
2.2839999 -0.49000001 -0.101 64 16 0
2.2969999 -0.486 -0.1 53 16 0
2.3110001 -0.48100001 -0.1 54 16 0
2.3269999 -0.477 -0.098999999 54 16 0
2.3329999 -0.47 -0.098999999 49 16 0
2.346 -0.465 -0.097999997 49 16 0
2.3599999 -0.46000001 -0.097000003 49 16 0
2.3670001 -0.454 -0.096000001 44 16 0
2.382 -0.449 -0.096000001 52 16 0
2.398 -0.44400001 -0.094999999 56 16 0
2.411 -0.43900001 -0.094999999 54 16 0
2.4159999 -0.43200001 -0.093000002 53 16 0
2.4389999 -0.428 -0.093000002 52 19 0
2.447 -0.421 -0.092 47 16 0
2.461 -0.41600001 -0.090999998 46 16 0
2.477 -0.41 -0.090000004 46 16 0
2.4860001 -0.40400001 -0.089000002 44 16 0
2.5050001 -0.39899999 -0.089000002 45 16 0
2.513 -0.39199999 -0.088 43 16 0
2.533 -0.38699999 -0.086999997 42 16 0
2.5409999 -0.38 -0.086000003 33 16 0
2.553 -0.373 -0.083999999 35 16 0
2.5710001 -0.368 -0.083999999 33 16 0
2.5880001 -0.36199999 -0.082999997 34 16 0
2.6010001 -0.35499999 -0.081 34 16 0
2.6170001 -0.34900001 -0.079999998 35 16 0
2.628 -0.34200001 -0.079000004 33 16 0
2.6429999 -0.33500001 -0.078000002 34 16 0
2.6630001 -0.329 -0.077 34 16 0
2.6760001 -0.32300001 -0.075000003 32 16 0
2.6889999 -0.315 -0.074000001 32 16 0
2.707 -0.30899999 -0.072999999 32 16 0
2.7219999 -0.30199999 -0.071000002 32 16 0
2.7360001 -0.29499999 -0.07 27 16 0
2.7509999 -0.287 -0.068999998 27 16 0
2.767 -0.28 -0.067000002 27 16 0
2.786 -0.273 -0.066 27 16 0
2.799 -0.266 -0.064000003 27 16 0
2.8210001 -0.259 -0.063000001 27 16 0
2.8399999 -0.252 -0.061000001 27 16 0
2.849 -0.243 -0.059 26 16 0
2.8670001 -0.236 -0.057999998 26 16 0
2.8889999 -0.228 -0.056000002 27 16 0
2.9100001 -0.221 -0.054000001 26 16 0
2.9219999 -0.212 -0.052999999 26 16 0
2.9489999 -0.205 -0.050999999 25 16 0
2.9630001 -0.197 -0.048999999 26 16 0
2.98 -0.189 -0.046999998 25 16 0
3.0050001 -0.18099999 -0.045000002 26 16 0
3.017 -0.17200001 -0.043000001 25 16 0
3.0439999 -0.164 -0.041000001 25 16 0
3.0650001 -0.155 -0.039000001 27 16 0
3.0869999 -0.147 -0.037 26 16 0
3.1029999 -0.13699999 -0.035 25 16 0
3.1289999 -0.12899999 -0.033 27 16 0
3.1500001 -0.12 -0.030999999 26 16 0
3.171 -0.111 -0.028000001 27 16 0
3.194 -0.101 -0.026000001 27 16 0
3.2149999 -0.092 -0.024 27 16 0
3.237 -0.082000002 -0.021 29 16 0
3.263 -0.072999999 -0.018999999 44 16 0
3.266 -0.063000001 -0.016000001 150 16 0
3.263 -0.052000001 -0.014 118 16 0
3.257 -0.041999999 -0.011 120 16 0
3.253 -0.032000002 -0.0080000004 122 16 0
3.2460001 -0.022 -0.0049999999 67 16 0
3.2520001 -0.011 -0.003 22 16 0
3.2720001 -0.001 0 17 16 0
3.3010001 0.0080000004 0.0020000001 18 16 0
3.3199999 0.017999999 0.0049999999 22 16 0
3.336 0.028999999 0.0080000004 43 16 0
3.323 0.039000001 0.0099999998 52 16 0
3.323 0.050000001 0.013 49 16 0
3.322 0.059999999 0.016000001 40 16 0
3.316 0.07 0.018999999 57 16 0
3.3110001 0.079999998 0.022 58 16 0
3.3099999 0.090999998 0.025 57 16 0
3.3080001 0.101 0.028000001 62 16 0
3.303 0.111 0.030999999 63 16 0
3.2920001 0.121 0.034000002 67 16 0
3.27 0.13 0.035999998 63 16 0
3.227 0.139 0.039000001 43 16 0
3.22 0.148 0.041999999 44 16 0
3.2160001 0.15800001 0.045000002 48 16 0
3.2149999 0.168 0.048 73 16 0
3.2090001 0.178 0.050999999 77 16 0
3.2 0.18700001 0.054000001 83 16 0
3.2019999 0.197 0.057 90 16 0
3.194 0.207 0.059999999 89 16 0
3.194 0.21600001 0.063000001 99 16 0
3.191 0.226 0.066 102 16 0
3.181 0.235 0.068999998 99 16 0
3.1800001 0.245 0.071999997 92 16 0
3.1800001 0.255 0.075000003 108 16 0
3.1700001 0.264 0.078000002 93 16 0
3.1670001 0.27399999 0.081 90 16 0
3.164 0.28299999 0.083999999 103 16 0
3.161 0.29300001 0.086999997 105 16 0
3.1589999 0.30199999 0.090000004 111 16 0
3.155 0.31200001 0.093000002 113 16 0
3.154 0.32100001 0.097000003 123 16 0
3.152 0.331 0.1 124 16 0
3.1429999 0.34 0.103 127 16 0
3.145 0.34999999 0.106 43 16 0
3.175 0.36300001 0.11 21 19 0
3.2019999 0.37599999 0.115 52 16 0
3.1960001 0.38499999 0.118 91 16 0
3.194 0.39500001 0.121 92 16 0
3.194 0.40400001 0.125 86 16 0
3.184 0.41299999 0.12800001 87 16 0
3.1860001 0.42300001 0.131 90 16 0
3.1789999 0.43200001 0.13500001 100 16 0
3.175 0.44100001 0.138 93 16 0
3.1730001 0.45100001 0.141 101 16 0
3.1689999 0.46000001 0.145 105 16 0
3.165 0.46900001 0.148 97 16 0
3.164 0.479 0.152 103 16 0
3.161 0.48800001 0.155 126 16 0
3.1570001 0.49700001 0.15800001 108 16 0
3.155 0.50599998 0.162 91 16 0
3.1500001 0.51499999 0.16500001 64 16 0
3.145 0.52399999 0.169 45 16 0
3.1340001 0.53200001 0.17200001 39 16 0
3.125 0.54000002 0.175 36 16 0
3.1129999 0.54799998 0.178 37 16 0
3.1099999 0.55699998 0.182 35 16 0
3.102 0.565 0.185 36 16 0
3.0940001 0.57300001 0.18799999 35 16 0
3.082 0.57999998 0.191 33 16 0
3.076 0.588 0.19499999 33 16 0
3.0680001 0.59600002 0.198 33 16 0
3.062 0.60500002 0.20100001 31 16 0
3.053 0.61199999 0.204 33 16 0
3.0420001 0.61900002 0.207 32 16 0
3.0350001 0.62699997 0.211 32 16 0
3.03 0.63599998 0.214 34 16 0
3.02 0.64300001 0.21699999 36 16 0
3.01 0.64999998 0.221 38 16 0
3.0009999 0.65700001 0.22400001 49 16 0
2.9909999 0.66399997 0.227 80 16 0
2.9920001 0.67299998 0.23100001 118 16 0
2.9849999 0.68099999 0.234 150 16 0
2.9820001 0.69 0.23800001 150 16 0
2.9790001 0.69800001 0.242 150 16 0
2.9760001 0.70599997 0.24600001 150 16 0
2.9690001 0.71399999 0.249 150 16 0
2.97 0.72299999 0.25299999 150 16 0
2.964 0.73100001 0.257 150 16 0
2.9630001 0.74000001 0.26100001 150 16 0
2.9590001 0.74800003 0.264 150 16 0
2.9579999 0.75700003 0.26800001 150 16 0
2.954 0.76499999 0.27200001 150 16 0
2.951 0.773 0.27599999 150 16 0
2.951 0.78200001 0.28 150 16 0
2.9449999 0.78899997 0.28400001 150 16 0
2.9460001 0.79799998 0.28799999 150 16 0
2.9400001 0.80599999 0.292 150 16 0
2.938 0.81400001 0.296 150 16 0
2.9360001 0.82300001 0.30000001 150 16 0
2.9330001 0.83099997 0.30399999 150 16 0
2.9300001 0.83899999 0.308 150 16 0
2.934 0.84899998 0.31299999 150 16 0
2.9260001 0.85600001 0.31600001 150 16 0
2.928 0.86500001 0.32100001 150 16 0
2.9189999 0.87099999 0.324 150 16 0
2.9230001 0.88099998 0.329 150 16 0
2.9189999 0.889 0.333 150 16 0
2.9170001 0.89700001 0.33700001 150 16 0
2.914 0.90499997 0.34099999 150 16 0
2.911 0.912 0.34599999 150 16 0
2.908 0.92000002 0.34999999 150 16 0
2.905 0.92799997 0.354 150 16 0
2.902 0.93599999 0.35800001 150 16 0
2.9030001 0.94499999 0.36300001 150 16 0
2.898 0.95200002 0.36700001 150 16 0
2.8970001 0.95999998 0.37200001 150 16 0
2.898 0.96899998 0.377 150 16 0
2.892 0.97600001 0.38100001 150 16 0
2.8900001 0.98400003 0.38499999 150 16 0
2.8889999 0.99199998 0.38999999 150 16 0
2.882 0.99800003 0.39300001 150 16 0
2.885 1.008 0.39899999 150 16 0
2.882 1.015 0.403 150 16 0
2.8789999 1.023 0.40799999 150 16 0
2.878 1.031 0.412 150 16 0
2.8740001 1.038 0.417 150 16 0
2.875 1.0470001 0.42199999 150 16 0
2.8710001 1.054 0.426 150 16 0
2.8699999 1.062 0.43099999 150 16 0
2.8670001 1.069 0.43599999 150 16 0
2.8610001 1.076 0.44 150 16 0
2.8610001 1.084 0.44499999 150 16 0
2.8599999 1.092 0.44999999 150 16 0
2.8570001 1.099 0.454 150 16 0
2.8540001 1.1059999 0.45899999 150 16 0
2.8570001 1.115 0.465 150 16 0
2.8540001 1.122 0.46900001 150 16 0
2.855 1.131 0.47499999 150 16 0
2.8469999 1.136 0.479 150 16 0
2.8499999 1.145 0.484 150 16 0
2.8510001 1.154 0.49000001 150 16 0
2.846 1.16 0.49399999 150 16 0
2.8440001 1.1670001 0.49900001 150 16 0
2.8440001 1.175 0.505 150 16 0
2.842 1.182 0.50999999 150 16 0
2.8410001 1.1900001 0.51499999 150 16 0
2.8369999 1.196 0.51999998 150 16 0
2.8340001 1.2029999 0.52499998 150 16 0
2.8310001 1.209 0.52899998 150 16 0
2.8380001 1.22 0.53600001 150 16 0
2.8340001 1.226 0.54100001 150 16 0
2.832 1.233 0.546 150 16 0
2.8310001 1.24 0.55199999 150 16 0
2.829 1.247 0.55699998 150 16 0
2.8180001 1.25 0.56 150 16 0
2.819 1.258 0.56599998 90 16 0
2.813 1.262 0.56999999 49 16 0
2.8010001 1.265 0.574 40 16 0
2.7920001 1.268 0.57800001 39 16 0
2.7880001 1.274 0.58200002 39 16 0
2.7720001 1.274 0.58499998 38 16 0
2.7620001 1.276 0.588 39 16 0
2.7579999 1.281 0.59299999 39 16 0
2.7509999 1.285 0.597 38 16 0
2.743 1.288 0.60100001 37 16 0
2.734 1.291 0.60500002 39 16 0
2.723 1.293 0.60799998 39 16 0
2.7179999 1.2970001 0.61299998 39 16 0
2.7049999 1.298 0.616 40 16 0
2.691 1.298 0.61799997 38 16 0
2.6900001 1.304 0.62400001 39 16 0
2.6789999 1.3049999 0.62699997 38 16 0
2.674 1.309 0.63099998 39 16 0
2.6630001 1.3099999 0.634 37 16 0
2.6559999 1.313 0.63800001 40 16 0
2.6370001 1.3099999 0.639 37 16 0
2.6329999 1.314 0.64399999 37 16 0
2.625 1.316 0.648 39 16 0
2.6170001 1.318 0.65100002 38 16 0
2.612 1.321 0.65499997 37 16 0
2.6059999 1.324 0.66000003 39 16 0
2.5940001 1.324 0.662 37 16 0
2.586 1.326 0.66600001 37 16 0
2.579 1.3279999 0.67000002 37 16 0
2.5710001 1.329 0.67299998 36 16 0
2.562 1.33 0.67699999 36 16 0
2.5539999 1.331 0.68000001 37 16 0
2.546 1.332 0.68300003 36 16 0
2.5420001 1.335 0.68800002 37 16 0
2.5350001 1.337 0.69199997 38 16 0
2.52 1.334 0.69300002 38 16 0
2.516 1.337 0.69800001 38 16 0
2.5050001 1.336 0.69999999 38 16 0
2.497 1.336 0.70300001 37 16 0
2.4920001 1.3380001 0.70700002 38 16 0
2.4849999 1.339 0.71100003 37 16 0
2.4749999 1.3380001 0.713 38 16 0
2.4719999 1.341 0.71799999 38 16 0
2.461 1.34 0.72000003 36 16 0
2.4560001 1.341 0.72399998 36 16 0
2.4460001 1.34 0.727 36 16 0
2.438 1.34 0.73000002 36 16 0
2.427 1.337 0.73100001 37 16 0
2.425 1.34 0.736 38 16 0
2.4200001 1.341 0.74000001 38 16 0
2.4089999 1.339 0.74199998 40 16 0
2.4059999 1.34 0.74599999 40 16 0
2.398 1.34 0.74900001 39 16 0
2.3859999 1.336 0.75 40 16 0
2.381 1.337 0.75400001 40 16 0
2.3759999 1.337 0.75700003 40 16 0
2.368 1.336 0.75999999 39 16 0
2.3599999 1.334 0.76200002 39 16 0
2.359 1.337 0.76700002 43 16 0
2.352 1.335 0.76999998 39 16 0
2.3429999 1.3329999 0.77200001 40 16 0
2.3380001 1.3329999 0.77499998 43 16 0
2.3299999 1.331 0.77700001 39 16 0
2.3280001 1.332 0.78100002 39 16 0
2.3180001 1.329 0.78200001 45 16 0
2.3139999 1.3279999 0.78600001 41 16 0
2.3080001 1.327 0.78799999 48 16 0
2.3050001 1.327 0.792 46 16 0
2.2969999 1.325 0.79400003 41 16 0
2.293 1.324 0.79699999 44 16 0
2.283 1.3200001 0.79799998 45 16 0
2.277 1.318 0.80000001 45 16 0
2.2750001 1.319 0.80400002 45 16 0
2.27 1.317 0.80699998 48 16 0
2.266 1.316 0.81 50 16 0
2.263 1.316 0.81300002 54 16 0
2.2590001 1.314 0.815 55 16 0
2.2509999 1.311 0.81699997 51 16 0
2.2509999 1.311 0.82099998 60 16 0
2.2449999 1.308 0.82300001 50 16 0
2.237 1.304 0.824 50 16 0
2.234 1.303 0.82700002 47 16 0
2.227 1.3 0.82800001 52 16 0
2.2219999 1.2970001 0.82999998 55 16 0
2.217 1.295 0.83200002 56 16 0
2.2130001 1.2920001 0.83399999 57 16 0
2.207 1.289 0.83600003 48 16 0
2.2049999 1.2869999 0.838 55 16 0
2.204 1.2869999 0.84200001 52 16 0
2.1919999 1.28 0.84100002 51 18 0
2.191 1.278 0.84399998 49 16 0
2.188 1.276 0.84600002 61 16 0
2.181 1.272 0.84600002 60 16 0
2.177 1.268 0.84799999 60 16 0
2.174 1.266 0.85000002 62 16 0
2.171 1.263 0.852 68 16 0
2.1700001 1.262 0.85399997 70 16 0
2.1619999 1.256 0.85399997 61 19 0
2.1619999 1.255 0.85699999 64 16 0
2.161 1.253 0.85900003 68 16 0
2.155 1.248 0.86000001 60 16 0
2.1530001 1.245 0.86199999 64 16 0
2.151 1.243 0.86400002 66 16 0
2.148 1.239 0.86500001 75 16 0
2.142 1.234 0.86500001 75 16 0
2.1400001 1.2309999 0.866 80 16 0
2.138 1.228 0.86799997 79 16 0
2.1400001 1.227 0.87099999 81 16 0
2.131 1.22 0.87 77 19 0
2.1300001 1.217 0.87099999 71 16 0
2.1300001 1.215 0.87300003 79 16 0
2.128 1.211 0.875 77 16 0
2.1210001 1.205 0.87400001 74 16 0
2.1199999 1.201 0.875 57 16 0
2.1210001 1.199 0.87699997 41 16 0
2.1199999 1.196 0.87800002 28 16 0
2.1170001 1.191 0.87900001 25 16 0
2.1129999 1.186 0.87800002 21 16 0
2.112 1.182 0.87900001 18 16 0
2.1070001 1.176 0.87900001 14 16 0
2.1029999 1.171 0.87800002 11 16 0
2.1070001 1.17 0.88099998 11 16 0
2.1010001 1.164 0.88 14 16 0
2.1040001 1.1619999 0.88200003 16 16 0
2.102 1.1569999 0.88200003 21 16 0
2.1040001 1.155 0.884 27 16 0
2.105 1.151 0.88499999 31 16 0
2.0999999 1.145 0.884 49 16 0
2.099 1.141 0.884 69 16 0
2.099 1.137 0.884 90 16 0
2.099 1.133 0.88499999 105 16 0
2.0999999 1.13 0.88599998 102 16 0
2.102 1.126 0.88700002 99 16 0
2.1029999 1.123 0.88800001 100 16 0
2.098 1.1160001 0.88599998 102 16 0
2.0999999 1.112 0.88700002 106 16 0
2.0999999 1.108 0.88700002 104 16 0
2.0999999 1.104 0.88700002 105 16 0
2.1040001 1.101 0.88800001 88 16 0
2.098 1.094 0.88599998 92 16 0
2.0999999 1.09 0.88599998 93 16 0
2.1010001 1.086 0.88700002 104 16 0
2.102 1.082 0.88700002 103 16 0
2.105 1.079 0.88700002 99 16 0
2.1059999 1.074 0.88700002 104 16 0
2.108 1.0700001 0.88700002 100 16 0
2.1070001 1.0650001 0.88700002 105 16 0
2.108 1.0599999 0.88599998 102 16 0
2.108 1.0549999 0.88499999 101 16 0
2.1040001 1.049 0.88300002 95 16 0
2.109 1.046 0.884 103 16 0
2.1140001 1.043 0.88499999 118 16 0
2.115 1.038 0.884 108 16 0
2.1170001 1.034 0.884 109 16 0
2.112 1.027 0.88099998 111 16 0
2.115 1.022 0.88 108 16 0
2.1170001 1.018 0.88 103 16 0
2.119 1.0140001 0.87900001 109 16 0
2.1210001 1.0089999 0.87800002 105 16 0
2.1229999 1.0039999 0.87800002 106 16 0
2.1289999 1.002 0.87900001 114 16 0
2.128 0.995 0.87599999 112 16 0
2.131 0.991 0.87599999 115 16 0
2.131 0.986 0.87400001 116 16 0
2.1359999 0.98199999 0.87400001 112 16 0
2.138 0.97799999 0.87300003 112 16 0
2.141 0.97299999 0.87199998 125 16 0
2.1429999 0.96899998 0.87099999 115 16 0
2.148 0.96499997 0.87099999 125 16 0
2.151 0.95999998 0.87 122 16 0
2.151 0.954 0.86799997 122 16 0
2.154 0.94999999 0.866 122 16 0
2.1589999 0.94599998 0.866 134 16 0
2.1619999 0.94099998 0.86500001 133 16 0
2.164 0.93699998 0.86299998 138 16 0
2.168 0.93199998 0.86199999 137 16 0
2.1700001 0.92699999 0.86000001 132 16 0
2.1730001 0.92199999 0.85900003 127 16 0
2.1760001 0.917 0.85699999 124 16 0
2.1789999 0.912 0.85600001 126 16 0
2.181 0.90700001 0.85399997 123 16 0
2.1849999 0.903 0.852 126 16 0
2.188 0.898 0.85000002 128 16 0
2.191 0.89300001 0.84899998 130 16 0
2.194 0.88800001 0.847 116 16 0
2.1960001 0.88300002 0.84399998 121 16 0
2.2090001 0.88200003 0.84600002 116 16 0
2.21 0.87599999 0.84299999 119 16 0
2.2130001 0.87099999 0.84100002 115 16 0
2.217 0.866 0.83899999 121 16 0
2.2260001 0.86299998 0.83899999 121 16 0
2.2290001 0.85799998 0.83700001 122 16 0
2.234 0.85399997 0.83499998 127 16 0
2.237 0.84799999 0.833 101 16 0
2.2409999 0.84299999 0.83099997 111 16 0
2.244 0.838 0.82800001 108 16 0
2.2460001 0.833 0.82499999 112 16 0
2.253 0.829 0.824 112 16 0
2.2590001 0.82499999 0.82200003 112 16 0
2.266 0.82099998 0.82099998 105 16 0
2.2690001 0.81599998 0.81800002 114 16 0
2.276 0.81199998 0.81699997 104 16 0
2.279 0.80599999 0.81400001 108 16 0
2.2780001 0.80000001 0.80900002 105 16 0
2.2869999 0.796 0.80900002 95 16 0
2.293 0.792 0.80699998 116 16 0
2.2950001 0.78600001 0.80299997 105 16 0
2.3 0.78100002 0.801 104 16 0
2.3099999 0.778 0.80000001 112 16 0
2.3139999 0.773 0.79699999 119 16 0
2.326 0.77100003 0.79699999 121 16 0
2.325 0.764 0.792 118 16 0
2.3369999 0.76099998 0.792 118 16 0
2.3369999 0.755 0.787 118 16 0
2.3429999 0.75 0.78500003 120 16 0
2.3510001 0.74699998 0.78299999 106 16 0
2.358 0.74199998 0.77999997 99 16 0
2.3610001 0.73699999 0.77700001 107 16 0
2.368 0.73199999 0.77399999 111 16 0
2.375 0.72799999 0.77200001 108 16 0
2.3840001 0.72399998 0.76999998 96 16 0
2.391 0.72000003 0.76700002 109 16 0
2.3970001 0.71499997 0.764 106 16 0
2.4000001 0.70899999 0.75999999 104 16 0
2.405 0.704 0.75700003 106 16 0
2.4170001 0.70099998 0.75599998 108 16 0
2.424 0.69700003 0.75300002 103 16 0
2.427 0.69099998 0.74900001 103 16 0
2.4349999 0.68699998 0.74599999 109 16 0
2.4449999 0.68300003 0.74400002 87 16 0
2.447 0.67699999 0.74000001 82 16 0
2.457 0.67299998 0.73799998 87 16 0
2.4630001 0.66799998 0.73400003 93 16 0
2.477 0.66500002 0.73299998 87 16 0
2.48 0.66000003 0.72799999 83 16 0
2.487 0.65499997 0.72500002 88 16 0
2.4909999 0.64999998 0.72100002 77 16 0
2.4979999 0.64499998 0.71799999 77 16 0
2.5090001 0.64099997 0.71499997 78 16 0
2.513 0.63599998 0.71100003 82 16 0
2.5250001 0.63200003 0.708 78 16 0
2.5420001 0.63 0.708 85 16 0
2.5450001 0.62400001 0.70300001 83 16 0
2.5510001 0.61900002 0.699 76 16 0
2.5569999 0.61400002 0.69499999 76 16 0
2.5650001 0.60900003 0.69099998 66 16 0
2.5739999 0.60500002 0.68800002 62 16 0
2.5799999 0.59899998 0.68400002 71 16 0
2.5910001 0.59500003 0.68099999 70 16 0
2.599 0.59100002 0.67699999 64 16 0
