# .PCD v0.7 - Point Cloud Data file format
VERSION 0.7
FIELDS x y z intensity tag line
SIZE 4 4 4 4 1 1
TYPE F F F F U U
COUNT 1 1 1 1 1 1
WIDTH 1433
HEIGHT 1
VIEWPOINT 0 0 0 1 0 0 0
POINTS 1433
DATA ascii
3.312 0.056000002 -0.003 39 16 0
3.309 0.067000002 -0.0040000002 53 16 0
3.3010001 0.078000002 -0.0049999999 50 16 0
3.293 0.088 -0.0049999999 52 16 0
3.2920001 0.098999999 -0.0060000001 55 16 0
3.2850001 0.109 -0.0070000002 57 16 0
3.276 0.119 -0.0070000002 53 16 0
3.276 0.13 -0.0080000004 54 16 0
3.2650001 0.14 -0.0080000004 56 16 0
3.2579999 0.15000001 -0.0089999996 57 16 0
3.257 0.161 -0.0089999996 55 16 0
3.2490001 0.171 -0.0099999998 60 16 0
3.243 0.18099999 -0.0099999998 58 16 0
3.24 0.191 -0.011 60 16 0
3.2390001 0.20200001 -0.011 66 16 0
3.2309999 0.212 -0.011 62 16 0
3.2290001 0.222 -0.012 64 16 0
3.223 0.23199999 -0.012 62 16 0
3.211 0.242 -0.012 75 16 0
3.2079999 0.252 -0.013 68 16 0
3.207 0.26199999 -0.013 74 16 0
3.194 0.27200001 -0.013 66 16 0
3.1919999 0.28200001 -0.014 72 16 0
3.188 0.292 -0.014 66 16 0
3.181 0.30199999 -0.014 70 16 0
3.175 0.31099999 -0.014 66 16 0
3.1730001 0.32100001 -0.014 77 16 0
3.1619999 0.331 -0.015 76 16 0
3.1589999 0.34099999 -0.015 76 16 0
3.155 0.34999999 -0.015 77 16 0
3.148 0.36000001 -0.015 62 16 0
3.1489999 0.37 -0.015 74 16 0
3.1389999 0.37900001 -0.015 62 16 0
3.1329999 0.389 -0.015 56 16 0
3.1270001 0.398 -0.015 64 16 0
3.122 0.40799999 -0.015 73 16 0
3.119 0.41800001 -0.015 72 16 0
3.1159999 0.428 -0.015 82 16 0
3.1099999 0.43700001 -0.015 75 16 0
3.1029999 0.44600001 -0.015 77 16 0
3.096 0.45500001 -0.015 66 16 0
3.096 0.465 -0.015 69 16 0
3.0910001 0.47499999 -0.015 75 16 0
3.0829999 0.484 -0.014 83 16 0
3.0840001 0.49399999 -0.014 83 16 0
3.073 0.50199997 -0.014 80 16 0
3.0680001 0.51200002 -0.014 68 16 0
3.0599999 0.52100003 -0.014 85 16 0
3.059 0.52999997 -0.013 77 16 0
3.0550001 0.54000002 -0.013 90 16 0
3.049 0.54900002 -0.013 78 16 0
3.046 0.55800003 -0.013 101 16 0
3.04 0.56699997 -0.012 112 16 0
3.033 0.57599998 -0.012 113 16 0
3.0309999 0.58600003 -0.011 116 16 0
3.0239999 0.59399998 -0.011 108 16 0
3.0220001 0.60399997 -0.011 112 16 0
3.0139999 0.61199999 -0.0099999998 108 16 0
3.01 0.62099999 -0.0099999998 97 16 0
3.0079999 0.63099998 -0.0089999996 114 16 0
3.0039999 0.63999999 -0.0089999996 117 16 0
3.0020001 0.64899999 -0.0080000004 113 16 0
2.9920001 0.65700001 -0.0080000004 101 16 0
2.987 0.66600001 -0.0070000002 100 16 0
2.9879999 0.676 -0.0070000002 94 16 0
2.9790001 0.68400002 -0.0060000001 103 16 0
2.974 0.69300002 -0.0049999999 101 16 0
2.974 0.70200002 -0.0049999999 124 16 0
2.9679999 0.71100003 -0.0040000002 119 16 0
2.9660001 0.72100002 -0.003 134 16 0
2.961 0.72899997 -0.003 102 16 0
2.9619999 0.73900002 -0.0020000001 112 16 0
2.9530001 0.74699998 -0.001 104 16 0
2.95 0.75599998 0 106 16 0
2.9460001 0.76499999 0 112 16 0
2.9349999 0.77200001 0 107 16 0
2.9319999 0.78100002 0.001 101 16 0
2.9319999 0.79000002 0.0020000001 120 16 0
2.9219999 0.79799998 0.003 112 16 0
2.924 0.80800003 0.0040000002 124 16 0
2.9130001 0.815 0.0040000002 117 16 0
2.9100001 0.824 0.0049999999 114 16 0
2.9100001 0.833 0.0060000001 122 16 0
2.905 0.84200001 0.0070000002 118 16 0
2.8970001 0.84899998 0.0080000004 115 16 0
2.9000001 0.86000001 0.0089999996 115 16 0
2.888 0.866 0.0099999998 121 16 0
2.8889999 0.87599999 0.012 108 16 0
2.8859999 0.884 0.013 109 16 0
2.882 0.89300001 0.014 119 16 0
2.8789999 0.90200001 0.015 121 16 0
2.8710001 0.90899998 0.016000001 119 16 0
2.869 0.91799998 0.017000001 129 16 0
2.862 0.92500001 0.018999999 117 16 0
2.8629999 0.935 0.02 133 16 0
2.8599999 0.94400001 0.021 127 16 0
2.8540001 0.95099998 0.022 135 16 0
2.8510001 0.95999998 0.024 134 16 0
2.8429999 0.96700001 0.025 39 16 0
2.8469999 0.97799999 0.027000001 30 16 0
2.842 0.986 0.028000001 127 16 0
2.8340001 0.99199998 0.028999999 150 16 0
2.8310001 1.001 0.030999999 140 16 0
2.829 1.0089999 0.032000002 150 16 0
2.825 1.017 0.034000002 150 16 0
2.8180001 1.024 0.035 147 16 0
2.8180001 1.034 0.037 145 16 0
2.8150001 1.0420001 0.037999999 150 16 0
2.8080001 1.049 0.039999999 147 16 0
2.8050001 1.058 0.041999999 147 16 0
2.802 1.066 0.043000001 147 16 0
2.799 1.074 0.045000002 150 16 0
2.796 1.082 0.046999998 149 16 0
2.7909999 1.09 0.048 150 16 0
2.7880001 1.098 0.050000001 141 16 0
2.786 1.1059999 0.052000001 150 16 0
2.7809999 1.114 0.054000001 142 16 0
2.777 1.1210001 0.056000002 145 16 0
2.7739999 1.1289999 0.057 137 16 0
2.7709999 1.138 0.059 150 16 0
2.77 1.146 0.061000001 145 16 0
2.7639999 1.153 0.063000001 150 16 0
2.7609999 1.161 0.064999998 150 16 0
2.7550001 1.168 0.067000002 150 16 0
2.7550001 1.177 0.068999998 150 16 0
2.7509999 1.184 0.071000002 150 16 0
2.75 1.193 0.072999999 150 16 0
2.747 1.2 0.075999998 150 16 0
2.743 1.2079999 0.078000002 150 16 0
2.7390001 1.215 0.079999998 144 16 0
2.7360001 1.223 0.082000002 150 16 0
2.737 1.232 0.083999999 141 16 0
2.7290001 1.237 0.086000003 149 16 0
2.7260001 1.245 0.089000002 150 16 0
2.723 1.252 0.090999998 150 16 0
2.7179999 1.2589999 0.093000002 140 16 0
2.7160001 1.267 0.096000001 138 16 0
2.714 1.275 0.097999997 146 16 0
2.7090001 1.281 0.101 150 16 0
2.71 1.29 0.103 148 16 0
2.707 1.298 0.106 144 16 0
2.7 1.303 0.108 138 16 0
2.704 1.314 0.111 150 16 0
2.6960001 1.318 0.113 150 16 0
2.6930001 1.325 0.116 150 16 0
2.6900001 1.3329999 0.118 150 16 0
2.6900001 1.341 0.121 150 16 0
2.687 1.348 0.124 150 16 0
2.6830001 1.355 0.127 150 16 0
2.6819999 1.362 0.12899999 150 16 0
2.6760001 1.368 0.132 146 16 0
2.6760001 1.376 0.13500001 150 16 0
2.675 1.383 0.138 150 16 0
2.671 1.39 0.141 146 16 0
2.6700001 1.398 0.14399999 150 16 0
2.668 1.404 0.147 150 16 0
2.6619999 1.41 0.149 143 16 0
2.6619999 1.418 0.152 131 16 0
2.6589999 1.424 0.155 139 16 0
2.658 1.432 0.15899999 136 16 0
2.655 1.438 0.162 141 16 0
2.6570001 1.446 0.16500001 127 16 0
2.651 1.451 0.168 139 16 0
2.651 1.459 0.171 129 16 0
2.6459999 1.464 0.17399999 142 16 0
2.6440001 1.47 0.177 132 16 0
2.6440001 1.478 0.18099999 134 16 0
2.645 1.4859999 0.184 130 16 0
2.6400001 1.4910001 0.18799999 119 16 0
2.642 1.5 0.191 124 16 0
2.6429999 1.507 0.19499999 117 16 0
2.6329999 1.5089999 0.197 126 16 0
2.632 1.516 0.20100001 116 16 0
2.6340001 1.524 0.205 115 16 0
2.6259999 1.526 0.208 108 16 0
2.628 1.534 0.211 114 16 0
2.628 1.541 0.215 116 16 0
2.6270001 1.548 0.219 110 16 0
2.6229999 1.552 0.222 108 16 0
2.6210001 1.558 0.226 114 16 0
2.618 1.563 0.229 114 16 0
2.622 1.572 0.233 110 16 0
2.622 1.5779999 0.237 119 16 0
2.615 1.581 0.23999999 112 16 0
2.615 1.587 0.244 107 16 0
2.6129999 1.592 0.248 100 16 0
2.6110001 1.597 0.252 98 16 0
2.612 1.603 0.255 107 16 0
2.6059999 1.6059999 0.259 111 16 0
2.6070001 1.612 0.26300001 138 16 0
2.6099999 1.62 0.26699999 127 16 0
2.6070001 1.624 0.271 121 16 0
2.605 1.628 0.27500001 114 16 0
2.605 1.6339999 0.27900001 104 16 0
2.608 1.641 0.28299999 113 16 0
2.5999999 1.642 0.28600001 124 16 0
2.6040001 1.65 0.29100001 123 16 0
2.6040001 1.655 0.29499999 120 16 0
2.6040001 1.66 0.29899999 105 16 0
2.6029999 1.664 0.303 103 16 0
2.602 1.669 0.30700001 106 16 0
2.6029999 1.674 0.31099999 107 16 0
2.5999999 1.677 0.315 95 16 0
2.5999999 1.682 0.31900001 110 16 0
2.5969999 1.684 0.32300001 99 16 0
2.598 1.689 0.32699999 62 16 0
2.5999999 1.6950001 0.33199999 34 16 0
2.599 1.698 0.336 18 16 0
2.586 1.693 0.338 9 16 0
2.5810001 1.694 0.34200001 5 16 0
2.5699999 1.691 0.345 5 16 0
2.563 1.6900001 0.34799999 8 16 0
2.5550001 1.688 0.35100001 10 16 0
2.5510001 1.689 0.354 5 16 0
2.5799999 1.711 0.36300001 5 17 0
2.602 1.729 0.37 13 16 0
2.6029999 1.733 0.37400001 24 16 0
2.599 1.734 0.37799999 39 16 0
2.595 1.734 0.38100001 52 16 0
2.5940001 1.735 0.38499999 45 16 0
2.5880001 1.734 0.389 40 16 0
2.5810001 1.732 0.39199999 36 16 0
2.5699999 1.727 0.39399999 33 16 0
2.5680001 1.727 0.398 34 16 0
2.559 1.724 0.40000001 34 16 0
2.5510001 1.72 0.403 33 16 0
2.5420001 1.716 0.40599999 33 16 0
2.5350001 1.7130001 0.40900001 34 16 0
2.526 1.7079999 0.41100001 38 16 0
2.5250001 1.709 0.41499999 46 16 0
2.5220001 1.7079999 0.41800001 95 16 0
2.5190001 1.707 0.42199999 128 16 0
2.5220001 1.71 0.426 145 16 0
2.5209999 1.71 0.43000001 150 16 0
2.5250001 1.7130001 0.43399999 150 16 0
2.5250001 1.714 0.43799999 150 16 0
2.526 1.715 0.442 150 16 0
2.5239999 1.714 0.44600001 150 16 0
2.527 1.717 0.44999999 150 16 0
2.5320001 1.72 0.454 150 16 0
2.5320001 1.719 0.458 141 16 0
2.5350001 1.721 0.46200001 150 16 0
2.536 1.722 0.46599999 136 16 0
2.5369999 1.721 0.47 135 16 0
2.536 1.721 0.47299999 150 16 0
2.5380001 1.721 0.477 142 16 0
2.539 1.721 0.48100001 135 16 0
2.543 1.722 0.48500001 133 16 0
2.5439999 1.722 0.48800001 147 16 0
2.543 1.72 0.49200001 148 16 0
2.5450001 1.72 0.49599999 145 16 0
2.553 1.723 0.5 150 16 0
2.553 1.722 0.50400001 150 16 0
2.5550001 1.721 0.50700003 149 16 0
2.556 1.719 0.50999999 150 16 0
2.5569999 1.7180001 0.514 150 16 0
2.5580001 1.716 0.51700002 150 16 0
2.563 1.7180001 0.52100003 150 16 0
2.5639999 1.716 0.52399999 150 16 0
2.5669999 1.715 0.528 150 16 0
2.569 1.7130001 0.53100002 150 16 0
2.5650001 1.7079999 0.53299999 150 16 0
2.5699999 1.7079999 0.537 150 16 0
2.572 1.706 0.54000002 150 16 0
2.572 1.7029999 0.54299998 150 16 0
2.576 1.702 0.546 150 16 0
2.582 1.702 0.55000001 150 16 0
2.5829999 1.7 0.55299997 150 16 0
2.589 1.699 0.55599999 150 16 0
2.592 1.697 0.55900002 150 16 0
2.592 1.693 0.56199998 150 16 0
2.596 1.692 0.565 150 16 0
2.5910001 1.684 0.56599998 150 16 0
2.596 1.683 0.56999999 150 16 0
2.6029999 1.683 0.57300001 150 16 0
2.6040001 1.679 0.57499999 150 16 0
2.6070001 1.676 0.57800001 150 16 0
2.6129999 1.675 0.58099997 150 16 0
2.615 1.671 0.58399999 150 16 0
2.612 1.664 0.58499998 133 16 0
2.6140001 1.66 0.58700001 129 16 0
2.6210001 1.659 0.58999997 117 16 0
2.6229999 1.655 0.59200001 130 16 0
2.6300001 1.654 0.59600002 126 16 0
2.6340001 1.651 0.59799999 138 16 0
2.6329999 1.6440001 0.59899998 127 16 0
2.6400001 1.643 0.602 134 16 0
2.6429999 1.6390001 0.60399997 125 16 0
2.6470001 1.635 0.60699999 133 16 0
2.6470001 1.6289999 0.60799998 135 16 0
2.6500001 1.624 0.61000001 148 16 0
2.6530001 1.62 0.61199999 130 16 0
2.658 1.617 0.61400002 150 16 0
2.661 1.612 0.61500001 150 16 0
2.661 1.605 0.616 150 16 0
2.6670001 1.602 0.61799997 150 16 0
2.6700001 1.597 0.62 150 16 0
2.6730001 1.592 0.62099999 150 16 0
2.677 1.5880001 0.62300003 150 16 0
2.6800001 1.582 0.62400001 150 16 0
2.6789999 1.575 0.625 150 16 0
2.6849999 1.571 0.62599999 102 16 0
2.6849999 1.563 0.62699997 80 16 0
2.6789999 1.553 0.62599999 49 16 0
2.684 1.548 0.62699997 45 16 0
2.684 1.541 0.62699997 42 16 0
2.6789999 1.53 0.62599999 40 16 0
2.6819999 1.525 0.62699997 40 16 0
2.681 1.517 0.62699997 38 16 0
2.678 1.507 0.62599999 38 16 0
2.681 1.501 0.62699997 38 16 0
2.684 1.495 0.62699997 38 16 0
2.6849999 1.488 0.62699997 38 16 0
2.6860001 1.48 0.62699997 37 16 0
2.684 1.471 0.62599999 38 16 0
2.684 1.4630001 0.62599999 37 16 0
2.687 1.457 0.62599999 37 16 0
2.688 1.449 0.62599999 37 16 0
2.6849999 1.4400001 0.625 37 16 0
2.6889999 1.433 0.625 37 16 0
2.694 1.428 0.625 41 16 0
2.6889999 1.4170001 0.62400001 38 16 0
2.6930001 1.411 0.62400001 38 16 0
2.6919999 1.402 0.62300003 38 16 0
2.697 1.396 0.62300003 38 16 0
2.698 1.388 0.62199998 38 16 0
2.701 1.382 0.62199998 38 16 0
2.7019999 1.374 0.62099999 38 16 0
2.704 1.3660001 0.62 39 16 0
2.7060001 1.359 0.61900002 39 16 0
2.7060001 1.351 0.61799997 38 16 0
2.7079999 1.3430001 0.61699998 37 16 0
2.711 1.336 0.61699998 40 16 0
2.717 1.33 0.61699998 39 16 0
2.7179999 1.322 0.61500001 39 16 0
2.72 1.314 0.61400002 41 16 0
2.7190001 1.3049999 0.61299998 40 16 0
2.7260001 1.299 0.61299998 40 16 0
2.73 1.293 0.61199999 40 16 0
2.73 1.284 0.61000001 39 16 0
2.733 1.276 0.60900003 37 16 0
2.7349999 1.2690001 0.60799998 37 16 0
2.74 1.262 0.60699999 38 16 0
2.7409999 1.2539999 0.60500002 40 16 0
2.7449999 1.2460001 0.60399997 40 16 0
2.7479999 1.239 0.60299999 40 16 0
2.75 1.2309999 0.60100001 39 16 0
2.7579999 1.226 0.60100001 39 16 0
2.7590001 1.217 0.59899998 40 16 0
2.7620001 1.21 0.59799999 40 16 0
2.766 1.202 0.59600002 41 16 0
2.7679999 1.194 0.59399998 39 16 0
2.7709999 1.186 0.59299999 41 16 0
2.777 1.1799999 0.59100002 40 16 0
2.776 1.17 0.58899999 41 16 0
2.7839999 1.165 0.588 41 16 0
2.79 1.158 0.58700001 41 16 0
2.7909999 1.149 0.58499998 40 16 0
2.7939999 1.142 0.583 40 16 0
2.8039999 1.137 0.58200002 42 16 0
2.8050001 1.128 0.57999998 40 16 0
2.8110001 1.1210001 0.57800001 41 16 0
2.8150001 1.113 0.57599998 42 16 0
2.8150001 1.105 0.57300001 41 16 0
2.823 1.098 0.57200003 40 16 0
2.826 1.09 0.56999999 41 16 0
2.8299999 1.082 0.56800002 41 16 0
2.836 1.076 0.56599998 42 16 0
2.839 1.068 0.56400001 41 16 0
2.8440001 1.061 0.56199998 40 16 0
2.849 1.053 0.55900002 34 16 0
2.855 1.046 0.55800003 36 16 0
2.858 1.038 0.55500001 37 16 0
2.8659999 1.0319999 0.55299997 36 16 0
2.8729999 1.025 0.551 37 16 0
2.8770001 1.017 0.54900002 37 16 0
2.8859999 1.011 0.54699999 36 16 0
2.892 1.0039999 0.54500002 36 16 0
2.892 0.995 0.542 36 16 0
2.8989999 0.98799998 0.53899997 37 16 0
2.905 0.98000002 0.537 37 16 0
2.911 0.97299999 0.53500003 36 16 0
2.9230001 0.96799999 0.53399998 36 16 0
2.9219999 0.958 0.52999997 36 16 0
2.931 0.95200002 0.528 37 16 0
2.9389999 0.94499999 0.52499998 36 16 0
2.9460001 0.93800002 0.523 37 16 0
2.9449999 0.92799997 0.51899999 37 16 0
2.954 0.92199999 0.51700002 39 16 0
2.9649999 0.91600001 0.51499999 46 16 0
2.9679999 0.90700001 0.51200002 66 16 0
2.9719999 0.89899999 0.509 85 16 0
2.9809999 0.89300001 0.50599998 120 16 0
2.9809999 0.88300002 0.50199997 150 16 0
2.9860001 0.87599999 0.49900001 150 16 0
2.99 0.86699998 0.49599999 150 16 0
2.9949999 0.85900003 0.493 150 16 0
2.9960001 0.85000002 0.48899999 150 16 0
3.003 0.84299999 0.486 150 16 0
3.0020001 0.833 0.48199999 150 16 0
3.007 0.82499999 0.47799999 150 16 0
3.0139999 0.81800002 0.47600001 150 16 0
3.0120001 0.80800003 0.47099999 150 16 0
3.0120001 0.79900002 0.46700001 150 16 0
3.0150001 0.79100001 0.463 150 16 0
3.0179999 0.78200001 0.45899999 150 16 0
3.02 0.773 0.45500001 150 16 0
3.0239999 0.76499999 0.45100001 150 16 0
3.0250001 0.75599998 0.447 150 16 0
3.029 0.74800003 0.44400001 150 16 0
3.036 0.741 0.44 150 16 0
3.033 0.73100001 0.435 150 16 0
3.0409999 0.72299999 0.43200001 150 16 0
3.0409999 0.71399999 0.428 150 16 0
3.05 0.70700002 0.42399999 150 16 0
3.05 0.69800001 0.41999999 150 16 0
3.05 0.68900001 0.41499999 150 16 0
3.049 0.67900002 0.41100001 149 16 0
3.056 0.67199999 0.40700001 150 16 0
3.062 0.66399997 0.403 150 16 0
3.062 0.65399998 0.39899999 145 16 0
3.059 0.64499998 0.39399999 150 16 0
3.062 0.63599998 0.389 150 16 0
3.0739999 0.63 0.38600001 150 16 0
3.076 0.62099999 0.382 150 16 0
3.0780001 0.61199999 0.377 150 16 0
3.079 0.60299999 0.373 150 16 0
3.0829999 0.59500003 0.368 150 16 0
3.085 0.58600003 0.36399999 150 16 0
3.0869999 0.57800001 0.359 150 16 0
3.0880001 0.56900001 0.354 150 16 0
3.092 0.56 0.34999999 150 16 0
3.0940001 0.55199999 0.345 150 16 0
3.0940001 0.54299998 0.34 150 16 0
3.0999999 0.53500003 0.336 150 16 0
3.0999999 0.52600002 0.331 150 16 0
3.102 0.51700002 0.32600001 150 16 0
3.1110001 0.50999999 0.322 150 16 0
3.1070001 0.5 0.317 150 16 0
3.1099999 0.491 0.31200001 150 16 0
3.1170001 0.484 0.308 150 16 0
3.118 0.47499999 0.303 150 16 0
3.1229999 0.46599999 0.29800001 150 16 0
3.125 0.458 0.29300001 150 16 0
3.1259999 0.449 0.28799999 150 16 0
3.1270001 0.44 0.28299999 150 16 0
3.1300001 0.43200001 0.27900001 150 16 0
3.1300001 0.42300001 0.273 150 16 0
3.1329999 0.41499999 0.26800001 148 16 0
3.135 0.40599999 0.26300001 150 16 0
3.141 0.398 0.259 150 16 0
3.142 0.389 0.25299999 150 16 0
3.145 0.38100001 0.248 150 16 0
3.1459999 0.37200001 0.243 147 16 0
3.151 0.36399999 0.23800001 150 16 0
3.155 0.35499999 0.233 150 16 0
3.152 0.34599999 0.228 150 16 0
3.154 0.33700001 0.222 138 16 0
3.1570001 0.329 0.21699999 150 16 0
3.1559999 0.31999999 0.212 146 16 0
3.1589999 0.31200001 0.207 147 16 0
3.1630001 0.303 0.20100001 150 16 0
3.164 0.294 0.19599999 124 16 0
3.165 0.28600001 0.191 141 16 0
3.168 0.27700001 0.185 150 16 0
3.168 0.26899999 0.18000001 150 16 0
3.1730001 0.25999999 0.175 127 16 0
3.1760001 0.252 0.169 117 16 0
3.164 0.242 0.163 32 16 0
3.1670001 0.234 0.15800001 28 16 0
3.1919999 0.227 0.153 39 16 0
3.1819999 0.21699999 0.147 24 16 0
3.1789999 0.208 0.141 21 16 0
3.204 0.20100001 0.13699999 22 16 0
3.2349999 0.19499999 0.132 29 16 0
3.2550001 0.18700001 0.127 30 16 0
3.267 0.17900001 0.122 31 16 0
3.283 0.171 0.117 32 16 0
3.2939999 0.162 0.111 34 16 0
3.303 0.154 0.106 47 16 0
3.2939999 0.14399999 0.098999999 76 16 0
3.283 0.13500001 0.093000002 117 16 0
3.296 0.127 0.088 95 16 0
3.3099999 0.119 0.082000002 59 16 0
3.313 0.11 0.075999998 55 16 0
3.319 0.101 0.07 47 16 0
3.3199999 0.092 0.064000003 25 16 0
3.319 0.082999997 0.057999998 4 16 0
3.322 0.075000003 0.052000001 11 16 0
3.3299999 0.066 0.046 25 16 0
3.3310001 0.057 0.039999999 35 16 0
3.3269999 0.048 0.034000002 54 16 0
3.3269999 0.039000001 0.028000001 55 16 0
3.3369999 0.030999999 0.021 54 16 0
3.3329999 0.022 0.015 26 16 0
3.3080001 0.013 0.0089999996 19 16 0
3.2909999 0.0040000002 0.003 18 16 0
3.27 -0.0040000002 -0.0020000001 17 16 0
3.2409999 -0.012 -0.0089999996 22 16 0
3.24 -0.021 -0.015 51 16 0
3.243 -0.028999999 -0.021 139 16 0
3.2420001 -0.037999999 -0.027000001 137 16 0
3.243 -0.046 -0.033 135 16 0
3.2490001 -0.055 -0.039000001 150 16 0
3.2460001 -0.063000001 -0.046 150 16 0
3.2449999 -0.071999997 -0.052000001 54 16 0
3.221 -0.079999998 -0.057 29 16 0
3.2019999 -0.088 -0.063000001 27 16 0
3.1830001 -0.094999999 -0.068999998 25 16 0
3.1630001 -0.103 -0.075000003 25 16 0
3.1440001 -0.11 -0.079999998 26 16 0
3.1229999 -0.118 -0.086000003 25 16 0
3.1029999 -0.125 -0.090999998 25 16 0
3.0899999 -0.133 -0.097000003 24 16 0
3.069 -0.14 -0.102 25 16 0
3.0450001 -0.146 -0.108 25 16 0
3.0339999 -0.154 -0.113 24 16 0
3.007 -0.16 -0.118 24 16 0
2.9949999 -0.167 -0.123 24 16 0
2.9760001 -0.17399999 -0.12899999 24 16 0
2.9560001 -0.18000001 -0.134 25 16 0
2.9430001 -0.18700001 -0.139 25 16 0
2.9230001 -0.193 -0.14399999 25 16 0
2.9070001 -0.2 -0.149 25 16 0
2.8889999 -0.206 -0.154 25 16 0
2.8729999 -0.212 -0.15899999 25 16 0
2.859 -0.21799999 -0.164 25 16 0
2.8440001 -0.22400001 -0.168 25 16 0
2.829 -0.23 -0.17299999 27 16 0
2.8099999 -0.236 -0.178 25 16 0
2.802 -0.242 -0.183 26 16 0
2.777 -0.24699999 -0.18700001 26 16 0
2.766 -0.25299999 -0.192 24 16 0
2.7550001 -0.259 -0.197 26 16 0
2.7379999 -0.26499999 -0.20100001 26 16 0
2.7290001 -0.271 -0.206 26 16 0
2.717 -0.27599999 -0.211 26 16 0
2.698 -0.28099999 -0.215 27 16 0
2.687 -0.287 -0.22 28 16 0
2.674 -0.292 -0.22400001 26 16 0
2.658 -0.29699999 -0.229 28 16 0
2.6440001 -0.30199999 -0.233 27 16 0
2.6340001 -0.308 -0.23800001 28 16 0
2.622 -0.31299999 -0.242 28 16 0
2.6059999 -0.317 -0.24600001 27 16 0
2.595 -0.32300001 -0.25099999 29 16 0
2.5799999 -0.32699999 -0.255 27 16 0
2.569 -0.33199999 -0.259 26 16 0
2.5599999 -0.33700001 -0.264 26 16 0
2.5450001 -0.34200001 -0.26800001 28 16 0
2.5309999 -0.34599999 -0.27200001 27 16 0
2.5209999 -0.35100001 -0.27599999 27 16 0
2.507 -0.35499999 -0.28 31 16 0
2.5009999 -0.361 -0.285 33 16 0
2.4879999 -0.36500001 -0.289 35 16 0
2.4749999 -0.36899999 -0.292 36 16 0
2.4649999 -0.37400001 -0.29699999 37 16 0
2.45 -0.37799999 -0.30000001 31 16 0
2.4430001 -0.38299999 -0.30500001 31 16 0
2.4319999 -0.38699999 -0.30899999 32 16 0
2.425 -0.39199999 -0.31299999 41 16 0
2.411 -0.39500001 -0.317 37 16 0
2.3989999 -0.39899999 -0.32100001 38 16 0
2.3889999 -0.403 -0.32499999 35 16 0
2.3770001 -0.40700001 -0.32800001 37 16 0
2.3659999 -0.41100001 -0.33199999 42 16 0
2.358 -0.41600001 -0.336 33 16 0
2.345 -0.419 -0.34 37 16 0
2.3310001 -0.42199999 -0.34299999 35 16 0
2.325 -0.42699999 -0.34799999 38 16 0
2.313 -0.43000001 -0.35100001 37 16 0
2.3039999 -0.43399999 -0.35499999 41 16 0
2.293 -0.43700001 -0.359 44 16 0
2.283 -0.44100001 -0.36199999 45 16 0
2.273 -0.44499999 -0.366 46 16 0
2.2620001 -0.44800001 -0.37 45 16 0
2.2520001 -0.45100001 -0.373 46 16 0
2.244 -0.45500001 -0.377 47 16 0
2.234 -0.458 -0.38100001 39 16 0
2.227 -0.46200001 -0.38499999 44 16 0
2.2179999 -0.46599999 -0.38800001 40 16 0
2.21 -0.46900001 -0.39199999 44 16 0
2.197 -0.472 -0.39500001 41 16 0
2.1849999 -0.47400001 -0.398 48 16 0
2.1830001 -0.479 -0.403 52 16 0
2.1730001 -0.48199999 -0.40700001 49 16 0
2.1670001 -0.486 -0.41100001 53 16 0
2.1459999 -0.486 -0.412 57 19 0
2.142 -0.49000001 -0.41600001 55 16 0
2.1340001 -0.493 -0.41999999 59 16 0
2.131 -0.498 -0.42500001 56 16 0
2.118 -0.49900001 -0.42699999 50 16 0
2.1129999 -0.50300002 -0.43099999 55 16 0
2.102 -0.50599998 -0.43399999 53 16 0
2.096 -0.509 -0.43799999 53 16 0
2.086 -0.51099998 -0.44100001 55 16 0
2.0799999 -0.51499999 -0.44499999 55 16 0
2.072 -0.51700002 -0.449 61 16 0
2.0639999 -0.51999998 -0.45199999 57 16 0
2.0569999 -0.523 -0.456 64 16 0
2.05 -0.52600002 -0.45899999 68 16 0
2.046 -0.52999997 -0.463 81 16 0
2.0320001 -0.53100002 -0.46599999 75 16 0
2.02 -0.53200001 -0.46799999 80 16 0
2.0179999 -0.53600001 -0.472 77 16 0
2.0090001 -0.53799999 -0.47499999 74 16 0
2.006 -0.542 -0.47999999 78 16 0
2.0009999 -0.54500002 -0.484 75 16 0
1.99 -0.546 -0.486 84 16 0
1.982 -0.54900002 -0.49000001 81 16 0
1.975 -0.551 -0.493 81 16 0
1.969 -0.55400002 -0.49599999 81 16 0
1.961 -0.55599999 -0.5 79 16 0
1.957 -0.55900002 -0.50400001 84 16 0
1.948 -0.56099999 -0.50700003 83 16 0
1.942 -0.56300002 -0.50999999 77 16 0
1.9349999 -0.565 -0.51300001 84 16 0
1.9299999 -0.56800002 -0.51700002 95 16 0
1.9220001 -0.56999999 -0.51999998 84 16 0
1.918 -0.57300001 -0.52399999 91 16 0
1.91 -0.574 -0.52700001 90 16 0
1.904 -0.57700002 -0.53100002 89 16 0
1.899 -0.579 -0.53399998 88 16 0
1.883 -0.57800001 -0.53500003 94 16 0
1.883 -0.58200002 -0.54000002 136 16 0
1.874 -0.583 -0.542 129 16 0
1.868 -0.58499998 -0.546 130 16 0
1.865 -0.588 -0.55000001 130 16 0
1.859 -0.58999997 -0.55299997 128 16 0
1.858 -0.59299999 -0.55800003 131 16 0
1.849 -0.59399998 -0.56 135 16 0
1.845 -0.59600002 -0.56400001 139 16 0
1.842 -0.59899998 -0.56800002 124 16 0
1.8380001 -0.60100001 -0.57200003 139 16 0
1.832 -0.60299999 -0.57499999 136 16 0
1.822 -0.60399997 -0.57700002 135 16 0
1.8200001 -0.60600001 -0.58099997 135 16 0
1.813 -0.60799998 -0.58399999 135 16 0
1.804 -0.60799998 -0.58600003 143 16 0
1.801 -0.61000001 -0.58999997 138 16 0
1.796 -0.61199999 -0.59399998 134 16 0
1.788 -0.61299998 -0.59600002 128 16 0
1.7869999 -0.616 -0.60100001 141 16 0
1.785 -0.61799997 -0.60500002 150 16 0
1.779 -0.62 -0.60799998 147 16 0
1.773 -0.62099999 -0.611 150 16 0
1.771 -0.62300003 -0.61500001 150 16 0
1.758 -0.62199998 -0.616 150 16 0
1.757 -0.625 -0.62 150 16 0
1.749 -0.625 -0.62300003 150 16 0
1.7460001 -0.62699997 -0.62599999 150 16 0
1.74 -0.62699997 -0.62900001 150 16 0
1.737 -0.63 -0.63300002 150 16 0
1.733 -0.63099998 -0.63599998 150 16 0
1.729 -0.63200003 -0.63999999 150 16 0
1.725 -0.634 -0.64300001 150 16 0
1.722 -0.63599998 -0.64700001 150 16 0
1.717 -0.63700002 -0.64999998 150 16 0
1.7130001 -0.63800001 -0.653 150 16 0
1.711 -0.63999999 -0.65700001 150 16 0
1.706 -0.64099997 -0.66000003 150 16 0
1.701 -0.64099997 -0.66299999 150 16 0
1.698 -0.64300001 -0.667 150 16 0
1.697 -0.64499998 -0.671 150 16 0
1.694 -0.64600003 -0.67500001 150 16 0
1.686 -0.64600003 -0.676 150 16 0
1.684 -0.64700001 -0.68000001 150 16 0
1.678 -0.64700001 -0.68199998 150 16 0
1.673 -0.648 -0.685 150 16 0
1.677 -0.65100002 -0.69099998 150 16 0
1.67 -0.65100002 -0.69400001 150 16 0
1.669 -0.653 -0.69800001 150 16 0
1.664 -0.653 -0.69999999 150 16 0
1.655 -0.65200001 -0.70099998 150 16 0
1.653 -0.653 -0.70499998 150 16 0
1.651 -0.65399998 -0.70899999 150 16 0
1.649 -0.65499997 -0.71200001 150 16 0
1.647 -0.65600002 -0.71600002 150 16 0
1.642 -0.65700001 -0.71899998 150 16 0
1.64 -0.65799999 -0.722 150 16 0
1.642 -0.66000003 -0.727 2 0 0
1.636 -0.65899998 -0.72899997 2 0 0
1.635 -0.66000003 -0.73299998 150 16 0
1.625 -0.65799999 -0.73299998 150 16 0
1.632 -0.66299999 -0.741 2 0 0
1.627 -0.662 -0.74299997 1 0 0
1.623 -0.662 -0.745 2 0 0
1.6210001 -0.66299999 -0.74900001 2 0 0
1.619 -0.66299999 -0.75199997 2 0 0
1.617 -0.66399997 -0.755 2 0 0
1.618 -0.66600001 -0.75999999 2 0 0
1.613 -0.66500002 -0.76200002 2 0 0
1.612 -0.66500002 -0.76599997 64 0 0
1.61 -0.66600001 -0.76899999 2 0 0
1.6059999 -0.66600001 -0.77100003 79 0 0
1.605 -0.66600001 -0.77499998 59 0 0
1.605 -0.667 -0.77899998 64 0 0
1.601 -0.667 -0.78100002 76 0 0
1.601 -0.667 -0.78500003 67 0 0
1.598 -0.667 -0.78799999 74 0 0
1.598 -0.66799998 -0.792 81 0 0
1.595 -0.667 -0.79400003 66 0 0
1.592 -0.667 -0.796 75 0 0
1.592 -0.667 -0.80000001 83 0 0
1.592 -0.66799998 -0.80400002 66 0 0
1.589 -0.667 -0.80599999 70 0 0
1.59 -0.66799998 -0.81 80 0 0
1.586 -0.667 -0.81199998 85 0 0
1.584 -0.667 -0.815 67 0 0
1.587 -0.66799998 -0.81999999 62 0 0
1.5829999 -0.667 -0.82099998 70 0 0
1.58 -0.66500002 -0.82300001 150 16 0
1.581 -0.66600001 -0.82700002 67 0 0
1.579 -0.66600001 -0.82999998 150 16 0
1.581 -0.66600001 -0.83399999 76 0 0
1.5779999 -0.66500002 -0.83499998 150 16 0
1.575 -0.66399997 -0.83700001 150 16 0
1.577 -0.66399997 -0.84100002 150 0 0
1.575 -0.66299999 -0.84399998 150 16 0
1.575 -0.66299999 -0.847 150 0 0
1.574 -0.662 -0.84899998 150 16 0
1.572 -0.66100001 -0.85100001 150 16 0
1.572 -0.66100001 -0.85399997 150 16 0
1.571 -0.66000003 -0.85600001 150 16 0
1.574 -0.66000003 -0.86000001 150 16 0
1.573 -0.65899998 -0.86299998 150 16 0
1.574 -0.65899998 -0.866 150 16 0
1.572 -0.65799999 -0.86799997 150 16 0
1.571 -0.65700001 -0.87 150 16 0
1.575 -0.65799999 -0.875 150 16 0
1.577 -0.65799999 -0.87800002 150 16 0
1.581 -0.65799999 -0.88300002 150 16 0
1.5779999 -0.65600002 -0.88300002 150 16 0
1.579 -0.65499997 -0.88700002 150 16 0
1.576 -0.653 -0.88700002 150 16 0
1.5779999 -0.653 -0.88999999 150 16 0
1.579 -0.65200001 -0.89300001 150 16 0
1.5829999 -0.65200001 -0.89700001 150 16 0
1.5829999 -0.65100002 -0.89899999 150 16 0
1.585 -0.64999998 -0.90200001 150 16 0
1.585 -0.64899999 -0.90399998 150 16 0
1.587 -0.648 -0.90700001 150 16 0
1.5880001 -0.64700001 -0.90899998 150 16 0
1.59 -0.64600003 -0.912 150 16 0
1.589 -0.64399999 -0.91299999 150 16 0
1.589 -0.64300001 -0.91500002 150 16 0
1.589 -0.64099997 -0.91600001 150 16 0
1.597 -0.64200002 -0.92199999 150 18 0
1.596 -0.63999999 -0.92199999 150 16 0
1.596 -0.63800001 -0.92400002 150 16 0
1.598 -0.63700002 -0.926 150 16 0
1.599 -0.63499999 -0.92699999 150 16 0
1.6 -0.634 -0.92900002 150 16 0
1.605 -0.634 -0.93300003 150 19 0
1.608 -0.63300002 -0.93599999 150 16 0
1.609 -0.63099998 -0.93699998 150 16 0
0 0 0 0 0 0
0 0 0 0 0 0
0 0 0 0 0 0
0 0 0 0 0 0
0 0 0 0 0 0
0 0 0 0 0 0
0 0 0 0 0 0
0 0 0 0 0 0
0 0 0 0 0 0
0 0 0 0 0 0
0 0 0 0 0 0
0 0 0 0 0 0
0 0 0 0 0 0
0 0 0 0 0 0
0 0 0 0 0 0
0 0 0 0 0 0
0 0 0 0 0 0
0 0 0 0 0 0
0 0 0 0 0 0
0 0 0 0 0 0
0 0 0 0 0 0
0 0 0 0 0 0
0 0 0 0 0 0
0 0 0 0 0 0
0 0 0 0 0 0
0 0 0 0 0 0
0 0 0 0 0 0
0 0 0 0 0 0
0 0 0 0 0 0
0 0 0 0 0 0
0 0 0 0 0 0
0 0 0 0 0 0
0 0 0 0 0 0
0 0 0 0 0 0
0 0 0 0 0 0
0 0 0 0 0 0
0 0 0 0 0 0
0 0 0 0 0 0
0 0 0 0 0 0
0 0 0 0 0 0
0 0 0 0 0 0
0 0 0 0 0 0
0 0 0 0 0 0
0 0 0 0 0 0
0 0 0 0 0 0
0 0 0 0 0 0
0 0 0 0 0 0
0 0 0 0 0 0
0 0 0 0 0 0
0 0 0 0 0 0
0 0 0 0 0 0
0 0 0 0 0 0
0 0 0 0 0 0
0 0 0 0 0 0
0 0 0 0 0 0
0 0 0 0 0 0
0 0 0 0 0 0
0 0 0 0 0 0
0 0 0 0 0 0
0 0 0 0 0 0
0 0 0 0 0 0
0 0 0 0 0 0
0 0 0 0 0 0
0 0 0 0 0 0
0 0 0 0 0 0
0 0 0 0 0 0
0 0 0 0 0 0
0 0 0 0 0 0
0 0 0 0 0 0
0 0 0 0 0 0
0 0 0 0 0 0
0 0 0 0 0 0
0 0 0 0 0 0
0 0 0 0 0 0
0 0 0 0 0 0
0 0 0 0 0 0
0 0 0 0 0 0
0 0 0 0 0 0
0 0 0 0 0 0
0 0 0 0 0 0
0 0 0 0 0 0
0 0 0 0 0 0
0 0 0 0 0 0
0 0 0 0 0 0
0 0 0 0 0 0
0 0 0 0 0 0
0 0 0 0 0 0
0 0 0 0 0 0
0 0 0 0 0 0
0 0 0 0 0 0
0 0 0 0 0 0
0 0 0 0 0 0
0 0 0 0 0 0
0 0 0 0 0 0
0 0 0 0 0 0
0 0 0 0 0 0
2.112 -0.41600001 -0.935 103 16 0
2.1229999 -0.414 -0.93400002 108 16 0
2.1259999 -0.41 -0.92900002 97 16 0
2.1370001 -0.40799999 -0.92799997 99 16 0
2.1440001 -0.40599999 -0.92500001 102 16 0
2.154 -0.403 -0.92400002 97 16 0
2.1589999 -0.40000001 -0.92000002 89 16 0
2.1619999 -0.396 -0.91500002 95 16 0
2.1700001 -0.39399999 -0.91299999 89 16 0
2.1819999 -0.39199999 -0.912 98 16 0
2.1860001 -0.38800001 -0.90700001 96 16 0
2.197 -0.38600001 -0.90499997 86 16 0
2.2079999 -0.384 -0.90399998 90 16 0
2.2149999 -0.38100001 -0.89999998 102 16 0
2.22 -0.37799999 -0.89600003 101 16 0
2.2279999 -0.375 -0.89300001 94 16 0
2.2309999 -0.37099999 -0.88800001 92 16 0
2.244 -0.36899999 -0.88700002 94 16 0
2.2539999 -0.36700001 -0.884 100 16 0
2.2590001 -0.36399999 -0.87900001 93 16 0
2.2690001 -0.361 -0.87699997 92 16 0
2.273 -0.35800001 -0.87099999 82 16 0
2.2869999 -0.35600001 -0.87 82 16 0
2.2980001 -0.35299999 -0.86799997 88 16 0
2.303 -0.34999999 -0.86299998 82 16 0
2.309 -0.347 -0.85799998 86 16 0
2.3180001 -0.34400001 -0.85500002 88 16 0
2.3280001 -0.34200001 -0.852 84 16 0
2.332 -0.33899999 -0.847 86 16 0
2.336 -0.33500001 -0.84100002 87 16 0
2.3429999 -0.33199999 -0.83700001 79 16 0
2.3529999 -0.329 -0.833 84 16 0
2.3640001 -0.32699999 -0.82999998 84 16 0
2.375 -0.324 -0.82700002 82 16 0
2.375 -0.32100001 -0.81999999 75 16 0
2.3859999 -0.31799999 -0.81699997 77 16 0
2.391 -0.315 -0.81099999 78 16 0
2.4000001 -0.31200001 -0.80699998 79 16 0
2.4089999 -0.30899999 -0.80299997 79 16 0
2.4189999 -0.30700001 -0.79900002 70 16 0
2.4260001 -0.30399999 -0.79400003 75 16 0
2.4360001 -0.301 -0.79000002 70 16 0
2.4419999 -0.29800001 -0.78399998 72 16 0
2.454 -0.296 -0.78100002 70 16 0
2.4630001 -0.29300001 -0.77600002 77 16 0
2.474 -0.28999999 -0.77200001 77 16 0
2.477 -0.287 -0.76599997 71 16 0
2.4809999 -0.28299999 -0.75999999 68 16 0
2.494 -0.28099999 -0.75599998 70 16 0
2.4990001 -0.278 -0.75 65 16 0
2.507 -0.27500001 -0.745 64 16 0
2.5190001 -0.27200001 -0.74000001 68 16 0
2.5239999 -0.26899999 -0.73400003 69 16 0
2.536 -0.26699999 -0.73000002 67 16 0
2.5469999 -0.264 -0.72600001 65 16 0
2.55 -0.26100001 -0.71899998 63 16 0
2.563 -0.25799999 -0.71499997 69 16 0
2.5650001 -0.255 -0.70700002 34 16 0
2.5780001 -0.25299999 -0.70300001 34 16 0
2.586 -0.25 -0.69700003 33 16 0
2.596 -0.24699999 -0.69199997 35 16 0
2.6029999 -0.244 -0.68599999 33 16 0
2.6140001 -0.241 -0.68099999 34 16 0
2.6240001 -0.23800001 -0.676 34 16 0
2.6329999 -0.236 -0.67000002 33 16 0
2.641 -0.233 -0.66399997 32 16 0
2.6470001 -0.23 -0.65700001 32 16 0
2.654 -0.227 -0.65100002 31 16 0
2.6630001 -0.22400001 -0.64499998 30 16 0
2.668 -0.221 -0.63800001 32 16 0
2.674 -0.21699999 -0.63099998 30 16 0
2.6819999 -0.214 -0.625 30 16 0
2.7 -0.212 -0.62 31 16 0
2.707 -0.20900001 -0.61400002 30 16 0
2.714 -0.206 -0.60699999 30 16 0
2.724 -0.204 -0.60100001 29 16 0
2.7349999 -0.20100001 -0.59500003 31 16 0
2.7409999 -0.198 -0.588 30 16 0
2.7479999 -0.19499999 -0.58099997 30 16 0
2.756 -0.192 -0.574 29 16 0
2.7679999 -0.189 -0.56800002 30 16 0
2.7780001 -0.18700001 -0.56199998 29 16 0
2.7850001 -0.183 -0.55400002 31 16 0
2.7969999 -0.18099999 -0.54799998 30 16 0
2.802 -0.178 -0.54100001 29 16 0
2.809 -0.175 -0.53299999 29 16 0
2.822 -0.17200001 -0.52700001 29 16 0
2.8280001 -0.169 -0.51899999 29 16 0
2.8410001 -0.16599999 -0.51300001 29 16 0
2.849 -0.164 -0.50599998 30 16 0
2.855 -0.16 -0.498 29 16 0
2.8670001 -0.15800001 -0.491 30 16 0
2.8759999 -0.155 -0.484 30 16 0
2.881 -0.152 -0.47600001 30 16 0
2.902 -0.15000001 -0.47 30 16 0
2.9030001 -0.146 -0.46200001 30 16 0
2.9170001 -0.14399999 -0.45500001 28 16 0
2.927 -0.141 -0.447 30 16 0
2.9349999 -0.138 -0.44 29 16 0
2.9430001 -0.13500001 -0.43200001 29 16 0
2.9560001 -0.132 -0.42500001 30 16 0
2.9619999 -0.12899999 -0.41600001 30 16 0
2.9719999 -0.126 -0.40799999 30 16 0
2.9779999 -0.124 -0.40000001 31 16 0
2.9849999 -0.121 -0.39199999 29 16 0
3.0050001 -0.118 -0.38499999 30 16 0
3.013 -0.115 -0.377 30 16 0
3.0250001 -0.112 -0.36899999 30 16 0
3.033 -0.11 -0.361 30 16 0
3.046 -0.107 -0.35299999 30 16 0
3.0569999 -0.104 -0.34400001 30 16 0
3.0669999 -0.101 -0.336 30 16 0
3.072 -0.097999997 -0.32699999 30 16 0
3.0840001 -0.094999999 -0.31900001 28 16 0
3.0940001 -0.092 -0.31 28 16 0
3.105 -0.089000002 -0.30199999 28 16 0
3.1159999 -0.086999997 -0.29300001 27 16 0
3.1199999 -0.083999999 -0.28400001 29 16 0
3.131 -0.081 -0.27500001 29 16 0
3.1389999 -0.078000002 -0.266 32 16 0
3.1559999 -0.075000003 -0.25799999 44 16 0
3.161 -0.071999997 -0.248 119 16 0
3.165 -0.068999998 -0.23899999 150 16 0
3.1689999 -0.066 -0.229 150 16 0
3.1719999 -0.063000001 -0.22 150 16 0
3.177 -0.059999999 -0.20999999 150 16 0
3.1800001 -0.057 -0.20100001 150 16 0
3.1789999 -0.054000001 -0.191 150 16 0
3.184 -0.050999999 -0.18099999 150 16 0
3.1830001 -0.048 -0.171 150 16 0
3.191 -0.045000002 -0.162 150 16 0
3.198 -0.043000001 -0.152 150 16 0
3.1930001 -0.039999999 -0.142 150 16 0
3.207 -0.037 -0.133 150 16 0
3.2019999 -0.034000002 -0.122 150 16 0
3.2049999 -0.030999999 -0.113 150 16 0
3.207 -0.028000001 -0.103 150 16 0
3.2160001 -0.025 -0.093000002 150 16 0
3.2149999 -0.023 -0.082999997 150 16 0
3.22 -0.02 -0.072999999 102 16 0
3.22 -0.017000001 -0.063000001 51 16 0
3.227 -0.014 -0.052999999 38 16 0
3.2309999 -0.011 -0.043000001 29 16 0
3.2409999 -0.0089999996 -0.033 22 16 0
3.2490001 -0.0060000001 -0.023 20 16 0
3.2620001 -0.003 -0.013 18 16 0
3.2709999 0 -0.003 19 16 0
3.2820001 0.001 0.0070000002 19 16 0
3.2920001 0.0040000002 0.017000001 20 16 0
3.299 0.0070000002 0.027000001 20 16 0
3.313 0.0099999998 0.037999999 20 16 0
3.323 0.012 0.048 20 16 0
3.335 0.015 0.059 21 16 0
3.3410001 0.017999999 0.07 23 16 0
3.346 0.021 0.079999998 35 16 0
3.339 0.023 0.090000004 39 16 0
3.3150001 0.026000001 0.1 34 16 0
3.2850001 0.028000001 0.11 39 16 0
3.273 0.029999999 0.12 150 16 0
3.2780001 0.033 0.13 150 16 0
3.2820001 0.035999998 0.141 150 16 0
3.2820001 0.037999999 0.15099999 150 16 0
3.2850001 0.041000001 0.161 150 16 0
3.2909999 0.043000001 0.17200001 150 16 0
3.2909999 0.046 0.182 150 16 0
3.2950001 0.048 0.193 150 16 0
3.2969999 0.050999999 0.204 150 16 0
3.306 0.052999999 0.215 150 16 0
3.3069999 0.056000002 0.22499999 150 16 0
3.3139999 0.057999998 0.236 150 16 0
3.319 0.059999999 0.24699999 150 16 0
3.3180001 0.063000001 0.257 150 16 0
3.3210001 0.064999998 0.26800001 150 16 0
3.325 0.068000004 0.27900001 150 16 0
3.326 0.07 0.28999999 150 16 0
3.3329999 0.071999997 0.301 150 16 0
3.3340001 0.075000003 0.31200001 150 16 0
3.3380001 0.077 0.32300001 150 16 0
3.3429999 0.079000004 0.33399999 150 16 0
3.352 0.082000002 0.345 150 16 0
3.3499999 0.083999999 0.35600001 150 16 0
3.332 0.086000003 0.36500001 42 16 0
3.3139999 0.086999997 0.373 38 16 0
3.289 0.089000002 0.38100001 37 16 0
3.2750001 0.090999998 0.38999999 37 16 0
3.2539999 0.092 0.398 38 16 0
3.2379999 0.093999997 0.40599999 39 16 0
3.22 0.094999999 0.414 38 16 0
3.201 0.097000003 0.42199999 39 16 0
3.1830001 0.097999997 0.43000001 38 16 0
3.164 0.098999999 0.43799999 38 16 0
3.148 0.101 0.44600001 37 16 0
3.1289999 0.102 0.45300001 39 16 0
3.112 0.103 0.461 36 16 0
3.0899999 0.104 0.46700001 38 16 0
3.0739999 0.105 0.47499999 36 16 0
3.0610001 0.107 0.48300001 37 16 0
3.043 0.108 0.49000001 37 16 0
3.027 0.109 0.49700001 37 16 0
3.0139999 0.11 0.505 37 16 0
2.9960001 0.111 0.51099998 45 16 0
2.9790001 0.112 0.51800001 42 16 0
2.9630001 0.113 0.52499998 44 16 0
2.9430001 0.114 0.53100002 45 16 0
2.9319999 0.115 0.53899997 72 16 0
2.9189999 0.116 0.546 70 16 0
2.901 0.117 0.55199999 70 16 0
2.8870001 0.117 0.55900002 78 16 0
2.8729999 0.118 0.565 73 16 0
2.855 0.119 0.57099998 79 16 0
2.8380001 0.12 0.57700002 79 16 0
2.8239999 0.12 0.583 86 16 0
2.813 0.121 0.58999997 125 16 0
2.799 0.122 0.597 117 16 0
2.7869999 0.123 0.60299999 97 16 0
2.77 0.123 0.60900003 93 16 0
2.7590001 0.124 0.61500001 92 16 0
2.7409999 0.124 0.62099999 105 16 0
2.73 0.125 0.62699997 96 16 0
2.7190001 0.125 0.63300002 97 16 0
2.697 0.125 0.63700002 107 16 0
2.691 0.126 0.64499998 109 16 0
2.6800001 0.127 0.65100002 110 16 0
2.668 0.127 0.65700001 119 16 0
2.6559999 0.12800001 0.66299999 113 16 0
2.6389999 0.12800001 0.667 99 16 0
2.631 0.12800001 0.67400002 104 16 0
2.625 0.12899999 0.68199998 105 16 0
2.612 0.12899999 0.68699998 110 16 0
2.595 0.12899999 0.69099998 114 16 0
2.5810001 0.12899999 0.69599998 130 16 0
2.5680001 0.13 0.70099998 113 16 0
2.5550001 0.13 0.70599997 119 16 0
2.5439999 0.13 0.71100003 120 16 0
2.533 0.13 0.71700001 121 16 0
2.5209999 0.13 0.722 124 16 0
2.51 0.13 0.727 133 16 0
2.5039999 0.131 0.73400003 132 16 0
2.4879999 0.13 0.73799998 130 16 0
2.4749999 0.13 0.74199998 132 16 0
2.4649999 0.13 0.74699998 136 16 0
2.454 0.131 0.75199997 136 16 0
2.4419999 0.13 0.75700003 150 16 0
2.431 0.13 0.76099998 129 16 0
2.4170001 0.13 0.76499999 136 16 0
2.4100001 0.13 0.77100003 142 16 0
2.401 0.13 0.77600002 120 16 0
2.3859999 0.13 0.77999997 127 16 0
2.381 0.13 0.78600001 138 16 0
2.372 0.13 0.79100001 130 16 0
2.3610001 0.13 0.79500002 150 16 0
2.3510001 0.12899999 0.80000001 150 16 0
2.3410001 0.12899999 0.80500001 150 16 0
2.3329999 0.12899999 0.81 150 16 0
2.3239999 0.12899999 0.815 150 16 0
2.3099999 0.12800001 0.81800002 150 16 0
2.3010001 0.12800001 0.82300001 150 16 0
2.2880001 0.127 0.82499999 150 16 0
2.2809999 0.127 0.83099997 150 16 0
2.2709999 0.127 0.83499998 150 16 0
2.2609999 0.126 0.83899999 150 16 0
2.253 0.126 0.84399998 150 16 0
2.2409999 0.125 0.847 150 16 0
2.2309999 0.125 0.85100001 150 16 0
2.223 0.124 0.85500002 150 16 0
2.2160001 0.124 0.86000001 150 16 0
2.2060001 0.123 0.86400002 150 16 0
2.1949999 0.123 0.86699998 150 16 0
2.1789999 0.122 0.86799997 150 16 0
2.1760001 0.121 0.87400001 150 16 0
2.1670001 0.121 0.87800002 150 16 0
2.1600001 0.12 0.88200003 150 16 0
2.148 0.119 0.88499999 150 16 0
2.141 0.119 0.889 150 16 0
2.1329999 0.118 0.89300001 150 16 0
2.128 0.117 0.898 150 16 0
2.119 0.117 0.90200001 150 16 0
2.1070001 0.116 0.90399998 150 16 0
2.102 0.115 0.90899998 150 16 0
2.092 0.114 0.912 150 16 0
2.082 0.113 0.91399997 150 16 0
2.076 0.113 0.91900003 150 16 0
2.0710001 0.112 0.92299998 150 16 0
2.062 0.111 0.926 150 16 0
2.0580001 0.11 0.93099999 150 16 0
2.0469999 0.109 0.93400002 150 16 0
2.0409999 0.108 0.93800002 150 16 0
2.0339999 0.107 0.94199997 150 16 0
2.023 0.106 0.94300002 150 16 0
2.0179999 0.105 0.94700003 150 16 0
2.0079999 0.104 0.949 150 16 0
1.997 0.103 0.95099998 150 16 0
1.987 0.102 0.95300001 150 16 0
1.983 0.101 0.958 150 16 0
1.974 0.1 0.95999998 150 16 0
1.97 0.098999999 0.96399999 150 16 0
1.964 0.097000003 0.96799999 150 16 0
1.954 0.096000001 0.96899998 150 16 0
1.9450001 0.094999999 0.97100002 150 16 0
1.941 0.093999997 0.97600001 150 16 0
1.937 0.093000002 0.98000002 150 16 0
1.927 0.090999998 0.98100001 150 16 0
1.9170001 0.090000004 0.98299998 150 16 0
1.911 0.089000002 0.986 150 16 0
1.906 0.086999997 0.98900002 150 16 0
1.901 0.086000003 0.99299997 150 16 0
1.892 0.085000001 0.99400002 150 16 0
1.888 0.083999999 0.99800003 150 16 0
1.882 0.082000002 1.001 150 16 0
1.872 0.081 1.002 150 16 0
1.864 0.079000004 1.003 150 16 0
1.858 0.078000002 1.006 150 16 0
1.855 0.075999998 1.01 150 16 0
1.851 0.075000003 1.0140001 150 16 0
1.842 0.072999999 1.015 150 16 0
1.837 0.071999997 1.018 150 16 0
1.832 0.071000002 1.021 150 16 0
1.826 0.068999998 1.023 150 16 0
1.816 0.067000002 1.023 150 16 0
1.814 0.066 1.027 150 16 0
1.809 0.064000003 1.03 150 16 0
1.8 0.063000001 1.03 150 16 0
1.798 0.061000001 1.034 150 16 0
1.79 0.059999999 1.035 150 16 0
1.775 0.057999998 1.031 150 16 0
1.771 0.056000002 1.034 150 16 0
1.765 0.054000001 1.036 150 16 0
1.761 0.052999999 1.039 150 16 0
1.7589999 0.050999999 1.0420001 150 16 0
1.757 0.048999999 1.046 150 16 0
1.752 0.048 1.048 150 16 0
1.747 0.046 1.05 150 16 0
1.744 0.044 1.053 150 16 0
1.7410001 0.043000001 1.056 150 16 0
1.737 0.041000001 1.058 150 16 0
1.73 0.039000001 1.059 150 16 0
1.726 0.037 1.061 150 16 0
1.725 0.035 1.0650001 150 16 0
1.72 0.033 1.066 150 16 0
1.711 0.030999999 1.0650001 150 16 0
1.71 0.029999999 1.068 150 16 0
1.702 0.028000001 1.068 150 16 0
1.702 0.026000001 1.072 150 16 0
1.6950001 0.024 1.072 150 16 0
1.692 0.022 1.074 150 16 0
1.689 0.02 1.076 150 16 0
1.686 0.017999999 1.0779999 150 16 0
1.678 0.016000001 1.077 150 16 0
1.677 0.014 1.08 150 16 0
1.675 0.012 1.0829999 150 16 0
1.673 0.0099999998 1.085 150 16 0
1.669 0.0080000004 1.086 150 16 0
1.666 0.0060000001 1.0880001 150 16 0
1.664 0.0040000002 1.09 150 16 0
1.661 0.0020000001 1.091 150 16 0
1.6569999 0 1.092 150 16 0
1.658 -0.001 1.096 150 16 0
1.646 -0.003 1.092 150 19 0
1.643 -0.0049999999 1.0930001 150 16 0
1.64 -0.0070000002 1.094 150 16 0
1.638 -0.0089999996 1.095 150 16 0
1.637 -0.012 1.098 150 16 0
1.631 -0.014 1.096 150 16 0
1.628 -0.016000001 1.097 150 16 0
1.625 -0.017999999 1.098 150 16 0
1.626 -0.02 1.101 150 16 0
1.623 -0.022 1.101 150 16 0
1.622 -0.025 1.103 150 16 0
1.6210001 -0.027000001 1.104 150 16 0
1.618 -0.028999999 1.105 150 16 0
1.617 -0.030999999 1.1059999 150 16 0
1.6160001 -0.033 1.108 150 16 0
1.6109999 -0.035 1.107 150 16 0
1.617 -0.037999999 1.113 150 16 0
1.615 -0.039999999 1.113 150 16 0
1.6160001 -0.041999999 1.1160001 150 16 0
1.608 -0.044 1.112 150 19 0
1.609 -0.046999998 1.114 150 16 0
1.603 -0.048999999 1.1109999 150 16 0
1.602 -0.050999999 1.112 150 16 0
1.602 -0.052999999 1.113 150 16 0
1.598 -0.056000002 1.112 150 16 0
1.595 -0.057999998 1.1109999 150 16 0
1.595 -0.059999999 1.112 150 16 0
1.596 -0.061999999 1.114 150 16 0
1.595 -0.064999998 1.115 150 16 0
1.595 -0.067000002 1.115 150 16 0
1.5930001 -0.068999998 1.114 150 16 0
1.5930001 -0.071000002 1.115 150 16 0
1.594 -0.074000001 1.1160001 150 16 0
1.592 -0.075999998 1.115 150 16 0
1.59 -0.078000002 1.114 150 16 0
1.59 -0.079999998 1.115 150 16 0
1.591 -0.082999997 1.1160001 150 16 0
1.5930001 -0.085000001 1.117 150 16 0
1.591 -0.086999997 1.1160001 150 16 0
1.591 -0.089000002 1.1160001 150 16 0
1.591 -0.092 1.1160001 150 16 0
1.591 -0.093999997 1.115 150 16 0
1.591 -0.096000001 1.115 150 16 0
1.5930001 -0.097999997 1.1160001 150 16 0
1.5930001 -0.101 1.1160001 150 16 0
1.5930001 -0.103 1.115 150 16 0
1.596 -0.105 1.117 150 16 0
1.597 -0.108 1.1160001 150 16 0
1.597 -0.11 1.1160001 150 16 0
1.597 -0.112 1.115 150 16 0
1.599 -0.114 1.115 150 16 0
1.596 -0.116 1.112 150 16 0
1.6 -0.118 1.114 150 16 0
1.602 -0.121 1.114 150 16 0
1.603 -0.123 1.113 150 16 0
1.603 -0.125 1.112 150 16 0
1.604 -0.127 1.1109999 150 16 0
1.605 -0.12899999 1.11 150 16 0
1.6059999 -0.132 1.109 150 16 0
1.608 -0.134 1.108 150 16 0
1.612 -0.13600001 1.109 150 16 0
1.612 -0.138 1.108 150 16 0
1.615 -0.14 1.108 150 16 0
1.614 -0.142 1.105 150 16 0
1.615 -0.14399999 1.103 150 16 0
1.618 -0.146 1.103 150 16 0
1.619 -0.148 1.101 150 16 0
1.623 -0.15099999 1.102 150 16 0
1.625 -0.153 1.1 150 16 0
1.633 -0.155 1.104 150 19 0
1.632 -0.15700001 1.1 150 16 0
1.636 -0.15899999 1.1 150 16 0
1.636 -0.161 1.097 150 16 0
1.637 -0.163 1.095 150 16 0
1.6390001 -0.16500001 1.0930001 150 16 0
1.653 -0.168 1.1 150 18 0
1.654 -0.17 1.097 150 16 0
1.656 -0.171 1.095 150 16 0
1.654 -0.17299999 1.091 150 16 0
1.66 -0.175 1.091 150 16 0
1.661 -0.177 1.089 150 16 0
1.669 -0.17900001 1.09 150 16 0
1.674 -0.18099999 1.09 143 16 0
1.6799999 -0.183 1.09 124 16 0
1.6849999 -0.185 1.09 122 16 0
1.689 -0.18700001 1.0880001 134 16 0
1.691 -0.189 1.086 150 16 0
1.693 -0.191 1.0829999 150 16 0
1.696 -0.192 1.081 150 16 0
1.693 -0.193 1.075 150 16 0
1.7 -0.19499999 1.075 150 16 0
1.704 -0.197 1.074 150 16 0
1.706 -0.199 1.071 150 16 0
1.715 -0.20100001 1.072 150 16 0
1.716 -0.20200001 1.068 150 16 0
1.722 -0.204 1.068 150 16 0
1.721 -0.205 1.063 150 16 0
1.729 -0.207 1.063 150 16 0
1.7309999 -0.20900001 1.059 150 16 0
1.7359999 -0.20999999 1.058 150 16 0
1.738 -0.212 1.0549999 150 16 0
1.743 -0.213 1.053 150 16 0
1.745 -0.214 1.049 150 16 0
1.751 -0.21600001 1.048 150 16 0
1.753 -0.21699999 1.044 150 16 0
1.7690001 -0.22 1.048 150 19 0
1.775 -0.222 1.0470001 150 16 0
1.779 -0.223 1.044 150 16 0
1.785 -0.22499999 1.0420001 150 16 0
1.7920001 -0.226 1.041 150 16 0
1.7970001 -0.228 1.039 150 16 0
1.802 -0.229 1.036 150 16 0
1.811 -0.23100001 1.036 150 16 0
1.813 -0.23199999 1.0319999 150 16 0
1.817 -0.233 1.029 150 16 0
1.823 -0.234 1.026 150 16 0
1.8279999 -0.235 1.024 150 16 0
1.836 -0.237 1.023 150 16 0
1.841 -0.23800001 1.0190001 150 16 0
1.845 -0.23899999 1.016 150 16 0
1.854 -0.23999999 1.015 150 16 0
1.858 -0.241 1.012 150 16 0
1.867 -0.243 1.011 150 16 0
1.872 -0.244 1.007 150 16 0
1.877 -0.245 1.0039999 150 16 0
1.886 -0.24600001 1.003 150 16 0
1.8890001 -0.24699999 0.99900001 150 16 0
1.902 -0.249 0.99900001 150 16 0
1.903 -0.249 0.99299997 150 16 0
1.914 -0.25 0.99299997 150 16 0
1.9170001 -0.25099999 0.98799998 150 16 0
1.923 -0.252 0.98500001 150 16 0
1.933 -0.25299999 0.98400003 150 16 0
1.9400001 -0.25400001 0.98100001 150 16 0
1.946 -0.255 0.97799999 150 16 0
1.956 -0.25600001 0.97600001 150 16 0
1.96 -0.257 0.972 150 16 0
1.967 -0.257 0.96899998 150 16 0
1.975 -0.25799999 0.96600002 150 16 0
1.98 -0.259 0.96200001 147 16 0
1.984 -0.259 0.958 150 16 0
1.989 -0.259 0.95300001 144 16 0
2.006 -0.26100001 0.95499998 150 19 0
2.017 -0.26199999 0.95300001 141 16 0
2.026 -0.26300001 0.95099998 146 16 0
2.0339999 -0.264 0.94800001 150 16 0
2.0380001 -0.264 0.94300002 140 16 0
2.0469999 -0.26499999 0.94 150 16 0
2.056 -0.26499999 0.93699998 142 16 0
2.0650001 -0.266 0.93400002 147 16 0
2.072 -0.266 0.93099999 143 16 0
2.079 -0.26699999 0.92699999 143 16 0
2.086 -0.26699999 0.92299998 150 16 0
2.0910001 -0.26699999 0.91799998 141 16 0
2.099 -0.26699999 0.91500002 137 16 0
2.109 -0.26800001 0.912 132 16 0
2.119 -0.26800001 0.90899998 144 16 0
2.131 -0.26899999 0.90700001 143 16 0
2.1329999 -0.26899999 0.90100002 124 16 0
2.141 -0.26899999 0.89600003 136 16 0
2.151 -0.26899999 0.89300001 133 16 0
2.158 -0.26899999 0.889 141 16 0
2.1689999 -0.27000001 0.88599998 132 16 0
2.1800001 -0.27000001 0.88300002 130 16 0
2.188 -0.27000001 0.87900001 135 16 0
2.191 -0.27000001 0.87300003 133 16 0
2.2060001 -0.27000001 0.87199998 131 16 0
2.214 -0.27000001 0.86699998 82 16 0
2.22 -0.27000001 0.86199999 84 16 0
2.2309999 -0.27000001 0.85900003 76 16 0
2.2409999 -0.27000001 0.85500002 92 16 0
2.25 -0.27000001 0.85100001 84 16 0
2.2620001 -0.27000001 0.84799999 93 16 0
2.2620001 -0.26899999 0.83999997 93 16 0
2.2809999 -0.27000001 0.83999997 86 16 0
2.286 -0.26899999 0.83399999 85 16 0
2.2969999 -0.26899999 0.82999998 89 16 0
2.3080001 -0.26899999 0.82599998 75 16 0
2.3210001 -0.26899999 0.82300001 80 16 0
2.3310001 -0.26899999 0.81900001 84 16 0
2.339 -0.26899999 0.81400001 86 16 0
2.349 -0.26800001 0.81 84 16 0
2.359 -0.26800001 0.80500001 85 16 0
2.3659999 -0.26699999 0.80000001 81 16 0
2.3770001 -0.26699999 0.79500002 85 16 0
2.3889999 -0.266 0.79100001 86 16 0
2.3970001 -0.266 0.78600001 74 16 0
2.4070001 -0.26499999 0.78100002 74 16 0
2.4200001 -0.26499999 0.77700001 71 16 0
2.428 -0.264 0.77200001 67 16 0
2.437 -0.26300001 0.76700002 65 16 0
2.448 -0.26300001 0.76200002 70 16 0
2.4590001 -0.26199999 0.75700003 77 16 0
2.4679999 -0.26100001 0.75199997 69 16 0
2.484 -0.26100001 0.74900001 70 16 0
2.49 -0.25999999 0.74199998 67 16 0
2.5039999 -0.259 0.73799998 61 16 0
2.513 -0.25799999 0.73299998 64 16 0
2.5280001 -0.25799999 0.72899997 62 16 0
2.533 -0.25600001 0.722 67 16 0
2.553 -0.25600001 0.71899998 58 16 0
2.5580001 -0.25400001 0.71200001 41 16 0
2.5699999 -0.25299999 0.70700002 39 16 0
2.582 -0.252 0.70200002 39 16 0
2.598 -0.252 0.69800001 48 16 0
2.6070001 -0.25 0.69199997 37 16 0
2.6210001 -0.25 0.68699998 36 16 0
2.632 -0.248 0.68099999 37 16 0
2.6440001 -0.24699999 0.676 37 16 0
2.655 -0.24600001 0.67000002 38 16 0
2.664 -0.244 0.66399997 35 16 0
2.675 -0.243 0.65799999 36 16 0
2.6900001 -0.242 0.653 36 16 0
2.6989999 -0.23999999 0.64600003 29 16 0
2.7119999 -0.23899999 0.64099997 29 16 0
2.7290001 -0.23800001 0.63599998 30 16 0
2.7349999 -0.236 0.62800002 28 16 0
2.753 -0.235 0.62400001 28 16 0
2.7650001 -0.233 0.61799997 30 16 0
2.7750001 -0.23100001 0.611 29 16 0
2.789 -0.23 0.60500002 30 16 0
2.806 -0.229 0.60000002 29 16 0
2.8210001 -0.227 0.59399998 29 16 0
2.832 -0.22499999 0.58700001 29 16 0
