# .PCD v0.7 - Point Cloud Data file format
VERSION 0.7
FIELDS x y z intensity tag line
SIZE 4 4 4 4 1 1
TYPE F F F F U U
COUNT 1 1 1 1 1 1
WIDTH 1353
HEIGHT 1
VIEWPOINT 0 0 0 1 0 0 0
POINTS 1353
DATA ascii
2.335 1.426 0.77700001 38 16 0
2.3239999 1.42 0.77700001 36 19 0
2.3210001 1.419 0.77999997 38 16 0
2.316 1.416 0.78200001 38 16 0
2.312 1.4119999 0.78399998 38 16 0
2.3050001 1.408 0.78600001 38 16 0
2.3039999 1.408 0.78899997 40 16 0
2.303 1.406 0.792 40 16 0
2.296 1.401 0.79299998 40 16 0
2.2880001 1.396 0.79400003 38 16 0
2.286 1.3940001 0.796 40 16 0
2.286 1.393 0.79900002 39 16 0
2.276 1.386 0.79900002 38 19 0
2.2750001 1.3839999 0.80199999 42 16 0
2.2739999 1.382 0.80400002 43 16 0
2.267 1.376 0.80500001 43 16 0
2.266 1.375 0.80800003 44 16 0
2.266 1.373 0.81 52 16 0
2.257 1.3660001 0.81 50 19 0
2.253 1.362 0.81099999 50 16 0
2.2509999 1.359 0.81300002 43 16 0
2.25 1.3559999 0.815 40 16 0
2.247 1.352 0.81599998 39 16 0
2.247 1.35 0.81900001 43 16 0
2.2449999 1.347 0.81999999 46 16 0
2.243 1.3430001 0.82200003 52 16 0
2.2409999 1.339 0.82300001 56 16 0
2.2349999 1.334 0.82300001 56 16 0
2.234 1.33 0.82499999 57 16 0
2.237 1.329 0.82800001 64 16 0
2.23 1.322 0.82700002 56 16 0
2.2249999 1.316 0.82700002 50 16 0
2.2290001 1.3150001 0.83099997 71 16 0
2.2219999 1.308 0.82999998 59 16 0
2.223 1.306 0.83200002 63 16 0
2.223 1.303 0.833 68 16 0
2.2160001 1.295 0.83200002 64 19 0
2.2179999 1.2920001 0.83399999 63 16 0
2.217 1.288 0.83499998 61 16 0
2.2149999 1.284 0.83600003 59 16 0
2.2179999 1.281 0.838 64 16 0
2.2149999 1.276 0.838 67 16 0
2.21 1.2690001 0.83700001 69 16 0
2.207 1.263 0.83700001 73 16 0
2.2049999 1.258 0.83700001 78 16 0
2.2019999 1.252 0.83700001 73 16 0
2.2060001 1.25 0.83899999 75 16 0
2.2049999 1.245 0.83899999 79 16 0
2.204 1.2410001 0.83899999 81 16 0
2.204 1.2359999 0.83899999 76 16 0
2.204 1.232 0.83999997 86 16 0
2.2060001 1.228 0.84100002 77 16 0
2.2030001 1.222 0.83999997 82 16 0
2.2019999 1.216 0.83999997 83 16 0
2.2030001 1.212 0.84100002 87 16 0
2.2049999 1.2079999 0.84100002 90 16 0
2.2049999 1.2029999 0.84100002 89 16 0
2.204 1.198 0.84100002 100 16 0
2.2030001 1.192 0.83999997 93 16 0
2.2049999 1.188 0.84100002 101 16 0
2.201 1.181 0.83899999 84 16 0
2.207 1.179 0.84100002 91 16 0
2.21 1.175 0.84200001 85 16 0
2.207 1.168 0.83999997 83 16 0
2.2060001 1.1619999 0.83899999 84 16 0
2.207 1.1569999 0.83899999 89 16 0
2.207 1.152 0.838 83 16 0
2.207 1.146 0.83700001 81 16 0
2.2090001 1.142 0.83700001 85 16 0
2.2119999 1.137 0.83700001 92 16 0
2.214 1.133 0.83700001 91 16 0
2.2160001 1.128 0.83700001 93 16 0
2.2190001 1.124 0.83700001 86 16 0
2.22 1.119 0.83600003 89 16 0
2.2190001 1.112 0.83399999 88 16 0
2.2249999 1.109 0.83600003 97 16 0
2.221 1.101 0.83200002 92 16 0
2.2260001 1.098 0.833 102 16 0
2.2260001 1.092 0.83099997 96 16 0
2.2309999 1.0880001 0.83200002 101 16 0
2.2309999 1.082 0.82999998 101 16 0
2.234 1.077 0.829 97 16 0
2.234 1.071 0.82800001 98 16 0
2.2390001 1.067 0.82800001 96 16 0
2.2360001 1.059 0.82499999 94 16 0
2.244 1.057 0.82599998 104 16 0
2.2490001 1.052 0.82499999 109 16 0
2.25 1.0470001 0.824 108 16 0
2.2520001 1.041 0.82300001 108 16 0
2.257 1.0369999 0.82200003 109 16 0
2.2579999 1.031 0.81999999 104 16 0
2.263 1.027 0.81900001 89 16 0
2.2639999 1.021 0.81699997 92 16 0
2.2650001 1.015 0.815 91 16 0
2.2709999 1.011 0.815 92 16 0
2.2739999 1.006 0.81400001 93 16 0
2.277 1 0.81199998 101 16 0
2.28 0.995 0.81099999 105 16 0
2.283 0.99000001 0.80900002 102 16 0
2.286 0.98400003 0.80699998 95 16 0
2.2869999 0.97799999 0.80500001 92 16 0
2.2939999 0.97399998 0.80500001 94 16 0
2.296 0.96899998 0.80199999 89 16 0
2.299 0.963 0.801 99 16 0
2.303 0.958 0.79900002 102 16 0
2.3050001 0.95200002 0.79699999 97 16 0
2.309 0.94700003 0.79500002 105 16 0
2.3180001 0.94400001 0.79500002 105 16 0
2.3199999 0.93699998 0.792 88 16 0
2.326 0.93300003 0.79100001 98 16 0
2.332 0.92900002 0.79000002 94 16 0
2.3329999 0.92199999 0.787 88 16 0
2.3380001 0.917 0.78500003 91 16 0
2.346 0.91399997 0.78399998 96 16 0
2.3469999 0.90700001 0.78100002 85 16 0
2.355 0.903 0.77999997 97 16 0
2.3559999 0.89600003 0.77600002 89 16 0
2.3610001 0.89200002 0.77499998 92 16 0
2.3640001 0.88599998 0.77200001 90 16 0
2.3740001 0.88200003 0.77100003 94 16 0
2.381 0.87800002 0.76999998 97 16 0
2.3859999 0.87300003 0.76800001 96 16 0
2.3940001 0.86900002 0.76599997 98 16 0
2.398 0.86299998 0.764 101 16 0
2.4000001 0.85699999 0.75999999 99 16 0
2.404 0.85100001 0.75800002 105 16 0
2.411 0.847 0.75599998 93 16 0
2.415 0.84100002 0.75300002 95 16 0
2.4219999 0.83700001 0.75099999 91 16 0
2.427 0.83099997 0.74800003 92 16 0
2.4330001 0.82599998 0.74599999 89 16 0
2.4360001 0.81999999 0.74199998 93 16 0
2.4419999 0.815 0.74000001 81 16 0
2.448 0.81 0.73799998 84 16 0
2.457 0.80599999 0.736 100 16 0
2.4630001 0.801 0.73299998 94 16 0
2.471 0.796 0.73100001 98 16 0
2.4749999 0.79100001 0.72799999 96 16 0
2.487 0.787 0.727 98 16 0
2.49 0.78100002 0.72299999 89 16 0
2.5 0.77700001 0.72100002 91 16 0
2.503 0.77100003 0.71700001 85 16 0
2.507 0.76499999 0.71399999 85 16 0
2.5179999 0.76099998 0.71200001 82 16 0
2.5209999 0.755 0.708 79 16 0
2.53 0.75099999 0.70599997 83 16 0
2.536 0.745 0.70300001 78 16 0
2.5420001 0.74000001 0.699 88 16 0
2.55 0.73500001 0.69599998 88 16 0
2.559 0.73000002 0.69400001 85 16 0
2.5639999 0.72500002 0.69 83 16 0
2.5739999 0.72000003 0.68800002 83 16 0
2.5769999 0.71399999 0.68400002 81 16 0
2.5829999 0.70899999 0.68000001 74 16 0
2.5880001 0.70300001 0.676 61 16 0
2.595 0.69800001 0.67299998 67 16 0
2.602 0.69199997 0.66900003 69 16 0
2.6159999 0.68900001 0.66799998 59 16 0
2.6229999 0.68400002 0.66399997 65 16 0
2.6300001 0.67799997 0.66100001 64 16 0
2.6359999 0.67199999 0.65700001 54 16 0
2.641 0.667 0.653 57 16 0
2.651 0.662 0.64899999 57 16 0
2.658 0.65700001 0.64600003 39 16 0
2.6700001 0.65200001 0.64300001 39 16 0
2.678 0.64700001 0.639 43 16 0
2.687 0.64200002 0.63599998 39 16 0
2.6930001 0.63599998 0.63200003 39 16 0
2.6989999 0.63 0.62699997 40 16 0
2.7130001 0.62599999 0.625 38 16 0
2.7219999 0.62099999 0.62099999 39 16 0
2.7249999 0.61500001 0.616 40 16 0
2.74 0.611 0.61400002 39 16 0
2.7449999 0.60500002 0.60900003 38 16 0
2.756 0.60000002 0.60600001 38 16 0
2.766 0.59500003 0.602 37 16 0
2.773 0.58899999 0.597 38 16 0
2.783 0.58399999 0.59399998 37 16 0
2.789 0.57800001 0.58899999 38 16 0
2.802 0.574 0.58499998 38 16 0
2.8169999 0.56999999 0.58200002 37 16 0
2.825 0.56400001 0.57800001 38 16 0
2.832 0.55800003 0.57300001 37 16 0
2.8410001 0.55299997 0.56900001 36 16 0
2.852 0.54699999 0.565 35 16 0
2.8629999 0.542 0.56099999 35 16 0
2.869 0.53600001 0.55500001 36 16 0
2.8829999 0.53200001 0.55199999 37 16 0
2.892 0.52600002 0.54699999 37 16 0
2.898 0.51999998 0.542 36 16 0
2.9089999 0.514 0.537 35 16 0
2.9289999 0.51099998 0.53500003 36 16 0
2.938 0.505 0.52999997 34 16 0
2.9489999 0.49900001 0.52499998 36 16 0
2.964 0.49399999 0.52100003 35 16 0
2.9660001 0.48800001 0.51499999 33 16 0
2.983 0.48300001 0.51099998 35 16 0
2.997 0.47799999 0.50700003 35 16 0
3.0050001 0.472 0.50099999 33 16 0
3.0150001 0.46599999 0.49599999 33 16 0
3.029 0.461 0.49200001 33 16 0
3.0409999 0.45500001 0.48699999 34 16 0
3.0550001 0.44999999 0.48199999 33 16 0
3.0610001 0.44299999 0.47600001 35 16 0
3.076 0.43799999 0.47099999 34 16 0
3.089 0.433 0.46599999 34 16 0
3.1040001 0.42699999 0.461 35 16 0
3.1159999 0.421 0.456 35 16 0
3.1259999 0.41499999 0.44999999 35 16 0
3.145 0.41 0.44600001 34 16 0
3.158 0.405 0.44 36 16 0
3.1700001 0.39899999 0.435 36 16 0
3.178 0.39199999 0.428 34 16 0
3.188 0.38600001 0.42199999 36 16 0
3.214 0.382 0.41800001 44 16 0
3.214 0.37400001 0.41100001 126 16 0
3.22 0.36700001 0.40400001 150 16 0
3.2219999 0.36000001 0.39700001 150 16 0
3.224 0.35299999 0.38999999 149 16 0
3.2260001 0.345 0.382 150 16 0
3.224 0.338 0.37400001 142 16 0
3.224 0.33000001 0.36700001 150 16 0
3.227 0.32300001 0.36000001 147 16 0
3.2290001 0.31600001 0.352 146 16 0
3.2290001 0.30899999 0.345 150 16 0
3.2260001 0.301 0.33700001 143 16 0
3.2260001 0.294 0.329 150 16 0
3.2279999 0.287 0.322 150 16 0
3.2260001 0.27900001 0.31400001 150 16 0
3.2320001 0.27200001 0.30700001 150 16 0
3.2320001 0.26499999 0.29899999 147 16 0
3.2320001 0.25799999 0.292 150 16 0
3.2309999 0.25 0.28400001 150 16 0
3.233 0.243 0.27599999 150 16 0
3.2290001 0.236 0.26800001 124 16 0
3.2309999 0.229 0.26100001 145 16 0
3.2320001 0.222 0.25299999 123 16 0
3.2309999 0.214 0.245 141 16 0
3.233 0.207 0.23800001 131 16 0
3.1670001 0.19599999 0.22499999 150 17 0
3.0829999 0.184 0.212 92 19 0
3.0739999 0.177 0.204 26 16 0
3.096 0.171 0.198 25 16 0
3.198 0.17 0.197 67 16 0
3.233 0.16500001 0.191 136 16 0
3.234 0.15800001 0.183 128 16 0
3.2349999 0.15099999 0.176 117 16 0
3.2379999 0.14399999 0.168 117 16 0
3.237 0.13699999 0.16 120 16 0
3.234 0.13 0.152 117 16 0
3.237 0.123 0.14399999 114 16 0
3.2390001 0.116 0.13600001 52 16 0
3.2449999 0.11 0.12899999 34 16 0
3.263 0.103 0.121 27 16 0
3.2820001 0.097000003 0.114 27 16 0
3.3010001 0.090000004 0.107 29 16 0
3.325 0.083999999 0.098999999 31 16 0
3.336 0.077 0.090999998 32 16 0
3.3329999 0.07 0.082999997 6 16 0
3.2920001 0.061999999 0.074000001 6 18 0
3.2920001 0.055 0.066 14 16 0
3.2939999 0.048 0.057999998 4 16 0
3.3410001 0.041999999 0.050000001 24 18 0
3.3380001 0.035 0.041999999 56 16 0
3.342 0.028000001 0.034000002 52 16 0
3.3369999 0.021 0.026000001 26 16 0
3.316 0.014 0.017000001 18 16 0
3.299 0.0070000002 0.0089999996 17 16 0
3.2809999 0.001 0.001 17 16 0
3.2639999 -0.0049999999 -0.0060000001 16 16 0
3.2390001 -0.012 -0.014 20 16 0
3.2379999 -0.017999999 -0.023 36 16 0
3.2320001 -0.025 -0.030999999 100 16 0
3.234 -0.032000002 -0.039000001 116 16 0
3.234 -0.037999999 -0.046999998 116 16 0
3.2349999 -0.045000002 -0.055 130 16 0
3.234 -0.050999999 -0.063000001 126 16 0
3.234 -0.057999998 -0.071000002 142 16 0
3.2349999 -0.064999998 -0.079999998 150 16 0
3.227 -0.071000002 -0.088 74 16 0
3.2160001 -0.077 -0.094999999 31 16 0
3.2030001 -0.082999997 -0.103 26 16 0
3.184 -0.089000002 -0.111 26 16 0
3.164 -0.094999999 -0.118 26 16 0
3.1489999 -0.101 -0.125 25 16 0
3.1340001 -0.107 -0.133 25 16 0
3.1159999 -0.112 -0.14 24 16 0
3.099 -0.118 -0.147 25 16 0
3.086 -0.123 -0.155 24 16 0
3.069 -0.12899999 -0.162 25 16 0
3.056 -0.134 -0.169 25 16 0
3.0369999 -0.139 -0.176 24 16 0
3.0220001 -0.145 -0.183 23 16 0
3.003 -0.15000001 -0.189 23 16 0
2.9890001 -0.155 -0.19599999 23 16 0
2.9749999 -0.16 -0.20299999 23 16 0
2.9649999 -0.16500001 -0.20999999 23 16 0
2.9519999 -0.17 -0.21699999 23 16 0
2.9349999 -0.175 -0.223 23 16 0
2.9260001 -0.18000001 -0.23 24 16 0
2.9030001 -0.184 -0.236 22 16 0
2.8970001 -0.19 -0.243 24 16 0
2.881 -0.19400001 -0.249 23 16 0
2.868 -0.199 -0.25600001 24 16 0
2.8510001 -0.20299999 -0.26199999 24 16 0
2.839 -0.208 -0.26800001 24 16 0
2.8329999 -0.213 -0.27500001 26 16 0
2.823 -0.21699999 -0.28099999 26 16 0
2.799 -0.221 -0.287 27 16 0
2.7939999 -0.226 -0.29300001 25 16 0
2.7809999 -0.23 -0.30000001 26 16 0
2.7709999 -0.234 -0.30599999 25 16 0
2.756 -0.23800001 -0.31200001 26 16 0
2.7479999 -0.243 -0.31799999 26 16 0
2.7320001 -0.24600001 -0.324 27 16 0
2.721 -0.25099999 -0.33000001 26 16 0
2.7179999 -0.255 -0.336 27 16 0
2.7090001 -0.259 -0.34299999 27 16 0
2.698 -0.264 -0.34900001 27 16 0
2.6849999 -0.26699999 -0.354 27 16 0
2.6719999 -0.271 -0.36000001 28 16 0
2.6600001 -0.27500001 -0.366 26 16 0
2.6530001 -0.27900001 -0.37200001 25 16 0
2.638 -0.28200001 -0.377 27 16 0
2.625 -0.285 -0.382 27 16 0
2.6129999 -0.289 -0.38800001 26 16 0
2.609 -0.29300001 -0.39399999 27 16 0
2.5940001 -0.296 -0.39899999 26 16 0
2.5869999 -0.30000001 -0.405 27 16 0
2.579 -0.30399999 -0.41100001 28 16 0
2.5680001 -0.30700001 -0.41600001 27 16 0
2.5610001 -0.31099999 -0.42199999 27 16 0
2.55 -0.31400001 -0.428 26 16 0
2.5350001 -0.317 -0.43200001 26 16 0
2.5250001 -0.31999999 -0.43700001 26 16 0
2.517 -0.324 -0.44299999 27 16 0
2.5120001 -0.32699999 -0.449 29 16 0
2.5009999 -0.33000001 -0.454 32 16 0
2.4890001 -0.333 -0.45899999 30 16 0
2.4790001 -0.336 -0.46399999 30 16 0
2.4719999 -0.34 -0.47 31 16 0
2.4660001 -0.34299999 -0.47600001 31 16 0
2.4530001 -0.34599999 -0.47999999 30 16 0
2.447 -0.34900001 -0.486 32 16 0
2.437 -0.352 -0.491 31 16 0
2.428 -0.35499999 -0.49599999 31 16 0
2.421 -0.35800001 -0.50199997 32 16 0
2.415 -0.361 -0.50800002 33 16 0
2.4089999 -0.36500001 -0.51300001 32 16 0
2.3989999 -0.36700001 -0.51800001 30 16 0
2.392 -0.37 -0.523 35 16 0
2.3789999 -0.37200001 -0.528 31 16 0
2.3729999 -0.375 -0.53299999 31 16 0
2.3659999 -0.37799999 -0.53799999 32 16 0
2.3610001 -0.38100001 -0.54400003 29 16 0
2.3469999 -0.38299999 -0.54799998 30 16 0
2.339 -0.38499999 -0.55299997 31 16 0
2.3269999 -0.38699999 -0.55699998 27 16 0
2.326 -0.391 -0.56300002 28 16 0
2.3199999 -0.39399999 -0.56900001 28 16 0
2.3099999 -0.396 -0.57300001 29 16 0
2.3010001 -0.398 -0.57800001 30 16 0
2.29 -0.40000001 -0.58200002 28 16 0
2.2839999 -0.403 -0.58700001 29 16 0
2.2750001 -0.405 -0.59100002 33 16 0
2.2690001 -0.40700001 -0.597 29 16 0
2.26 -0.40900001 -0.60100001 36 16 0
2.257 -0.412 -0.60699999 33 16 0
2.253 -0.41499999 -0.61299998 31 16 0
2.2420001 -0.417 -0.616 29 16 0
2.234 -0.419 -0.62099999 34 16 0
2.2260001 -0.421 -0.625 34 16 0
2.2179999 -0.42199999 -0.63 35 16 0
2.2149999 -0.42500001 -0.63599998 35 16 0
2.2049999 -0.42699999 -0.63999999 38 16 0
2.2 -0.42899999 -0.64499998 38 16 0
2.1960001 -0.43200001 -0.64999998 44 16 0
2.1889999 -0.43399999 -0.65499997 56 16 0
2.1800001 -0.435 -0.65899998 57 16 0
2.174 -0.43700001 -0.66399997 52 16 0
2.1700001 -0.44 -0.66900003 58 16 0
2.1589999 -0.44100001 -0.67299998 57 16 0
2.155 -0.44299999 -0.67799997 84 16 0
2.1530001 -0.44499999 -0.68400002 85 16 0
2.1489999 -0.44800001 -0.68900001 73 16 0
2.1389999 -0.449 -0.69199997 76 16 0
2.1389999 -0.45199999 -0.699 91 16 0
2.1229999 -0.45199999 -0.70099998 83 16 0
2.1170001 -0.45300001 -0.70499998 78 16 0
2.1140001 -0.45500001 -0.71100003 89 16 0
2.1099999 -0.45699999 -0.71600002 84 16 0
2.1029999 -0.45899999 -0.72000003 79 16 0
2.0969999 -0.46000001 -0.72500002 85 16 0
2.0929999 -0.46200001 -0.73000002 84 16 0
2.089 -0.46399999 -0.73500001 91 16 0
2.0829999 -0.46599999 -0.74000001 91 16 0
2.0780001 -0.46700001 -0.74400002 96 16 0
2.073 -0.46900001 -0.74900001 92 16 0
2.0569999 -0.46799999 -0.74900001 99 16 0
2.0510001 -0.46900001 -0.75400001 95 16 0
2.049 -0.47099999 -0.75999999 103 16 0
2.0439999 -0.472 -0.764 102 16 0
2.0439999 -0.47499999 -0.77100003 97 16 0
2.036 -0.47600001 -0.77399999 96 16 0
2.033 -0.47799999 -0.77999997 100 16 0
2.0309999 -0.479 -0.78500003 96 16 0
2.0209999 -0.47999999 -0.78799999 94 16 0
2.0150001 -0.47999999 -0.792 99 16 0
2.0120001 -0.48199999 -0.79699999 97 16 0
2.007 -0.48300001 -0.801 91 16 0
2.0020001 -0.484 -0.80599999 98 16 0
1.998 -0.486 -0.81099999 98 16 0
1.9960001 -0.48699999 -0.81599998 94 16 0
1.9910001 -0.48800001 -0.81999999 93 16 0
1.988 -0.49000001 -0.82499999 93 16 0
1.98 -0.49000001 -0.82800001 99 16 0
1.977 -0.491 -0.833 95 16 0
1.973 -0.49200001 -0.838 96 16 0
1.976 -0.495 -0.84500003 100 16 0
1.964 -0.49399999 -0.847 98 16 0
1.959 -0.49399999 -0.85100001 100 16 0
1.957 -0.49599999 -0.85600001 100 16 0
1.95 -0.49599999 -0.85900003 91 16 0
1.951 -0.498 -0.866 99 16 0
1.947 -0.49900001 -0.87 100 16 0
1.943 -0.49900001 -0.87400001 98 16 0
1.9400001 -0.5 -0.88 89 16 0
1.933 -0.5 -0.88200003 100 16 0
1.931 -0.50099999 -0.88700002 121 16 0
1.927 -0.50199997 -0.89200002 125 16 0
1.925 -0.50300002 -0.89700001 130 16 0
1.9220001 -0.50400001 -0.90200001 124 16 0
1.915 -0.50300002 -0.90399998 123 16 0
1.913 -0.50400001 -0.90899998 123 16 0
1.913 -0.50599998 -0.91500002 130 16 0
1.9069999 -0.505 -0.91799998 126 16 0
1.905 -0.50599998 -0.92299998 118 16 0
1.904 -0.50700003 -0.92900002 122 16 0
1.898 -0.50700003 -0.93199998 117 16 0
1.899 -0.50800002 -0.93800002 131 16 0
1.893 -0.50800002 -0.94099998 116 16 0
1.891 -0.50800002 -0.94599998 118 16 0
1.89 -0.509 -0.95099998 118 16 0
1.885 -0.509 -0.954 122 16 0
1.885 -0.50999999 -0.95999998 118 16 0
1.883 -0.50999999 -0.96499997 120 16 0
1.876 -0.509 -0.96700001 116 16 0
1.876 -0.50999999 -0.97299999 117 16 0
1.874 -0.50999999 -0.977 116 16 0
1.872 -0.51099998 -0.98100001 149 16 0
1.867 -0.50999999 -0.98400003 150 16 0
1.8660001 -0.50999999 -0.98900002 139 16 0
1.865 -0.51099998 -0.99400002 145 16 0
1.863 -0.51099998 -0.99800003 144 16 0
1.862 -0.51099998 -1.003 144 16 0
1.862 -0.51099998 -1.0089999 144 16 0
1.8559999 -0.50999999 -1.011 150 16 0
1.8559999 -0.51099998 -1.016 147 16 0
1.853 -0.50999999 -1.02 145 16 0
1.852 -0.50999999 -1.024 146 16 0
1.85 -0.50999999 -1.028 144 16 0
1.85 -0.50999999 -1.033 136 16 0
1.849 -0.50999999 -1.038 126 16 0
1.849 -0.50999999 -1.043 133 16 0
1.846 -0.509 -1.046 144 16 0
1.846 -0.509 -1.051 130 16 0
1.845 -0.509 -1.056 135 16 0
1.8430001 -0.509 -1.0599999 136 16 0
1.8430001 -0.509 -1.064 130 16 0
1.842 -0.50800002 -1.068 133 16 0
1.84 -0.50700003 -1.072 137 16 0
1.8380001 -0.50700003 -1.076 128 16 0
1.841 -0.50700003 -1.082 132 16 0
1.842 -0.50700003 -1.087 128 16 0
1.842 -0.50700003 -1.091 118 16 0
1.841 -0.50599998 -1.095 127 16 0
1.839 -0.505 -1.099 125 16 0
1.8380001 -0.50400001 -1.102 126 16 0
1.835 -0.50300002 -1.105 129 16 0
1.837 -0.50300002 -1.11 126 16 0
1.835 -0.50099999 -1.113 122 16 0
1.84 -0.50199997 -1.12 128 16 0
1.8380001 -0.50099999 -1.123 130 16 0
1.836 -0.49900001 -1.126 117 16 0
1.842 -0.5 -1.133 124 16 0
1.841 -0.49900001 -1.136 125 16 0
1.84 -0.49700001 -1.1390001 120 16 0
1.839 -0.49599999 -1.143 122 16 0
1.842 -0.49599999 -1.148 123 16 0
1.84 -0.49399999 -1.15 120 16 0
1.841 -0.493 -1.154 120 16 0
1.845 -0.493 -1.16 124 16 0
1.844 -0.49200001 -1.163 122 16 0
1.8430001 -0.49000001 -1.166 115 16 0
1.844 -0.48899999 -1.169 118 16 0
1.8430001 -0.48699999 -1.1720001 117 16 0
1.842 -0.486 -1.174 119 16 0
1.846 -0.48500001 -1.179 121 16 0
1.845 -0.48300001 -1.182 116 16 0
1.845 -0.48199999 -1.1849999 108 16 0
1.854 -0.48199999 -1.193 114 18 0
1.8559999 -0.48100001 -1.197 115 16 0
1.859 -0.47999999 -1.202 115 16 0
1.859 -0.47799999 -1.204 118 16 0
1.864 -0.47799999 -1.209 106 16 0
1.8609999 -0.47499999 -1.21 107 16 0
1.8660001 -0.47400001 -1.215 106 16 0
1.865 -0.472 -1.217 103 16 0
1.87 -0.472 -1.222 102 16 0
1.872 -0.47 -1.225 101 16 0
1.876 -0.46900001 -1.229 100 16 0
1.876 -0.46700001 -1.2309999 97 16 0
1.8789999 -0.465 -1.235 99 16 0
1.876 -0.46200001 -1.234 94 16 0
1.883 -0.46200001 -1.2410001 105 16 0
1.892 -0.46200001 -1.248 95 16 0
1.89 -0.45899999 -1.247 99 16 0
1.892 -0.45699999 -1.25 97 16 0
1.895 -0.45500001 -1.253 97 16 0
1.895 -0.45199999 -1.2539999 89 16 0
1.9 -0.45100001 -1.258 100 16 0
1.903 -0.449 -1.261 100 16 0
1.901 -0.44600001 -1.261 99 16 0
1.911 -0.44600001 -1.268 100 18 0
1.911 -0.44299999 -1.268 99 16 0
1.919 -0.442 -1.274 109 19 0
1.9220001 -0.44 -1.276 102 16 0
1.925 -0.43799999 -1.278 106 16 0
1.928 -0.43599999 -1.28 102 16 0
1.9299999 -0.433 -1.2819999 98 16 0
1.934 -0.43099999 -1.284 95 16 0
1.938 -0.42899999 -1.286 94 16 0
1.942 -0.42699999 -1.289 102 16 0
1.944 -0.42500001 -1.29 96 16 0
1.949 -0.42300001 -1.2920001 99 16 0
1.95 -0.41999999 -1.293 101 16 0
1.961 -0.419 -1.299 100 18 0
1.964 -0.417 -1.3 106 16 0
1.9680001 -0.414 -1.302 94 16 0
1.971 -0.412 -1.303 104 16 0
1.977 -0.41 -1.306 100 16 0
1.979 -0.40700001 -1.306 98 16 0
1.987 -0.405 -1.3099999 100 16 0
1.9910001 -0.403 -1.311 96 16 0
1.997 -0.40099999 -1.313 90 16 0
2.0020001 -0.398 -1.3150001 90 16 0
2.006 -0.396 -1.316 88 16 0
2.0109999 -0.39300001 -1.317 92 16 0
2.0150001 -0.391 -1.318 114 16 0
2.0209999 -0.389 -1.319 107 16 0
2.026 -0.38600001 -1.321 109 16 0
2.033 -0.384 -1.323 110 16 0
2.0369999 -0.38100001 -1.323 114 16 0
2.046 -0.38 -1.327 103 16 0
2.0510001 -0.377 -1.327 113 16 0
2.0550001 -0.37400001 -1.327 101 16 0
2.0610001 -0.37200001 -1.3279999 107 16 0
2.066 -0.36899999 -1.3279999 106 16 0
2.0680001 -0.366 -1.327 102 16 0
2.073 -0.36300001 -1.327 101 16 0
2.0799999 -0.361 -1.3279999 99 16 0
2.089 -0.359 -1.33 109 16 0
2.0940001 -0.35600001 -1.33 96 16 0
2.0940001 -0.352 -1.327 98 16 0
2.1040001 -0.34999999 -1.33 99 16 0
2.1110001 -0.34799999 -1.33 97 16 0
2.1170001 -0.345 -1.331 95 16 0
2.1210001 -0.34200001 -1.329 101 16 0
2.128 -0.34 -1.33 102 16 0
2.1340001 -0.33700001 -1.33 90 16 0
2.1389999 -0.33399999 -1.3279999 93 16 0
2.148 -0.33199999 -1.33 95 16 0
2.152 -0.329 -1.3279999 97 16 0
2.1570001 -0.32600001 -1.327 103 16 0
2.1630001 -0.32300001 -1.326 98 16 0
2.1730001 -0.32100001 -1.327 95 16 0
2.1760001 -0.31799999 -1.325 102 16 0
2.1860001 -0.31600001 -1.326 102 16 0
2.1900001 -0.31299999 -1.324 97 16 0
2.197 -0.31 -1.323 96 16 0
2.2 -0.30599999 -1.319 90 16 0
2.2090001 -0.30399999 -1.3200001 97 16 0
2.214 -0.301 -1.318 95 16 0
2.2219999 -0.29899999 -1.317 93 16 0
2.2309999 -0.296 -1.317 98 16 0
2.237 -0.29300001 -1.3150001 101 16 0
2.2449999 -0.29100001 -1.314 96 16 0
2.25 -0.28799999 -1.312 95 16 0
2.2609999 -0.28600001 -1.313 100 16 0
2.2639999 -0.28200001 -1.309 103 16 0
2.2709999 -0.28 -1.307 100 16 0
2.277 -0.27700001 -1.3049999 92 16 0
2.2850001 -0.27399999 -1.303 68 16 0
2.2939999 -0.27200001 -1.302 78 16 0
2.2969999 -0.26899999 -1.298 77 16 0
2.3080001 -0.266 -1.298 73 16 0
2.3110001 -0.26300001 -1.293 74 16 0
2.3169999 -0.25999999 -1.291 75 16 0
2.3269999 -0.25799999 -1.29 75 16 0
2.335 -0.255 -1.288 80 16 0
2.345 -0.25299999 -1.2869999 65 16 0
2.348 -0.25 -1.2819999 65 16 0
2.358 -0.24699999 -1.281 69 16 0
2.362 -0.244 -1.276 71 16 0
2.372 -0.242 -1.275 68 16 0
2.3759999 -0.23899999 -1.27 72 16 0
2.382 -0.236 -1.267 62 16 0
2.3929999 -0.234 -1.265 70 16 0
2.405 -0.23199999 -1.265 73 16 0
2.4119999 -0.229 -1.261 76 16 0
2.418 -0.226 -1.257 72 16 0
2.4230001 -0.223 -1.253 63 16 0
2.4300001 -0.22 -1.249 56 16 0
2.4349999 -0.21799999 -1.244 56 16 0
2.441 -0.215 -1.24 46 16 0
2.448 -0.212 -1.2359999 52 16 0
2.4530001 -0.20900001 -1.2309999 54 16 0
2.457 -0.207 -1.226 54 16 0
2.464 -0.204 -1.222 63 16 0
2.4749999 -0.20200001 -1.22 53 16 0
2.4860001 -0.2 -1.217 59 16 0
2.494 -0.197 -1.214 55 16 0
2.4979999 -0.19400001 -1.2079999 54 16 0
2.5050001 -0.192 -1.2029999 53 16 0
2.5079999 -0.189 -1.197 53 16 0
2.5209999 -0.18700001 -1.1950001 49 16 0
2.5280001 -0.184 -1.191 51 16 0
2.5369999 -0.182 -1.187 52 16 0
2.5450001 -0.18000001 -1.183 53 16 0
2.5480001 -0.177 -1.176 59 16 0
2.5539999 -0.17399999 -1.171 50 16 0
2.5610001 -0.17200001 -1.166 55 16 0
2.5699999 -0.17 -1.1619999 50 16 0
2.5769999 -0.167 -1.156 55 16 0
2.5840001 -0.16500001 -1.151 49 16 0
2.5940001 -0.163 -1.148 46 16 0
2.6059999 -0.161 -1.1440001 45 16 0
2.609 -0.15800001 -1.137 45 16 0
2.618 -0.156 -1.132 47 16 0
2.622 -0.153 -1.126 43 16 0
2.628 -0.15099999 -1.12 43 16 0
2.635 -0.149 -1.114 41 16 0
2.6440001 -0.146 -1.11 39 16 0
2.652 -0.14399999 -1.104 44 16 0
2.661 -0.142 -1.099 41 16 0
2.664 -0.14 -1.092 44 16 0
2.6760001 -0.138 -1.0880001 42 16 0
2.6789999 -0.13500001 -1.081 50 16 0
2.6849999 -0.133 -1.074 42 16 0
2.6949999 -0.131 -1.069 50 16 0
2.701 -0.12899999 -1.063 52 16 0
2.71 -0.127 -1.057 45 16 0
2.7149999 -0.125 -1.051 51 16 0
2.7219999 -0.123 -1.044 48 16 0
2.7309999 -0.121 -1.039 48 16 0
2.737 -0.119 -1.0319999 46 16 0
2.7409999 -0.116 -1.024 38 16 0
2.7509999 -0.115 -1.0190001 39 16 0
2.7539999 -0.112 -1.011 38 16 0
2.766 -0.111 -1.006 38 16 0
2.776 -0.109 -1.001 37 16 0
2.7809999 -0.107 -0.99299997 39 16 0
2.7909999 -0.105 -0.98799998 39 16 0
2.7969999 -0.103 -0.98000002 32 16 0
2.803 -0.101 -0.97299999 32 16 0
2.8069999 -0.098999999 -0.96499997 34 16 0
2.8150001 -0.097000003 -0.95899999 33 16 0
2.8280001 -0.094999999 -0.954 32 16 0
2.8310001 -0.093000002 -0.94599998 33 16 0
2.8369999 -0.092 -0.93800002 34 16 0
2.8440001 -0.090000004 -0.93099999 36 16 0
2.848 -0.088 -0.92299998 43 16 0
2.8629999 -0.086000003 -0.91799998 76 16 0
2.8659999 -0.085000001 -0.91000003 112 16 0
2.869 -0.082999997 -0.90100002 150 16 0
2.8759999 -0.081 -0.89399999 150 16 0
2.8800001 -0.079000004 -0.88499999 150 16 0
2.8859999 -0.078000002 -0.87800002 150 16 0
2.8889999 -0.075999998 -0.86900002 150 16 0
2.8889999 -0.074000001 -0.85900003 150 16 0
2.8940001 -0.071999997 -0.85100001 150 16 0
2.898 -0.071000002 -0.84299999 150 16 0
2.901 -0.068999998 -0.83399999 150 16 0
2.904 -0.067000002 -0.82499999 150 16 0
2.904 -0.066 -0.81599998 150 16 0
2.9089999 -0.064000003 -0.80699998 150 16 0
2.9119999 -0.063000001 -0.79900002 150 16 0
2.914 -0.061000001 -0.78899997 150 16 0
2.9159999 -0.059 -0.77999997 150 16 0
2.9170001 -0.057999998 -0.77100003 150 16 0
2.924 -0.057 -0.76300001 150 16 0
2.9289999 -0.055 -0.755 150 16 0
2.9319999 -0.054000001 -0.74599999 150 16 0
2.937 -0.052000001 -0.73699999 150 16 0
2.9360001 -0.050999999 -0.727 150 16 0
2.941 -0.048999999 -0.71899998 150 16 0
2.941 -0.048 -0.70899999 150 16 0
2.9460001 -0.046999998 -0.69999999 150 16 0
2.948 -0.045000002 -0.69099998 150 16 0
2.9530001 -0.044 -0.68300003 150 16 0
2.9549999 -0.043000001 -0.67299998 150 16 0
2.96 -0.041999999 -0.66500002 150 16 0
2.96 -0.039999999 -0.65499997 150 16 0
2.9649999 -0.039000001 -0.64600003 150 16 0
2.9679999 -0.037999999 -0.63700002 150 16 0
2.97 -0.037 -0.62800002 150 16 0
2.973 -0.035999998 -0.61900002 150 16 0
2.9749999 -0.034000002 -0.60900003 150 16 0
2.9760001 -0.033 -0.60000002 150 16 0
2.983 -0.032000002 -0.59100002 150 16 0
2.9879999 -0.030999999 -0.58200002 150 16 0
2.994 -0.029999999 -0.574 150 16 0
2.9979999 -0.028999999 -0.565 140 16 0
3.0020001 -0.028000001 -0.55599999 132 16 0
3 -0.027000001 -0.54500002 81 16 0
3.006 -0.026000001 -0.537 77 16 0
3.0120001 -0.025 -0.528 58 16 0
3.0220001 -0.024 -0.51999998 43 16 0
3.023 -0.023 -0.50999999 40 16 0
3.0250001 -0.022 -0.50099999 38 16 0
3.033 -0.022 -0.49200001 33 16 0
3.04 -0.021 -0.48300001 31 16 0
3.0420001 -0.02 -0.47299999 30 16 0
3.0450001 -0.018999999 -0.46399999 27 16 0
3.0569999 -0.017999999 -0.456 25 16 0
3.0580001 -0.017000001 -0.44600001 25 16 0
3.063 -0.017000001 -0.43700001 24 16 0
3.0710001 -0.016000001 -0.428 23 16 0
3.076 -0.015 -0.41800001 23 16 0
3.0780001 -0.014 -0.40900001 22 16 0
3.0880001 -0.014 -0.40000001 21 16 0
3.0910001 -0.013 -0.38999999 21 16 0
3.096 -0.012 -0.38 21 16 0
3.099 -0.012 -0.37099999 20 16 0
3.109 -0.011 -0.36199999 20 16 0
3.1099999 -0.0099999998 -0.352 18 16 0
3.1170001 -0.0099999998 -0.34200001 18 16 0
3.1270001 -0.0089999996 -0.333 18 16 0
3.1300001 -0.0089999996 -0.324 18 16 0
3.1329999 -0.0080000004 -0.31400001 18 16 0
3.1400001 -0.0080000004 -0.30399999 18 16 0
3.145 -0.0070000002 -0.294 18 16 0
3.1470001 -0.0070000002 -0.28400001 18 16 0
3.155 -0.0060000001 -0.27500001 18 16 0
3.155 -0.0060000001 -0.26499999 18 16 0
3.1630001 -0.0049999999 -0.255 18 16 0
3.168 -0.0049999999 -0.245 18 16 0
3.171 -0.0040000002 -0.235 18 16 0
3.177 -0.0040000002 -0.22499999 18 16 0
3.1830001 -0.0040000002 -0.215 18 16 0
3.184 -0.003 -0.205 18 16 0
3.1860001 -0.003 -0.19499999 18 16 0
3.1930001 -0.0020000001 -0.185 18 16 0
3.198 -0.0020000001 -0.175 17 16 0
3.204 -0.0020000001 -0.16500001 18 16 0
3.2079999 -0.0020000001 -0.155 18 16 0
3.21 -0.001 -0.14399999 18 16 0
3.2179999 -0.001 -0.134 18 16 0
3.223 -0.001 -0.124 18 16 0
3.227 -0.001 -0.114 18 16 0
3.2279999 0 -0.103 18 16 0
3.234 0 -0.093000002 19 16 0
3.2349999 0 -0.082999997 19 16 0
3.2449999 0 -0.071999997 18 16 0
3.2490001 0 -0.061999999 18 16 0
3.257 0 -0.052000001 19 16 0
3.2550001 0 -0.041000001 18 16 0
3.26 0 -0.029999999 18 16 0
3.2639999 0 -0.02 18 16 0
3.2690001 0 -0.0089999996 18 16 0
3.277 0 0 19 16 0
3.2820001 0 0.011 18 16 0
3.2920001 0 0.022 19 16 0
3.2920001 0 0.032000002 18 16 0
3.293 0 0.043000001 19 16 0
3.2969999 0 0.054000001 19 16 0
3.3080001 0 0.064999998 19 16 0
3.302 0 0.075000003 19 16 0
3.3050001 0 0.086000003 20 16 0
3.3110001 0 0.097000003 29 16 0
3.293 0 0.107 55 16 0
3.289 -0.001 0.118 150 16 0
3.293 -0.001 0.12800001 150 16 0
3.2950001 -0.001 0.139 150 16 0
3.3050001 -0.001 0.15000001 150 16 0
3.313 -0.0020000001 0.161 150 16 0
3.312 -0.0020000001 0.17200001 150 16 0
3.3180001 -0.0020000001 0.183 150 16 0
3.3280001 -0.0020000001 0.19400001 150 16 0
3.329 -0.003 0.205 150 16 0
3.3329999 -0.003 0.21600001 150 16 0
3.3399999 -0.0040000002 0.228 150 16 0
3.342 -0.0040000002 0.23899999 150 16 0
3.3499999 -0.0040000002 0.25 150 16 0
3.352 -0.0049999999 0.26100001 150 16 0
3.362 -0.0049999999 0.273 150 16 0
3.3640001 -0.0060000001 0.28400001 150 16 0
3.3699999 -0.0060000001 0.29499999 150 16 0
3.375 -0.0070000002 0.30700001 150 16 0
3.3800001 -0.0070000002 0.31799999 150 16 0
3.382 -0.0080000004 0.329 150 16 0
3.381 -0.0089999996 0.34 108 16 0
3.3699999 -0.0089999996 0.34999999 38 16 0
3.3469999 -0.0099999998 0.359 35 16 0
3.323 -0.0099999998 0.36700001 36 16 0
3.306 -0.011 0.37599999 36 16 0
3.289 -0.011 0.38499999 43 16 0
3.2690001 -0.012 0.39300001 42 16 0
3.2520001 -0.013 0.40099999 42 16 0
3.2290001 -0.013 0.40900001 44 16 0
3.211 -0.014 0.417 42 16 0
3.1919999 -0.015 0.42500001 43 16 0
3.178 -0.015 0.43399999 44 16 0
3.1589999 -0.016000001 0.44100001 44 16 0
3.1370001 -0.017000001 0.449 39 16 0
3.118 -0.017000001 0.456 40 16 0
3.1040001 -0.017999999 0.46399999 41 16 0
3.0840001 -0.018999999 0.47099999 40 16 0
3.0669999 -0.02 0.479 40 16 0
3.052 -0.02 0.486 40 16 0
3.0320001 -0.021 0.493 40 16 0
3.0220001 -0.022 0.50099999 40 16 0
3.0050001 -0.023 0.50800002 39 16 0
2.99 -0.024 0.51599997 39 16 0
2.9760001 -0.024 0.523 42 16 0
2.9560001 -0.025 0.52899998 40 16 0
2.9419999 -0.026000001 0.53600001 41 16 0
2.9300001 -0.027000001 0.54400003 41 16 0
2.9100001 -0.028000001 0.55000001 38 16 0
2.895 -0.028999999 0.55599999 39 16 0
2.8800001 -0.029999999 0.56300002 46 16 0
2.868 -0.030999999 0.56999999 43 16 0
2.8510001 -0.030999999 0.57599998 42 16 0
2.842 -0.032000002 0.583 46 16 0
2.8239999 -0.033 0.58899999 47 16 0
2.8110001 -0.034000002 0.59600002 48 16 0
2.796 -0.035 0.602 50 16 0
2.776 -0.035999998 0.60600001 41 16 0
2.7709999 -0.037 0.61500001 51 16 0
2.7579999 -0.037999999 0.62099999 83 16 0
2.7460001 -0.039000001 0.62699997 84 16 0
2.7290001 -0.039999999 0.63200003 70 16 0
2.717 -0.041000001 0.63800001 86 16 0
2.698 -0.041999999 0.64300001 75 16 0
2.688 -0.043000001 0.64899999 83 16 0
2.6789999 -0.044 0.65600002 93 16 0
2.6659999 -0.045000002 0.662 94 16 0
2.654 -0.046999998 0.66799998 91 16 0
2.6429999 -0.048 0.67400002 77 16 0
2.6300001 -0.048999999 0.67900002 85 16 0
2.6240001 -0.050000001 0.68599999 95 16 0
2.6040001 -0.050999999 0.69 102 16 0
2.585 -0.052000001 0.69300002 104 16 0
2.5799999 -0.052999999 0.69999999 101 16 0
2.566 -0.054000001 0.70499998 107 16 0
2.5480001 -0.055 0.708 107 16 0
2.5409999 -0.057 0.71499997 120 16 0
2.526 -0.057999998 0.71899998 114 16 0
2.517 -0.059 0.72500002 108 16 0
2.5079999 -0.059999999 0.73100001 122 16 0
2.4909999 -0.061000001 0.73400003 116 16 0
2.483 -0.063000001 0.74000001 125 16 0
2.473 -0.064000003 0.745 118 16 0
2.4619999 -0.064999998 0.75 116 16 0
2.4460001 -0.067000002 0.75300002 113 16 0
2.4400001 -0.068000004 0.759 122 16 0
2.427 -0.068999998 0.76300001 150 16 0
2.4189999 -0.071000002 0.76899999 130 16 0
2.4130001 -0.071999997 0.77499998 117 16 0
2.3929999 -0.072999999 0.77600002 125 16 0
2.391 -0.075000003 0.78399998 117 16 0
2.382 -0.075999998 0.78899997 124 16 0
2.3740001 -0.078000002 0.79400003 120 16 0
2.365 -0.079000004 0.79900002 103 16 0
2.3559999 -0.079999998 0.80299997 122 16 0
2.345 -0.082000002 0.80699998 116 16 0
2.3340001 -0.082999997 0.81099999 112 16 0
2.326 -0.085000001 0.81599998 121 16 0
2.3210001 -0.086000003 0.82200003 150 16 0
2.3050001 -0.086999997 0.824 150 16 0
2.2950001 -0.089000002 0.82800001 150 16 0
2.2850001 -0.090000004 0.83200002 150 16 0
2.2780001 -0.092 0.83700001 150 16 0
2.2679999 -0.093000002 0.84100002 150 16 0
2.257 -0.094999999 0.84399998 150 16 0
2.2460001 -0.096000001 0.84799999 150 16 0
2.2390001 -0.097999997 0.85299999 150 16 0
2.2320001 -0.1 0.85699999 150 16 0
2.2179999 -0.101 0.85900003 150 16 0
2.2160001 -0.103 0.866 150 16 0
2.2030001 -0.104 0.86799997 150 16 0
2.197 -0.106 0.87300003 150 16 0
2.181 -0.107 0.87400001 150 16 0
2.1800001 -0.109 0.88 150 16 0
2.1700001 -0.111 0.88300002 150 16 0
2.1630001 -0.112 0.88700002 150 16 0
2.1530001 -0.114 0.88999999 150 16 0
2.1429999 -0.116 0.89300001 150 16 0
2.1400001 -0.118 0.89899999 150 16 0
2.1329999 -0.119 0.903 150 16 0
2.1210001 -0.121 0.90499997 150 16 0
2.115 -0.123 0.90899998 150 16 0
2.1059999 -0.124 0.912 150 16 0
2.0940001 -0.126 0.91399997 150 16 0
2.089 -0.12800001 0.91799998 150 16 0
2.082 -0.12899999 0.92199999 150 16 0
2.075 -0.131 0.926 150 16 0
2.072 -0.133 0.93099999 150 16 0
2.0569999 -0.13500001 0.93000001 150 16 0
2.0539999 -0.13699999 0.93599999 150 16 0
2.0450001 -0.138 0.93800002 150 16 0
2.039 -0.14 0.94199997 150 16 0
2.03 -0.142 0.94400001 150 16 0
2.02 -0.14399999 0.94599998 150 16 0
2.016 -0.146 0.94999999 150 16 0
2.0109999 -0.148 0.95499998 150 16 0
2.003 -0.15000001 0.95700002 150 16 0
1.995 -0.15099999 0.95899999 150 16 0
1.979 -0.153 0.958 150 16 0
1.974 -0.155 0.96100003 150 16 0
1.97 -0.15700001 0.96499997 150 16 0
1.965 -0.15899999 0.96899998 150 16 0
1.9579999 -0.161 0.972 150 16 0
1.954 -0.163 0.97600001 150 16 0
1.942 -0.16500001 0.97600001 150 16 0
1.937 -0.167 0.97899997 150 16 0
1.932 -0.169 0.98199999 150 16 0
1.924 -0.171 0.98400003 150 16 0
1.921 -0.17299999 0.98799998 150 16 0
1.9119999 -0.175 0.98900002 150 16 0
1.905 -0.177 0.991 150 16 0
1.9 -0.17900001 0.99400002 150 16 0
1.8940001 -0.18099999 0.99699998 150 16 0
1.891 -0.183 1.001 150 16 0
1.886 -0.186 1.003 150 16 0
1.8789999 -0.18799999 1.005 150 16 0
1.873 -0.19 1.007 150 16 0
1.867 -0.192 1.01 150 16 0
1.857 -0.193 1.0089999 150 16 0
1.851 -0.19499999 1.011 150 16 0
1.845 -0.197 1.013 150 16 0
1.8430001 -0.2 1.017 150 16 0
1.839 -0.20200001 1.02 150 16 0
1.8329999 -0.204 1.022 150 16 0
1.829 -0.207 1.024 150 16 0
1.826 -0.20900001 1.028 150 16 0
1.818 -0.211 1.028 150 16 0
1.813 -0.213 1.03 150 16 0
1.811 -0.21600001 1.034 150 16 0
1.807 -0.21799999 1.036 150 16 0
1.8 -0.22 1.036 150 16 0
1.796 -0.223 1.039 150 16 0
1.793 -0.22499999 1.0420001 150 16 0
1.785 -0.227 1.0420001 150 16 0
1.78 -0.229 1.043 150 16 0
1.777 -0.23199999 1.045 150 16 0
1.773 -0.234 1.0470001 150 16 0
1.771 -0.236 1.05 150 16 0
1.77 -0.23899999 1.054 150 16 0
1.763 -0.241 1.054 150 16 0
1.748 -0.242 1.049 150 19 0
1.745 -0.244 1.051 150 16 0
1.742 -0.24699999 1.053 150 16 0
1.738 -0.249 1.0549999 150 16 0
1.733 -0.252 1.056 150 16 0
1.732 -0.25400001 1.058 150 16 0
1.73 -0.257 1.061 150 16 0
1.728 -0.25999999 1.063 150 16 0
1.725 -0.26199999 1.0650001 150 16 0
1.723 -0.26499999 1.067 150 16 0
1.721 -0.26699999 1.0700001 150 16 0
1.719 -0.27000001 1.071 139 16 0
1.715 -0.27200001 1.072 150 16 0
1.714 -0.27500001 1.075 150 16 0
1.707 -0.27700001 1.073 150 16 0
1.7079999 -0.28 1.077 150 16 0
1.7029999 -0.28200001 1.077 150 16 0
1.701 -0.285 1.079 150 16 0
1.699 -0.287 1.08 150 16 0
1.6950001 -0.289 1.081 150 16 0
1.689 -0.29100001 1.079 150 16 0
1.687 -0.294 1.081 150 16 0
1.6849999 -0.296 1.082 150 16 0
1.6799999 -0.29800001 1.081 150 16 0
1.679 -0.301 1.0829999 150 16 0
1.6799999 -0.30399999 1.086 150 16 0
1.679 -0.30700001 1.087 150 16 0
1.675 -0.30899999 1.086 150 16 0
1.674 -0.31200001 1.0880001 150 16 0
1.6720001 -0.31400001 1.089 150 16 0
1.67 -0.317 1.089 150 16 0
1.668 -0.31900001 1.09 150 16 0
1.6670001 -0.322 1.091 150 16 0
1.661 -0.32300001 1.089 150 16 0
1.665 -0.32699999 1.0930001 150 16 0
1.6619999 -0.329 1.092 150 16 0
1.656 -0.331 1.09 150 16 0
1.661 -0.33500001 1.094 150 16 0
1.658 -0.33700001 1.0930001 150 16 0
1.658 -0.33899999 1.094 150 16 0
1.6569999 -0.34200001 1.095 150 16 0
1.658 -0.345 1.096 150 16 0
1.654 -0.34599999 1.095 150 16 0
1.654 -0.34900001 1.095 150 16 0
1.652 -0.352 1.095 150 16 0
1.658 -0.35499999 1.1 150 19 0
1.66 -0.35800001 1.102 150 16 0
1.6569999 -0.36000001 1.1 150 16 0
1.659 -0.36300001 1.102 150 16 0
1.66 -0.366 1.103 150 16 0
1.66 -0.36899999 1.103 129 16 0
1.658 -0.37099999 1.102 105 16 0
1.669 -0.37599999 1.109 94 18 0
1.674 -0.37900001 1.112 88 16 0
1.674 -0.382 1.112 78 16 0
1.681 -0.38600001 1.1160001 81 19 0
1.6849999 -0.389 1.119 78 16 0
1.683 -0.391 1.117 73 16 0
1.686 -0.39399999 1.118 75 16 0
1.687 -0.39700001 1.119 71 16 0
1.687 -0.39899999 1.118 59 16 0
1.687 -0.40099999 1.117 58 16 0
1.691 -0.40400001 1.119 62 16 0
1.691 -0.40599999 1.118 62 16 0
1.694 -0.40900001 1.119 67 16 0
1.694 -0.41100001 1.117 65 16 0
1.6950001 -0.414 1.117 68 16 0
1.694 -0.41600001 1.115 68 16 0
1.694 -0.41800001 1.114 68 16 0
1.6950001 -0.41999999 1.113 64 16 0
1.697 -0.42199999 1.113 69 16 0
1.696 -0.42399999 1.1109999 69 16 0
1.697 -0.426 1.109 72 16 0
1.699 -0.42899999 1.109 69 16 0
1.698 -0.43000001 1.1059999 68 16 0
1.698 -0.43200001 1.104 73 16 0
1.699 -0.43399999 1.103 77 16 0
1.696 -0.435 1.099 85 16 0
1.698 -0.43700001 1.098 97 16 0
1.698 -0.43900001 1.096 112 16 0
1.7 -0.44100001 1.094 133 16 0
1.699 -0.442 1.091 147 16 0
1.701 -0.44400001 1.09 150 16 0
1.7 -0.44499999 1.087 150 16 0
1.702 -0.447 1.085 150 16 0
1.7029999 -0.449 1.0829999 150 16 0
1.692 -0.447 1.074 150 18 0
1.706 -0.45199999 1.079 150 16 0
1.71 -0.454 1.079 150 16 0
1.711 -0.456 1.076 150 16 0
1.714 -0.458 1.075 150 16 0
1.717 -0.46000001 1.074 150 16 0
1.721 -0.46200001 1.073 150 16 0
1.725 -0.46399999 1.072 150 16 0
1.728 -0.46599999 1.0700001 150 16 0
1.73 -0.46700001 1.068 150 16 0
1.734 -0.46900001 1.067 150 16 0
1.739 -0.47099999 1.067 150 16 0
1.742 -0.47299999 1.0650001 150 16 0
1.744 -0.47400001 1.062 150 16 0
1.7539999 -0.47799999 1.064 150 19 0
1.7539999 -0.47799999 1.0599999 150 16 0
1.7589999 -0.47999999 1.0599999 150 16 0
1.7640001 -0.48199999 1.058 150 16 0
1.765 -0.48300001 1.0549999 150 16 0
1.768 -0.484 1.053 150 16 0
1.77 -0.48500001 1.049 150 16 0
1.777 -0.48800001 1.049 150 16 0
1.779 -0.48800001 1.046 150 16 0
1.785 -0.49000001 1.045 150 16 0
1.795 -0.493 1.046 150 16 0
1.798 -0.495 1.044 150 16 0
1.802 -0.49599999 1.041 150 16 0
1.804 -0.49599999 1.0369999 150 16 0
1.812 -0.49900001 1.0369999 150 16 0
1.823 -0.50199997 1.039 150 16 0
1.829 -0.50300002 1.0369999 126 16 0
1.834 -0.50400001 1.035 128 16 0
1.8380001 -0.50599998 1.0319999 150 16 0
1.84 -0.50599998 1.029 150 16 0
1.8430001 -0.50599998 1.025 150 16 0
1.847 -0.50700003 1.022 150 16 0
1.849 -0.50800002 1.018 150 16 0
1.8609999 -0.51099998 1.0190001 150 16 0
1.864 -0.51099998 1.016 150 16 0
1.8660001 -0.51099998 1.011 150 16 0
1.876 -0.51300001 1.011 150 16 0
1.8839999 -0.51499999 1.01 150 16 0
1.8890001 -0.51599997 1.007 150 16 0
1.892 -0.51599997 1.0039999 150 16 0
1.902 -0.51800001 1.003 150 16 0
1.906 -0.51800001 0.99900001 150 16 0
1.908 -0.51800001 0.995 150 16 0
1.915 -0.51899999 0.99299997 150 16 0
1.918 -0.51899999 0.98900002 150 16 0
1.934 -0.523 0.991 150 19 0
1.937 -0.523 0.98699999 150 16 0
1.949 -0.52499998 0.98699999 150 16 0
1.952 -0.52399999 0.98199999 150 16 0
1.961 -0.52600002 0.98100001 150 16 0
1.966 -0.52600002 0.97799999 150 16 0
1.974 -0.52700001 0.97500002 150 16 0
1.979 -0.52700001 0.972 150 16 0
1.983 -0.52700001 0.96700001 150 16 0
1.99 -0.52700001 0.96499997 148 16 0
2 -0.52899998 0.963 150 16 0
2.0079999 -0.52899998 0.96100003 149 16 0
2.0109999 -0.528 0.95599997 150 16 0
2.0220001 -0.52999997 0.95499998 150 16 0
2.027 -0.52999997 0.95099998 150 16 0
2.039 -0.53100002 0.94999999 150 16 0
2.0380001 -0.52899998 0.94300002 146 16 0
2.0469999 -0.52999997 0.94099998 150 16 0
2.0569999 -0.53100002 0.93900001 116 16 0
2.0639999 -0.53100002 0.93599999 112 16 0
2.0699999 -0.53100002 0.93199998 109 16 0
2.076 -0.52999997 0.92799997 110 16 0
2.085 -0.53100002 0.92500001 110 16 0
2.0940001 -0.53100002 0.92299998 115 16 0
2.1040001 -0.53200001 0.92000002 107 16 0
2.1099999 -0.53100002 0.917 117 16 0
2.1170001 -0.53100002 0.912 102 16 0
2.1259999 -0.53100002 0.91000003 101 16 0
2.135 -0.53100002 0.90700001 119 16 0
2.145 -0.53100002 0.90399998 110 16 0
2.1489999 -0.52999997 0.89899999 101 16 0
2.1570001 -0.52999997 0.89600003 103 16 0
2.1700001 -0.53100002 0.89399999 98 16 0
2.177 -0.52999997 0.88999999 91 16 0
2.184 -0.52899998 0.88599998 116 16 0
2.191 -0.52899998 0.88200003 110 16 0
2.1989999 -0.528 0.87800002 97 16 0
2.21 -0.528 0.875 105 16 0
2.221 -0.528 0.87300003 107 16 0
2.2249999 -0.52700001 0.86699998 103 16 0
2.2360001 -0.52700001 0.86400002 101 16 0
2.2460001 -0.52600002 0.861 99 16 0
2.2520001 -0.52499998 0.85600001 92 16 0
2.2609999 -0.52399999 0.85299999 100 16 0
2.273 -0.52399999 0.85000002 101 16 0
2.279 -0.523 0.84500003 96 16 0
2.2869999 -0.52200001 0.84100002 104 16 0
2.3010001 -0.52200001 0.83899999 104 16 0
2.3039999 -0.51999998 0.83200002 89 16 0
2.3150001 -0.51899999 0.829 92 16 0
2.326 -0.51899999 0.82599998 90 16 0
2.332 -0.51700002 0.81999999 93 16 0
2.339 -0.51499999 0.81599998 104 16 0
2.352 -0.51499999 0.81300002 95 16 0
2.358 -0.51300001 0.80699998 83 16 0
2.3670001 -0.51200002 0.80299997 84 16 0
2.381 -0.51200002 0.80000001 89 16 0
2.3859999 -0.509 0.79500002 75 16 0
2.3929999 -0.50800002 0.79000002 84 16 0
2.401 -0.50599998 0.78500003 82 16 0
2.4130001 -0.505 0.78100002 75 16 0
2.428 -0.505 0.77899998 86 16 0
2.438 -0.50300002 0.77399999 93 16 0
2.4419999 -0.5 0.76800001 82 16 0
2.4590001 -0.5 0.76599997 58 16 0
2.464 -0.498 0.75999999 54 16 0
2.474 -0.49599999 0.755 53 16 0
2.4849999 -0.495 0.75099999 49 16 0
2.5009999 -0.49399999 0.74800003 35 16 0
2.5079999 -0.49200001 0.74199998 36 16 0
2.5139999 -0.48899999 0.73699999 33 16 0
2.529 -0.48800001 0.73299998 36 16 0
2.5369999 -0.486 0.72799999 35 16 0
2.553 -0.48500001 0.72500002 34 16 0
2.563 -0.48300001 0.72000003 36 16 0
2.5680001 -0.47999999 0.71399999 35 16 0
2.5829999 -0.479 0.70999998 36 16 0
2.592 -0.47600001 0.70499998 34 16 0
2.6029999 -0.47400001 0.69999999 37 16 0
2.615 -0.472 0.69499999 40 16 0
2.6270001 -0.47 0.69 76 16 0
2.6329999 -0.46700001 0.68400002 73 16 0
2.6389999 -0.46399999 0.67799997 77 16 0
2.6440001 -0.461 0.671 52 16 0
2.6489999 -0.45699999 0.66500002 36 16 0
2.6600001 -0.45500001 0.66000003 31 16 0
2.668 -0.45199999 0.65399998 29 16 0
2.6670001 -0.447 0.64600003 26 16 0
2.6760001 -0.44400001 0.63999999 26 16 0
2.6819999 -0.44100001 0.634 27 16 0
2.687 -0.43700001 0.62699997 26 16 0
2.6960001 -0.43399999 0.62099999 26 16 0
2.6989999 -0.43000001 0.61400002 27 16 0
2.7030001 -0.426 0.60699999 26 16 0
2.707 -0.42199999 0.60000002 27 16 0
2.717 -0.419 0.59399998 27 16 0
2.7190001 -0.41499999 0.58700001 27 16 0
2.7290001 -0.412 0.58099997 26 16 0
2.7309999 -0.40700001 0.574 27 16 0
2.7360001 -0.40400001 0.56699997 26 16 0
2.7409999 -0.40000001 0.56 26 16 0
2.75 -0.396 0.55400002 27 16 0
2.7539999 -0.39199999 0.54699999 25 16 0
2.7620001 -0.38800001 0.54100001 26 16 0
2.77 -0.384 0.53399998 26 16 0
2.773 -0.38 0.52700001 26 16 0
2.7820001 -0.37599999 0.52100003 25 16 0
2.7869999 -0.37200001 0.514 26 16 0
2.7939999 -0.368 0.50700003 25 16 0
2.8039999 -0.36399999 0.50099999 26 16 0
2.809 -0.36000001 0.49399999 24 16 0
2.813 -0.35600001 0.48699999 23 16 0
2.8239999 -0.352 0.48100001 24 16 0
2.8340001 -0.34799999 0.47499999 24 16 0
2.8369999 -0.34299999 0.46700001 24 16 0
2.8410001 -0.33899999 0.46000001 24 16 0
2.849 -0.33500001 0.45300001 25 16 0
2.855 -0.33000001 0.44600001 24 16 0
2.8610001 -0.32600001 0.43900001 24 16 0
2.875 -0.322 0.43399999 25 16 0
2.8770001 -0.317 0.426 25 16 0
2.8829999 -0.31200001 0.419 24 16 0
2.895 -0.308 0.41299999 24 16 0
2.901 -0.30399999 0.40599999 24 16 0
2.9100001 -0.29899999 0.39899999 24 16 0
2.9170001 -0.29499999 0.39199999 24 16 0
2.9230001 -0.28999999 0.38499999 23 16 0
2.931 -0.285 0.37799999 24 16 0
2.9349999 -0.28 0.37099999 24 16 0
2.944 -0.27500001 0.36399999 24 16 0
2.957 -0.271 0.35699999 24 16 0
2.964 -0.266 0.34999999 24 16 0
2.9760001 -0.26199999 0.34400001 24 16 0
2.9809999 -0.257 0.336 24 16 0
2.9849999 -0.25099999 0.329 24 16 0
2.99 -0.24600001 0.32100001 23 16 0
3.0079999 -0.242 0.315 24 16 0
3.0139999 -0.237 0.308 24 16 0
3.0239999 -0.23199999 0.301 24 16 0
3.0350001 -0.227 0.294 24 16 0
3.0439999 -0.222 0.287 22 16 0
3.05 -0.21600001 0.27900001 22 16 0
3.0610001 -0.211 0.27200001 21 16 0
3.076 -0.206 0.26499999 22 16 0
3.0780001 -0.2 0.257 21 16 0
3.085 -0.19499999 0.25 22 16 0
3.096 -0.19 0.243 21 16 0
3.1070001 -0.184 0.235 21 16 0
3.118 -0.17900001 0.228 22 16 0
3.1270001 -0.17299999 0.22 22 16 0
3.131 -0.167 0.213 22 16 0
3.1470001 -0.162 0.205 22 16 0
3.1589999 -0.15700001 0.198 22 16 0
3.1659999 -0.15099999 0.19 23 16 0
3.1830001 -0.145 0.183 22 16 0
3.1900001 -0.139 0.175 23 16 0
3.197 -0.133 0.167 22 16 0
3.2079999 -0.127 0.16 23 16 0
3.221 -0.121 0.152 22 16 0
3.23 -0.115 0.14399999 23 16 0
3.2379999 -0.109 0.13600001 24 16 0
3.2479999 -0.103 0.12800001 23 16 0
3.2639999 -0.097000003 0.121 24 16 0
3.273 -0.090999998 0.113 23 16 0
3.283 -0.085000001 0.105 24 16 0
3.2939999 -0.078000002 0.097000003 24 16 0
3.3039999 -0.071999997 0.089000002 35 16 0
3.3039999 -0.064999998 0.079999998 94 16 0
3.2980001 -0.057999998 0.071999997 91 16 0
3.2869999 -0.050999999 0.063000001 85 16 0
3.283 -0.045000002 0.055 83 16 0
3.273 -0.037999999 0.046 73 16 0
3.273 -0.030999999 0.037999999 72 16 0
3.2609999 -0.024 0.029999999 71 16 0
3.2550001 -0.017999999 0.022 30 16 0
3.2620001 -0.011 0.013 17 16 0
3.2780001 -0.0040000002 0.0049999999 15 16 0
3.2850001 0.0020000001 -0.0020000001 15 16 0
3.2939999 0.0080000004 -0.0099999998 15 16 0
3.313 0.015 -0.017999999 17 16 0
3.322 0.022 -0.027000001 27 16 0
3.312 0.028999999 -0.035 41 16 0
3.306 0.035999998 -0.043000001 44 16 0
3.2939999 0.043000001 -0.050999999 46 16 0
3.29 0.048999999 -0.059 36 16 0
3.283 0.056000002 -0.067000002 35 16 0
3.279 0.063000001 -0.075000003 42 16 0
3.2720001 0.07 -0.082999997 46 16 0
3.2620001 0.075999998 -0.090999998 47 16 0
3.2509999 0.082999997 -0.097999997 47 16 0
3.25 0.090000004 -0.106 46 16 0
3.2460001 0.097000003 -0.114 49 16 0
3.24 0.103 -0.122 50 16 0
3.2320001 0.11 -0.12899999 48 16 0
3.2219999 0.116 -0.13699999 50 16 0
3.2119999 0.123 -0.14399999 46 16 0
3.2090001 0.13 -0.152 50 16 0
3.2019999 0.13600001 -0.15899999 48 16 0
3.194 0.14300001 -0.167 47 16 0
3.187 0.149 -0.17399999 44 16 0
3.181 0.156 -0.18099999 49 16 0
3.174 0.163 -0.189 55 16 0
3.164 0.169 -0.19599999 63 16 0
3.1619999 0.176 -0.20299999 64 16 0
3.151 0.182 -0.20999999 49 16 0
3.1470001 0.189 -0.21699999 53 16 0
3.141 0.19499999 -0.22499999 53 16 0
3.1329999 0.20200001 -0.23199999 59 16 0
3.1199999 0.208 -0.23800001 60 16 0
3.119 0.215 -0.245 73 16 0
3.112 0.221 -0.252 61 16 0
3.108 0.228 -0.25999999 69 16 0
3.096 0.234 -0.266 72 16 0
3.0869999 0.23999999 -0.27200001 81 16 0
3.085 0.24699999 -0.28 78 16 0
3.082 0.25299999 -0.287 84 16 0
3.0739999 0.25999999 -0.29300001 74 16 0
3.0610001 0.26499999 -0.29899999 69 16 0
3.0599999 0.27200001 -0.30599999 78 16 0
3.0510001 0.278 -0.31299999 84 16 0
3.0469999 0.285 -0.31900001 82 16 0
3.04 0.29100001 -0.32600001 95 16 0
3.0309999 0.29699999 -0.33199999 77 16 0
3.0239999 0.303 -0.338 84 16 0
3.0179999 0.31 -0.345 89 16 0
3.016 0.31600001 -0.35100001 82 16 0
3.0139999 0.32300001 -0.35800001 68 16 0
3.007 0.329 -0.36399999 76 16 0
2.9990001 0.336 -0.37099999 70 16 0
2.9909999 0.34200001 -0.377 79 16 0
2.9890001 0.34799999 -0.38299999 78 16 0
2.9779999 0.354 -0.389 84 16 0
2.971 0.36000001 -0.39500001 82 16 0
2.9679999 0.36700001 -0.40099999 80 16 0
2.96 0.373 -0.40700001 90 16 0
2.9549999 0.37900001 -0.41299999 86 16 0
2.9489999 0.38499999 -0.419 104 16 0
2.947 0.39199999 -0.426 99 16 0
2.937 0.398 -0.43099999 89 16 0
2.9300001 0.40400001 -0.43700001 105 16 0
2.9189999 0.40900001 -0.442 101 16 0
2.9119999 0.41499999 -0.447 100 16 0
2.9070001 0.42199999 -0.45300001 101 16 0
2.902 0.428 -0.45899999 96 16 0
2.898 0.43399999 -0.465 115 16 0
2.8889999 0.44 -0.47 103 16 0
2.8859999 0.447 -0.47600001 101 16 0
2.8829999 0.45300001 -0.48199999 126 16 0
2.8770001 0.45899999 -0.48800001 121 16 0
2.869 0.465 -0.493 142 16 0
2.8610001 0.47099999 -0.498 133 16 0
2.8559999 0.477 -0.50300002 121 16 0
2.849 0.48300001 -0.509 124 16 0
2.846 0.48899999 -0.514 132 16 0
2.839 0.495 -0.51899999 119 16 0
2.836 0.50199997 -0.52499998 136 16 0
2.8329999 0.50800002 -0.53100002 127 16 0
2.822 0.51300001 -0.53500003 133 16 0
