# .PCD v0.7 - Point Cloud Data file format
VERSION 0.7
FIELDS x y z intensity tag line
SIZE 4 4 4 4 1 1
TYPE F F F F U U
COUNT 1 1 1 1 1 1
WIDTH 1362
HEIGHT 1
VIEWPOINT 0 0 0 1 0 0 0
POINTS 1362
DATA ascii
2.7190001 0.84399998 -0.377 150 16 0
2.721 0.83700001 -0.37200001 150 16 0
2.733 0.83200002 -0.36899999 150 16 0
2.7379999 0.82599998 -0.36500001 150 16 0
2.7460001 0.81999999 -0.361 150 16 0
2.744 0.81099999 -0.35699999 150 16 0
2.756 0.80699998 -0.35299999 150 16 0
2.7609999 0.80000001 -0.34900001 150 16 0
2.7650001 0.79299998 -0.345 150 16 0
2.7720001 0.787 -0.34200001 150 16 0
2.7750001 0.77999997 -0.33700001 150 16 0
2.779 0.773 -0.333 150 16 0
2.78 0.76499999 -0.329 150 16 0
2.786 0.75800002 -0.32499999 150 16 0
2.7950001 0.75199997 -0.32100001 150 16 0
2.802 0.74599999 -0.31799999 150 16 0
2.8050001 0.73900002 -0.31400001 150 16 0
2.8069999 0.73100001 -0.30899999 150 16 0
2.8169999 0.72500002 -0.30599999 150 16 0
2.829 0.72000003 -0.303 150 16 0
2.8280001 0.71100003 -0.29800001 150 16 0
2.835 0.704 -0.29499999 150 16 0
2.8380001 0.69700003 -0.28999999 150 16 0
2.8399999 0.68900001 -0.28600001 150 16 0
2.8469999 0.68199998 -0.28299999 150 16 0
2.8540001 0.67500001 -0.27900001 150 16 0
2.859 0.66799998 -0.27500001 150 16 0
2.8659999 0.66100001 -0.271 150 16 0
2.8699999 0.653 -0.26800001 150 16 0
2.872 0.64499998 -0.26300001 150 16 0
2.881 0.63800001 -0.25999999 150 16 0
2.8840001 0.63 -0.25600001 150 16 0
2.8859999 0.62199998 -0.252 150 16 0
2.9030001 0.61699998 -0.249 150 16 0
2.9059999 0.60900003 -0.245 150 16 0
2.9100001 0.60100001 -0.241 150 16 0
2.918 0.59399998 -0.23800001 150 16 0
2.9230001 0.58600003 -0.234 150 16 0
2.9300001 0.579 -0.23 150 16 0
2.934 0.57099998 -0.226 150 16 0
2.9389999 0.56300002 -0.223 150 16 0
2.9449999 0.55500001 -0.219 150 16 0
2.95 0.54799998 -0.215 150 16 0
2.9560001 0.54000002 -0.212 150 16 0
2.9630001 0.53200001 -0.208 150 16 0
2.9649999 0.523 -0.204 150 16 0
2.977 0.51700002 -0.20100001 150 16 0
2.9809999 0.50800002 -0.197 150 16 0
2.9849999 0.5 -0.193 150 16 0
2.99 0.49200001 -0.19 150 16 0
2.9979999 0.484 -0.186 150 16 0
2.9990001 0.47600001 -0.182 150 16 0
3.0079999 0.46799999 -0.17900001 150 16 0
3.0120001 0.45899999 -0.175 150 16 0
3.02 0.45199999 -0.17200001 150 16 0
3.027 0.44299999 -0.168 150 16 0
3.03 0.435 -0.164 144 16 0
3.0380001 0.42699999 -0.161 150 16 0
3.0469999 0.419 -0.15700001 150 16 0
3.0510001 0.41 -0.154 139 16 0
3.056 0.40099999 -0.15000001 134 16 0
3.062 0.39300001 -0.146 150 16 0
3.0650001 0.384 -0.14300001 141 16 0
3.072 0.37599999 -0.139 142 16 0
3.082 0.368 -0.13600001 149 16 0
3.0899999 0.359 -0.132 133 16 0
3.0940001 0.34999999 -0.12899999 124 16 0
3.1010001 0.34200001 -0.125 146 16 0
3.1029999 0.333 -0.121 124 16 0
3.1110001 0.324 -0.118 124 16 0
3.1199999 0.315 -0.114 113 16 0
3.1270001 0.30700001 -0.111 112 16 0
3.1329999 0.29800001 -0.107 113 16 0
3.142 0.289 -0.104 142 16 0
3.145 0.28 -0.1 126 16 0
3.152 0.271 -0.097000003 127 16 0
3.1619999 0.26199999 -0.093999997 110 16 0
3.165 0.25299999 -0.090000004 107 16 0
3.174 0.244 -0.086000003 105 16 0
3.1760001 0.234 -0.082999997 114 16 0
3.1849999 0.22499999 -0.079000004 103 16 0
3.1930001 0.21600001 -0.075999998 94 16 0
3.204 0.207 -0.072999999 102 16 0
3.2049999 0.197 -0.068999998 100 16 0
3.2149999 0.18799999 -0.066 98 16 0
3.2260001 0.17900001 -0.061999999 111 16 0
3.2309999 0.17 -0.059 118 16 0
3.2349999 0.16 -0.055 98 16 0
3.2460001 0.15000001 -0.052000001 97 16 0
3.25 0.141 -0.048 102 16 0
3.2539999 0.131 -0.045000002 87 16 0
3.2620001 0.121 -0.041000001 86 16 0
3.2690001 0.112 -0.037999999 71 16 0
3.2739999 0.102 -0.034000002 77 16 0
3.283 0.092 -0.030999999 72 16 0
3.289 0.082000002 -0.028000001 82 16 0
3.293 0.071999997 -0.024 89 16 0
3.3050001 0.061999999 -0.021 50 16 0
3.3110001 0.052000001 -0.017000001 49 16 0
3.313 0.041999999 -0.014 68 16 0
3.325 0.032000002 -0.0099999998 66 16 0
3.3199999 0.022 -0.0070000002 25 16 0
3.3 0.012 -0.0040000002 19 16 0
3.2720001 0.001 0 18 16 0
3.2550001 -0.0080000004 0.0020000001 21 16 0
3.2460001 -0.017999999 0.0049999999 53 16 0
3.2579999 -0.028000001 0.0089999996 150 16 0
3.263 -0.037999999 0.012 150 16 0
3.263 -0.048 0.015 150 16 0
3.279 -0.057999998 0.018999999 150 16 0
3.2750001 -0.068000004 0.022 95 16 0
3.256 -0.078000002 0.025 32 16 0
3.24 -0.086999997 0.028000001 32 16 0
3.2149999 -0.097000003 0.030999999 31 16 0
3.2019999 -0.106 0.034000002 32 16 0
3.1819999 -0.115 0.037 31 16 0
3.1619999 -0.125 0.039000001 32 16 0
3.1400001 -0.133 0.041999999 32 16 0
3.1229999 -0.142 0.045000002 30 16 0
3.095 -0.15099999 0.046999998 30 16 0
3.0840001 -0.16 0.050000001 29 16 0
3.0680001 -0.168 0.052999999 30 16 0
3.0450001 -0.177 0.055 31 16 0
3.027 -0.185 0.057999998 31 16 0
3.006 -0.193 0.059999999 31 16 0
2.99 -0.20100001 0.061999999 31 16 0
2.9719999 -0.20999999 0.064999998 30 16 0
2.9590001 -0.21799999 0.067000002 31 16 0
2.9389999 -0.22499999 0.068999998 32 16 0
2.9230001 -0.233 0.071000002 32 16 0
2.904 -0.241 0.072999999 33 16 0
2.8889999 -0.249 0.075999998 31 16 0
2.8699999 -0.25600001 0.078000002 31 16 0
2.859 -0.264 0.079999998 31 16 0
2.842 -0.271 0.082000002 33 16 0
2.8210001 -0.278 0.082999997 33 16 0
2.809 -0.28600001 0.086000003 34 16 0
2.7969999 -0.294 0.088 35 16 0
2.777 -0.30000001 0.089000002 34 16 0
2.763 -0.30700001 0.090999998 35 16 0
2.743 -0.31400001 0.093000002 34 16 0
2.7349999 -0.322 0.094999999 36 16 0
2.723 -0.329 0.096000001 36 16 0
2.7119999 -0.336 0.097999997 36 16 0
2.697 -0.34299999 0.1 37 16 0
2.681 -0.34900001 0.101 42 16 0
2.668 -0.35600001 0.103 42 16 0
2.6500001 -0.36199999 0.104 39 16 0
2.635 -0.368 0.106 40 16 0
2.6229999 -0.375 0.107 38 16 0
2.609 -0.382 0.109 46 16 0
2.5929999 -0.38699999 0.11 42 16 0
2.582 -0.39399999 0.112 52 16 0
2.5680001 -0.40000001 0.113 52 16 0
2.556 -0.40599999 0.114 58 16 0
2.5409999 -0.412 0.116 56 16 0
2.527 -0.41800001 0.117 58 16 0
2.5179999 -0.42399999 0.118 69 16 0
2.5020001 -0.43000001 0.119 61 16 0
2.49 -0.43599999 0.12 65 16 0
2.4779999 -0.442 0.122 67 16 0
2.4649999 -0.447 0.123 66 16 0
2.4549999 -0.45300001 0.124 68 16 0
2.4449999 -0.46000001 0.125 74 16 0
2.4360001 -0.46599999 0.126 76 16 0
2.421 -0.47099999 0.127 60 16 0
2.4119999 -0.477 0.12800001 72 16 0
2.3929999 -0.48100001 0.12899999 68 16 0
2.3800001 -0.486 0.13 69 16 0
2.3710001 -0.49200001 0.131 70 16 0
2.359 -0.49700001 0.132 84 16 0
2.346 -0.50199997 0.132 61 16 0
2.332 -0.50700003 0.133 70 16 0
2.322 -0.51200002 0.134 75 16 0
2.312 -0.51700002 0.13500001 81 16 0
2.2980001 -0.52200001 0.13500001 75 16 0
2.286 -0.52600002 0.13600001 79 16 0
2.2750001 -0.53100002 0.13699999 87 16 0
2.27 -0.53799999 0.138 85 16 0
2.2579999 -0.542 0.138 89 16 0
2.2420001 -0.546 0.139 82 16 0
2.234 -0.551 0.14 90 16 0
2.221 -0.55500001 0.14 91 16 0
2.2160001 -0.56099999 0.141 94 16 0
2.2019999 -0.565 0.141 100 16 0
2.194 -0.56999999 0.142 108 16 0
2.1860001 -0.57599998 0.142 112 16 0
2.175 -0.57999998 0.14300001 111 16 0
2.165 -0.58399999 0.14300001 102 16 0
2.151 -0.588 0.14399999 100 16 0
2.1359999 -0.59100002 0.14399999 116 16 0
2.1300001 -0.59600002 0.14399999 124 16 0
2.1229999 -0.60100001 0.145 140 16 0
2.108 -0.60399997 0.145 140 16 0
2.105 -0.61000001 0.145 150 16 0
2.092 -0.61400002 0.146 150 16 0
2.0769999 -0.616 0.145 146 16 0
2.072 -0.62199998 0.146 147 16 0
2.0639999 -0.62599999 0.146 150 16 0
2.052 -0.62900001 0.146 147 16 0
2.0450001 -0.634 0.147 146 16 0
2.036 -0.63800001 0.147 148 16 0
2.023 -0.64099997 0.147 150 16 0
2.0209999 -0.64700001 0.147 150 16 0
2.0090001 -0.64999998 0.147 150 16 0
2 -0.65399998 0.147 150 16 0
1.99 -0.65700001 0.147 150 16 0
1.982 -0.66100001 0.147 150 16 0
1.975 -0.66600001 0.147 150 16 0
1.9630001 -0.66799998 0.147 150 16 0
1.961 -0.67400002 0.148 150 16 0
1.95 -0.67699999 0.147 150 16 0
1.929 -0.676 0.146 150 16 0
1.925 -0.68099999 0.147 150 16 0
1.918 -0.68599999 0.147 150 16 0
1.914 -0.69099998 0.147 150 16 0
1.906 -0.69400001 0.147 150 16 0
1.898 -0.69800001 0.147 150 16 0
1.893 -0.70200002 0.147 150 16 0
1.881 -0.704 0.146 150 16 0
1.877 -0.70899999 0.146 150 16 0
1.8710001 -0.713 0.146 150 16 0
1.854 -0.713 0.145 150 16 0
1.854 -0.71899998 0.146 150 16 0
1.847 -0.72299999 0.145 150 16 0
1.839 -0.72600001 0.145 150 16 0
1.827 -0.727 0.14399999 150 16 0
1.824 -0.73299998 0.14399999 150 16 0
1.814 -0.73500001 0.14399999 150 16 0
1.807 -0.73799998 0.14300001 150 16 0
1.7970001 -0.74000001 0.14300001 150 16 0
1.794 -0.745 0.14300001 150 16 0
1.79 -0.74900001 0.142 150 16 0
1.784 -0.75300002 0.142 84 0 0
1.776 -0.75599998 0.141 65 0 0
1.765 -0.75700003 0.141 82 0 0
1.758 -0.75999999 0.14 150 16 0
1.75 -0.76300001 0.139 83 0 0
1.742 -0.76499999 0.139 109 0 0
1.737 -0.76800001 0.138 99 0 0
1.734 -0.773 0.138 78 0 0
1.726 -0.77499998 0.13699999 82 0 0
1.722 -0.77899998 0.13699999 104 0 0
1.716 -0.78299999 0.13600001 111 0 0
1.7079999 -0.78500003 0.13600001 114 0 0
1.693 -0.78299999 0.134 133 0 0
1.689 -0.787 0.134 125 0 0
1.681 -0.78899997 0.133 98 0 0
1.677 -0.79299998 0.132 99 0 0
1.67 -0.79500002 0.131 143 0 0
1.663 -0.79799998 0.131 90 0 0
1.6569999 -0.80000001 0.13 101 0 0
1.654 -0.80400002 0.12899999 94 0 0
1.647 -0.80599999 0.12800001 92 0 0
1.641 -0.80900002 0.12800001 132 0 0
1.6339999 -0.81099999 0.127 129 0 0
1.626 -0.81199998 0.126 150 0 0
1.6210001 -0.815 0.125 143 0 0
1.619 -0.81900001 0.124 123 0 0
1.608 -0.81900001 0.123 117 0 0
1.6059999 -0.82300001 0.122 112 0 0
1.601 -0.82599998 0.121 101 0 0
1.586 -0.824 0.12 117 3 0
1.586 -0.829 0.119 139 0 0
1.582 -0.83200002 0.118 95 0 0
1.579 -0.83499998 0.117 150 0 0
1.568 -0.83499998 0.116 112 0 0
1.566 -0.838 0.115 146 0 0
1.562 -0.84100002 0.114 117 0 0
1.5599999 -0.84500003 0.113 103 0 0
1.551 -0.84500003 0.112 137 0 0
1.5470001 -0.84799999 0.111 135 0 0
1.5420001 -0.85000002 0.11 118 0 0
1.538 -0.85299999 0.109 126 0 0
1.526 -0.85100001 0.107 116 0 0
1.527 -0.85600001 0.106 1 0 0
1.52 -0.85699999 0.105 125 0 0
1.516 -0.85900003 0.104 117 0 0
1.511 -0.861 0.102 150 0 0
1.5039999 -0.861 0.101 150 0 0
1.506 -0.86699998 0.1 142 0 0
1.498 -0.86699998 0.098999999 1 0 0
1.488 -0.86500001 0.097000003 133 0 0
1.4859999 -0.86900002 0.096000001 150 0 0
1.484 -0.87199998 0.094999999 129 0 0
1.482 -0.875 0.093999997 136 0 0
1.475 -0.875 0.092 148 0 0
1.47 -0.87699997 0.090999998 150 0 0
1.467 -0.87900001 0.089000002 134 0 0
1.457 -0.87599999 0.088 145 3 0
1.4579999 -0.88099998 0.086000003 130 0 0
1.456 -0.884 0.085000001 150 0 0
1.4529999 -0.88599998 0.083999999 127 0 0
1.446 -0.88599998 0.082000002 129 0 0
1.443 -0.88800001 0.081 150 0 0
1.433 -0.88599998 0.079000004 85 3 0
1.4349999 -0.88999999 0.078000002 113 0 0
1.4299999 -0.89099997 0.075999998 143 0 0
1.4220001 -0.88999999 0.074000001 125 0 0
1.421 -0.89300001 0.072999999 150 0 0
1.419 -0.89499998 0.071999997 142 0 0
1.4170001 -0.898 0.07 147 0 0
1.4119999 -0.898 0.068000004 150 0 0
1.408 -0.898 0.067000002 150 0 0
1.406 -0.90100002 0.064999998 137 0 0
1.401 -0.90100002 0.064000003 141 0 0
1.403 -0.90499997 0.061999999 150 0 0
1.399 -0.90600002 0.061000001 150 0 0
1.3940001 -0.90600002 0.059 127 0 0
1.39 -0.90600002 0.057 139 0 0
1.3890001 -0.90799999 0.056000002 150 0 0
1.382 -0.90700001 0.054000001 150 0 0
1.382 -0.91000003 0.052000001 146 0 0
1.378 -0.91000003 0.050999999 124 0 0
1.376 -0.91100001 0.048999999 147 0 0
1.372 -0.912 0.046999998 150 0 0
1.37 -0.91299999 0.046 150 0 0
1.369 -0.91500002 0.044 150 0 0
1.368 -0.917 0.041999999 119 0 0
1.365 -0.917 0.039999999 132 0 0
1.364 -0.91900003 0.039000001 147 0 0
1.363 -0.92000002 0.037 150 0 0
1.357 -0.91900003 0.035 150 0 0
1.358 -0.921 0.034000002 126 0 0
1.357 -0.92299998 0.032000002 150 0 0
1.3559999 -0.92400002 0.029999999 150 0 0
1.353 -0.92400002 0.028000001 122 0 0
1.348 -0.92199999 0.026000001 150 0 0
1.344 -0.92199999 0.025 150 0 0
1.346 -0.92500001 0.023 150 0 0
1.344 -0.926 0.021 120 0 0
1.344 -0.92699999 0.018999999 138 0 0
1.341 -0.92699999 0.017000001 115 0 0
1.337 -0.92500001 0.015 127 0 0
1.337 -0.926 0.014 123 0 0
1.335 -0.92699999 0.012 150 0 0
1.335 -0.92799997 0.0099999998 132 0 0
1.332 -0.92699999 0.0080000004 141 0 0
1.331 -0.92699999 0.0060000001 109 0 0
1.331 -0.92900002 0.0040000002 130 0 0
1.331 -0.92900002 0.003 143 0 0
1.33 -0.93000001 0.001 133 0 0
1.33 -0.93099999 0 125 0 0
1.33 -0.93099999 -0.0020000001 150 0 0
1.329 -0.93199998 -0.0040000002 108 0 0
1.312 -0.92000002 -0.0060000001 80 1 0
1.3099999 -0.91900003 -0.0080000004 125 0 0
1.324 -0.92900002 -0.0089999996 150 1 0
1.322 -0.92900002 -0.011 134 0 0
1.3099999 -0.921 -0.013 125 1 0
1.311 -0.92199999 -0.015 85 0 0
1.322 -0.93000001 -0.017000001 150 1 0
1.309 -0.921 -0.018999999 109 3 0
1.309 -0.921 -0.02 106 0 0
1.309 -0.921 -0.022 80 0 0
1.307 -0.91900003 -0.024 105 0 0
1.322 -0.93000001 -0.026000001 150 1 0
1.322 -0.92900002 -0.028000001 150 0 0
1.322 -0.92900002 -0.029999999 150 0 0
1.322 -0.92900002 -0.032000002 133 0 0
1.309 -0.91900003 -0.033 138 1 0
1.3200001 -0.92699999 -0.035999998 134 0 0
1.3099999 -0.91900003 -0.037 92 0 0
1.321 -0.926 -0.039000001 150 0 0
1.309 -0.917 -0.041000001 116 0 0
1.324 -0.926 -0.043000001 132 0 0
1.324 -0.926 -0.045000002 149 0 0
1.3099999 -0.91500002 -0.046 128 1 0
1.325 -0.92400002 -0.048 150 3 0
1.325 -0.92400002 -0.050000001 150 0 0
1.322 -0.92000002 -0.052000001 134 0 0
1.324 -0.92000002 -0.054000001 143 0 0
1.325 -0.91900003 -0.056000002 150 0 0
1.3279999 -0.92000002 -0.057 141 0 0
1.329 -0.92000002 -0.059 143 0 0
1.329 -0.91799998 -0.061000001 128 0 0
1.33 -0.917 -0.063000001 108 0 0
1.33 -0.91600001 -0.064000003 134 0 0
1.332 -0.91500002 -0.066 150 0 0
1.332 -0.91299999 -0.068000004 137 0 0
1.3329999 -0.912 -0.07 150 0 0
1.334 -0.91100001 -0.071000002 150 0 0
1.334 -0.90899998 -0.072999999 131 0 0
1.339 -0.91000003 -0.075000003 147 0 0
1.341 -0.91000003 -0.077 147 0 0
1.342 -0.90799999 -0.078000002 150 0 0
1.3430001 -0.90600002 -0.079999998 150 0 0
1.347 -0.90700001 -0.082000002 150 0 0
1.348 -0.90499997 -0.082999997 150 0 0
1.35 -0.90399998 -0.085000001 150 0 0
1.353 -0.90399998 -0.086999997 150 0 0
1.354 -0.90200001 -0.088 150 0 0
1.3559999 -0.89999998 -0.090000004 127 0 0
1.3559999 -0.898 -0.090999998 150 0 0
1.358 -0.89600003 -0.093000002 150 0 0
1.365 -0.898 -0.094999999 150 0 0
1.3609999 -0.89300001 -0.096000001 150 0 0
1.3660001 -0.89300001 -0.097999997 150 0 0
1.37 -0.89300001 -0.098999999 150 0 0
1.3710001 -0.89099997 -0.101 150 0 0
1.373 -0.88800001 -0.102 150 0 0
1.3789999 -0.889 -0.104 150 0 0
1.3789999 -0.88599998 -0.105 141 0 0
1.382 -0.88499999 -0.107 150 0 0
1.383 -0.88200003 -0.108 150 0 0
1.385 -0.88 -0.11 150 0 0
1.386 -0.87699997 -0.111 150 0 0
1.3890001 -0.87599999 -0.113 148 0 0
1.392 -0.87400001 -0.114 138 0 0
1.395 -0.87199998 -0.115 150 0 0
1.396 -0.87 -0.117 150 0 0
1.398 -0.86699998 -0.118 150 0 0
1.402 -0.866 -0.119 150 0 0
1.414 -0.86900002 -0.121 150 3 0
1.415 -0.866 -0.122 150 0 0
1.416 -0.86299998 -0.124 150 0 0
1.419 -0.861 -0.125 150 0 0
1.42 -0.85799998 -0.126 150 0 0
1.4220001 -0.85500002 -0.127 150 0 0
1.427 -0.85399997 -0.12800001 129 0 0
1.434 -0.85399997 -0.13 150 0 0
1.433 -0.85000002 -0.131 150 0 0
1.438 -0.84799999 -0.132 141 0 0
1.444 -0.847 -0.133 138 0 0
1.446 -0.84500003 -0.13500001 150 0 0
1.448 -0.84100002 -0.13600001 127 0 0
1.455 -0.84100002 -0.13699999 150 0 0
1.46 -0.83999997 -0.138 146 0 0
1.467 -0.83899999 -0.14 150 0 0
1.471 -0.83700001 -0.141 110 0 0
1.473 -0.83399999 -0.142 142 0 0
1.475 -0.82999998 -0.142 112 0 0
1.482 -0.82999998 -0.14399999 131 0 0
1.487 -0.82800001 -0.145 137 0 0
1.488 -0.824 -0.146 131 0 0
1.494 -0.82300001 -0.147 132 0 0
1.498 -0.81999999 -0.148 137 0 0
1.5039999 -0.81800002 -0.149 106 0 0
1.51 -0.81699997 -0.15000001 150 0 0
1.512 -0.81300002 -0.15000001 140 0 0
1.517 -0.81099999 -0.152 111 0 0
1.527 -0.81199998 -0.153 126 0 0
1.529 -0.80800003 -0.154 125 0 0
1.535 -0.80599999 -0.154 145 0 0
1.539 -0.80299997 -0.155 150 0 0
1.541 -0.79900002 -0.156 130 0 0
1.549 -0.79799998 -0.15700001 106 0 0
1.557 -0.79699999 -0.15800001 113 0 0
1.563 -0.79500002 -0.15899999 115 0 0
1.566 -0.792 -0.15899999 103 0 0
1.573 -0.79000002 -0.16 104 0 0
1.575 -0.78600001 -0.161 134 0 0
1.581 -0.78299999 -0.162 103 0 0
1.589 -0.78200001 -0.163 125 0 0
1.591 -0.778 -0.163 133 0 0
1.597 -0.77600002 -0.164 119 0 0
1.602 -0.773 -0.164 100 0 0
1.6059999 -0.76899999 -0.16500001 131 0 0
1.613 -0.76700002 -0.16500001 115 0 0
1.615 -0.76200002 -0.16599999 142 0 0
1.628 -0.76300001 -0.167 83 0 0
1.633 -0.75999999 -0.167 111 0 0
1.638 -0.75700003 -0.168 128 0 0
1.64 -0.75199997 -0.168 111 0 0
1.653 -0.75300002 -0.169 94 0 0
1.655 -0.74800003 -0.169 106 0 0
1.663 -0.74599999 -0.17 85 0 0
1.671 -0.74400002 -0.171 92 0 0
1.679 -0.74199998 -0.171 2 0 0
1.683 -0.73799998 -0.171 150 16 0
1.688 -0.73400003 -0.17200001 150 16 0
1.696 -0.73199999 -0.17200001 150 16 0
1.7029999 -0.72899997 -0.17200001 90 0 0
1.71 -0.727 -0.17299999 150 16 0
1.719 -0.72399998 -0.17299999 150 16 0
1.7180001 -0.71799999 -0.17299999 82 0 0
1.7359999 -0.72000003 -0.17399999 62 3 0
1.743 -0.71700001 -0.175 64 0 0
1.745 -0.71200001 -0.17399999 59 0 0
1.757 -0.71100003 -0.175 58 0 0
1.76 -0.70599997 -0.175 69 0 0
1.766 -0.70200002 -0.175 2 0 0
1.773 -0.699 -0.175 45 0 0
1.781 -0.69599998 -0.176 2 0 0
1.7869999 -0.69199997 -0.176 41 0 0
1.795 -0.68900001 -0.176 1 0 0
1.807 -0.68800002 -0.176 1 0 0
1.811 -0.68300003 -0.176 1 0 0
1.819 -0.68000001 -0.176 150 16 0
1.823 -0.67500001 -0.176 150 16 0
1.831 -0.67199999 -0.176 150 16 0
1.84 -0.66900003 -0.176 150 16 0
1.857 -0.66900003 -0.177 150 19 0
1.8609999 -0.66399997 -0.176 150 16 0
1.867 -0.66000003 -0.176 150 16 0
1.8710001 -0.65499997 -0.176 144 16 0
1.88 -0.65200001 -0.176 150 16 0
1.891 -0.64899999 -0.176 150 16 0
1.902 -0.64700001 -0.176 145 16 0
1.908 -0.64200002 -0.176 150 16 0
1.913 -0.63800001 -0.175 146 16 0
1.92 -0.63300002 -0.175 145 16 0
1.927 -0.62900001 -0.175 148 16 0
1.9349999 -0.62599999 -0.17399999 149 16 0
1.942 -0.62099999 -0.17399999 150 16 0
1.957 -0.61900002 -0.17399999 142 16 0
1.966 -0.616 -0.17399999 139 16 0
1.977 -0.61299998 -0.17399999 143 16 0
1.983 -0.60799998 -0.17299999 135 16 0
1.995 -0.60500002 -0.17299999 144 16 0
2 -0.60000002 -0.17200001 132 16 0
2.01 -0.59600002 -0.17200001 119 16 0
2.02 -0.59200001 -0.17200001 107 16 0
2.029 -0.588 -0.171 109 16 0
2.043 -0.58499998 -0.171 108 16 0
2.0480001 -0.57999998 -0.17 110 16 0
2.0569999 -0.57599998 -0.17 113 16 0
2.073 -0.57300001 -0.17 110 16 0
2.0799999 -0.56800002 -0.169 101 16 0
2.085 -0.56300002 -0.168 93 16 0
2.098 -0.55900002 -0.167 100 16 0
2.105 -0.55400002 -0.167 91 16 0
2.119 -0.551 -0.16599999 94 16 0
2.1300001 -0.54699999 -0.16599999 81 16 0
2.141 -0.54299998 -0.16500001 91 16 0
2.1470001 -0.537 -0.164 91 16 0
2.1559999 -0.53200001 -0.163 96 16 0
2.177 -0.52999997 -0.163 91 19 0
2.1860001 -0.52600002 -0.162 90 16 0
2.1960001 -0.52100003 -0.161 86 16 0
2.21 -0.51700002 -0.161 81 16 0
2.2130001 -0.50999999 -0.15899999 82 16 0
2.23 -0.50700003 -0.15899999 83 16 0
2.2390001 -0.50199997 -0.15800001 78 16 0
2.253 -0.498 -0.15700001 76 16 0
2.26 -0.49200001 -0.156 69 16 0
2.273 -0.48699999 -0.155 72 16 0
2.28 -0.48100001 -0.153 74 16 0
2.2980001 -0.47799999 -0.153 62 16 0
2.309 -0.47299999 -0.152 60 16 0
2.326 -0.46900001 -0.15099999 60 16 0
2.332 -0.46200001 -0.149 50 16 0
2.3429999 -0.45699999 -0.148 60 16 0
2.358 -0.45199999 -0.147 52 16 0
2.3729999 -0.44800001 -0.146 48 16 0
2.3800001 -0.442 -0.14399999 58 16 0
2.395 -0.43700001 -0.14300001 56 16 0
2.408 -0.43099999 -0.142 57 16 0
2.421 -0.426 -0.141 53 16 0
2.4360001 -0.421 -0.139 56 16 0
2.4489999 -0.41499999 -0.138 50 16 0
2.46 -0.40900001 -0.13600001 51 16 0
2.474 -0.40400001 -0.13500001 48 16 0
2.4849999 -0.398 -0.133 52 16 0
2.4979999 -0.39199999 -0.132 44 16 0
2.5120001 -0.38600001 -0.13 42 16 0
2.5280001 -0.38 -0.12899999 44 16 0
2.5369999 -0.37400001 -0.127 29 16 0
2.552 -0.368 -0.125 30 16 0
2.569 -0.36199999 -0.124 30 16 0
2.5840001 -0.35600001 -0.122 29 16 0
2.598 -0.34999999 -0.12 30 16 0
2.6099999 -0.34400001 -0.118 29 16 0
2.6240001 -0.33700001 -0.117 30 16 0
2.6400001 -0.331 -0.115 29 16 0
2.6570001 -0.32499999 -0.113 29 16 0
2.675 -0.31900001 -0.111 29 16 0
2.688 -0.31200001 -0.109 29 16 0
2.7079999 -0.30599999 -0.107 29 16 0
2.721 -0.29899999 -0.105 28 16 0
2.7320001 -0.29100001 -0.103 27 16 0
2.75 -0.285 -0.101 28 16 0
2.7650001 -0.278 -0.097999997 28 16 0
2.7820001 -0.271 -0.096000001 27 16 0
2.7950001 -0.26300001 -0.093999997 27 16 0
2.809 -0.25600001 -0.092 27 16 0
2.8269999 -0.249 -0.089000002 27 16 0
2.846 -0.242 -0.086999997 27 16 0
2.858 -0.234 -0.083999999 25 16 0
2.8800001 -0.227 -0.082000002 26 16 0
2.902 -0.22 -0.079999998 26 16 0
2.9189999 -0.212 -0.077 27 16 0
2.9360001 -0.204 -0.074000001 27 16 0
2.9549999 -0.197 -0.071999997 26 16 0
2.9719999 -0.18799999 -0.068999998 25 16 0
2.997 -0.18099999 -0.066 25 16 0
3.006 -0.17200001 -0.063000001 27 16 0
3.033 -0.16500001 -0.061000001 26 19 0
3.056 -0.15700001 -0.057999998 26 16 0
3.079 -0.148 -0.055 26 16 0
3.096 -0.14 -0.052000001 26 16 0
3.118 -0.131 -0.048999999 26 16 0
3.1400001 -0.122 -0.046 27 16 0
3.1570001 -0.114 -0.041999999 26 16 0
3.1819999 -0.105 -0.039000001 27 16 0
3.2049999 -0.096000001 -0.035999998 27 16 0
3.22 -0.086000003 -0.033 26 16 0
3.244 -0.077 -0.028999999 30 16 0
3.2609999 -0.068000004 -0.026000001 111 16 0
3.263 -0.057999998 -0.022 150 16 0
3.257 -0.048 -0.017999999 132 16 0
3.2539999 -0.037999999 -0.014 128 16 0
3.25 -0.028000001 -0.011 121 16 0
3.243 -0.017999999 -0.0070000002 41 16 0
3.2550001 -0.0080000004 -0.003 19 16 0
3.2780001 0 0 17 16 0
3.306 0.0099999998 0.0040000002 18 16 0
3.3299999 0.021 0.0080000004 23 16 0
3.336 0.030999999 0.012 49 16 0
3.325 0.039999999 0.016000001 51 16 0
3.3299999 0.050999999 0.02 48 16 0
3.3210001 0.059999999 0.024 46 16 0
3.3210001 0.07 0.028000001 70 16 0
3.3150001 0.079999998 0.032000002 72 16 0
3.3150001 0.090000004 0.035999998 62 16 0
3.3110001 0.1 0.039999999 69 16 0
3.3110001 0.11 0.044 73 16 0
3.306 0.12 0.048 72 16 0
3.2709999 0.12800001 0.050999999 106 19 0
3.233 0.13600001 0.055 123 16 0
3.2279999 0.146 0.059 109 16 0
3.2260001 0.155 0.063000001 94 16 0
3.221 0.16500001 0.067000002 108 16 0
3.2160001 0.17399999 0.071000002 95 16 0
3.2149999 0.184 0.075000003 93 16 0
3.214 0.193 0.079000004 89 16 0
3.2060001 0.20200001 0.082999997 80 16 0
3.2060001 0.212 0.086999997 99 16 0
3.2030001 0.221 0.090999998 95 16 0
3.1989999 0.23 0.094999999 97 16 0
3.201 0.23999999 0.098999999 88 16 0
3.21 0.25 0.104 105 16 0
3.2179999 0.26100001 0.108 75 16 0
3.21 0.26899999 0.112 39 16 0
3.21 0.27900001 0.116 34 16 0
3.2260001 0.28999999 0.121 28 16 0
3.233 0.30000001 0.126 43 16 0
3.2360001 0.31 0.13 53 16 0
3.23 0.31900001 0.134 43 16 0
3.214 0.32699999 0.138 40 16 0
3.21 0.336 0.142 36 16 0
3.2030001 0.345 0.146 35 16 0
3.1919999 0.35299999 0.15000001 33 16 0
3.1789999 0.361 0.154 31 16 0
3.174 0.37 0.15800001 32 16 0
3.161 0.37799999 0.162 31 16 0
3.1470001 0.38499999 0.16599999 31 16 0
3.1359999 0.39300001 0.17 32 16 0
3.1300001 0.40200001 0.17399999 35 16 0
3.1199999 0.41 0.177 37 16 0
3.105 0.417 0.18099999 42 16 0
3.1040001 0.426 0.185 61 16 0
3.096 0.43399999 0.189 107 16 0
3.0940001 0.44299999 0.19400001 150 16 0
3.086 0.45100001 0.198 150 16 0
3.0899999 0.46000001 0.20299999 150 16 0
3.0810001 0.46799999 0.206 150 16 0
3.0810001 0.477 0.211 150 16 0
3.082 0.486 0.21600001 150 16 0
3.076 0.495 0.22 150 16 0
3.073 0.50300002 0.22400001 150 16 0
3.0669999 0.51099998 0.228 150 16 0
3.0680001 0.51999998 0.233 150 16 0
3.0639999 0.52899998 0.237 150 16 0
3.0610001 0.537 0.242 150 16 0
3.059 0.546 0.24600001 150 16 0
3.063 0.55599999 0.25099999 150 16 0
3.056 0.56300002 0.255 150 16 0
3.052 0.57099998 0.25999999 150 16 0
3.05 0.57999998 0.264 150 16 0
3.05 0.58899999 0.26899999 150 16 0
3.0450001 0.597 0.27399999 150 16 0
3.0450001 0.60600001 0.278 150 16 0
3.0409999 0.61400002 0.28299999 150 16 0
3.039 0.62199998 0.287 150 16 0
3.0369999 0.63099998 0.292 150 16 0
3.0350001 0.639 0.29699999 150 16 0
3.0320001 0.64700001 0.30199999 150 16 0
3.03 0.65600002 0.30599999 150 16 0
3.03 0.66399997 0.31099999 150 16 0
3.0250001 0.67199999 0.31600001 150 16 0
3.023 0.68099999 0.31999999 150 16 0
3.023 0.68900001 0.32499999 150 16 0
3.0179999 0.69700003 0.33000001 150 16 0
3.0150001 0.70499998 0.33500001 150 16 0
3.0150001 0.71399999 0.34 150 16 0
3.0139999 0.722 0.345 150 16 0
3.0109999 0.73000002 0.34999999 150 16 0
3.0120001 0.73900002 0.35499999 150 16 0
3.0050001 0.74599999 0.359 150 16 0
3.003 0.75400001 0.36399999 150 16 0
3.006 0.764 0.37 150 16 0
3 0.77100003 0.37400001 150 16 0
3.003 0.77999997 0.38 150 16 0
2.9979999 0.78799999 0.384 150 16 0
2.9990001 0.796 0.38999999 150 16 0
2.994 0.80400002 0.39399999 150 16 0
2.9920001 0.81199998 0.39899999 150 16 0
2.987 0.81900001 0.40400001 150 16 0
2.9860001 0.82700002 0.40900001 150 16 0
2.993 0.838 0.41600001 150 16 0
2.983 0.84299999 0.41999999 150 16 0
2.987 0.85299999 0.426 150 16 0
2.9790001 0.85900003 0.43000001 150 16 0
2.9790001 0.86799997 0.43599999 150 16 0
2.9779999 0.87599999 0.44100001 150 16 0
2.9790001 0.88499999 0.447 150 16 0
2.973 0.89099997 0.45100001 150 16 0
2.973 0.89999998 0.45699999 150 16 0
2.9690001 0.90700001 0.46200001 150 16 0
2.9679999 0.91500002 0.46700001 150 16 0
2.9649999 0.92299998 0.47299999 150 16 0
2.9619999 0.93000001 0.47799999 150 16 0
2.9630001 0.93800002 0.484 150 16 0
2.9579999 0.94499999 0.48899999 150 16 0
2.96 0.954 0.495 150 16 0
2.9560001 0.96100003 0.5 150 16 0
2.9560001 0.96899998 0.50599998 150 16 0
2.948 0.97500002 0.50999999 150 16 0
2.948 0.98299998 0.51599997 150 16 0
2.9400001 0.98900002 0.51999998 69 16 0
2.934 0.995 0.52499998 45 16 0
2.9200001 0.99800003 0.528 39 16 0
2.911 1.003 0.53299999 39 16 0
2.9030001 1.008 0.537 40 16 0
2.891 1.012 0.54100001 40 16 0
2.881 1.016 0.54500002 38 16 0
2.8759999 1.022 0.55000001 41 16 0
2.862 1.025 0.55299997 39 16 0
2.8529999 1.03 0.55699998 39 16 0
2.8469999 1.035 0.56199998 40 16 0
2.8329999 1.038 0.565 38 16 0
2.8280001 1.044 0.56999999 39 16 0
2.8199999 1.048 0.574 43 16 0
2.8050001 1.05 0.57700002 41 16 0
2.8010001 1.056 0.58200002 42 16 0
2.789 1.059 0.58600003 42 16 0
2.7739999 1.0599999 0.588 41 16 0
2.766 1.064 0.59299999 41 16 0
2.7609999 1.0700001 0.59799999 43 16 0
2.7420001 1.069 0.59899998 50 16 0
2.737 1.075 0.60399997 45 16 0
2.7279999 1.0779999 0.60799998 45 16 0
2.717 1.081 0.61199999 42 16 0
2.711 1.085 0.616 45 16 0
2.7049999 1.09 0.62099999 47 16 0
2.694 1.092 0.62400001 44 16 0
2.6830001 1.095 0.62800002 53 16 0
2.6730001 1.098 0.63200003 49 16 0
2.664 1.1 0.63499999 52 16 0
2.6530001 1.103 0.639 43 16 0
2.648 1.107 0.64300001 52 16 0
2.635 1.108 0.64600003 53 16 0
2.6289999 1.112 0.65100002 47 16 0
2.618 1.114 0.65399998 52 16 0
2.612 1.118 0.65799999 51 16 0
2.6010001 1.119 0.662 50 16 0
2.5940001 1.123 0.66600001 54 16 0
2.585 1.125 0.67000002 45 16 0
2.573 1.126 0.67199999 42 16 0
2.5699999 1.13 0.67799997 48 16 0
2.559 1.131 0.68099999 52 16 0
2.553 1.135 0.685 49 16 0
2.5409999 1.135 0.68800002 51 16 0
2.5320001 1.137 0.69099998 40 16 0
2.5250001 1.14 0.69499999 46 16 0
2.5150001 1.141 0.69800001 47 16 0
2.5090001 1.143 0.70300001 53 16 0
2.5050001 1.147 0.70700002 50 16 0
2.493 1.147 0.70999998 52 16 0
2.487 1.15 0.71399999 56 16 0
2.477 1.151 0.71700001 49 16 0
2.4690001 1.152 0.72100002 46 16 0
2.46 1.153 0.72399998 42 16 0
2.4549999 1.156 0.72799999 46 16 0
2.4460001 1.1569999 0.73199999 51 16 0
2.434 1.156 0.73400003 51 16 0
2.4289999 1.158 0.73799998 47 16 0
2.4230001 1.161 0.74199998 51 16 0
2.4119999 1.16 0.74400002 44 16 0
2.408 1.163 0.74900001 48 16 0
2.398 1.163 0.75199997 49 16 0
2.3870001 1.1619999 0.75400001 46 16 0
2.3829999 1.164 0.75800002 42 16 0
2.375 1.165 0.76099998 46 16 0
2.3699999 1.1670001 0.76499999 58 16 0
2.362 1.1670001 0.76899999 54 16 0
2.362 1.171 0.77399999 65 16 0
2.3499999 1.169 0.77600002 60 16 0
2.346 1.1720001 0.77999997 58 16 0
2.3410001 1.173 0.78399998 68 16 0
2.3280001 1.17 0.78500003 66 16 0
2.3239999 1.1720001 0.79000002 69 16 0
2.3150001 1.171 0.792 71 16 0
2.309 1.1720001 0.79500002 64 16 0
2.2980001 1.17 0.79699999 63 16 0
2.2950001 1.1720001 0.801 68 16 0
2.2880001 1.171 0.80400002 60 16 0
2.2839999 1.173 0.80900002 55 16 0
2.2739999 1.171 0.81 63 16 0
2.263 1.168 0.81199998 59 16 0
2.256 1.168 0.81400001 62 16 0
2.2539999 1.17 0.81900001 63 16 0
2.247 1.169 0.82200003 66 16 0
2.2379999 1.1670001 0.824 65 16 0
2.2349999 1.168 0.82700002 64 16 0
2.2260001 1.166 0.829 62 16 0
2.224 1.1670001 0.833 59 16 0
2.2130001 1.164 0.83499998 72 16 0
2.2079999 1.164 0.838 73 16 0
2.2 1.1619999 0.83999997 69 16 0
2.1960001 1.1619999 0.84299999 69 16 0
2.1930001 1.163 0.84600002 68 16 0
2.1860001 1.161 0.84799999 72 16 0
2.1819999 1.161 0.852 70 16 0
2.1719999 1.158 0.85299999 65 16 0
2.1689999 1.1569999 0.85600001 72 16 0
2.165 1.1569999 0.85900003 76 16 0
2.1600001 1.156 0.86199999 69 16 0
2.154 1.154 0.86400002 62 16 0
2.1470001 1.152 0.866 40 16 0
2.142 1.151 0.86799997 30 16 0
2.1370001 1.149 0.87 25 16 0
2.135 1.149 0.87400001 26 16 0
2.1259999 1.145 0.875 28 16 0
2.1199999 1.143 0.87599999 30 16 0
2.1170001 1.142 0.87900001 37 16 0
2.112 1.14 0.88099998 55 16 0
2.109 1.1390001 0.884 76 16 0
2.105 1.137 0.88599998 90 16 0
2.095 1.132 0.88599998 89 16 0
2.092 1.131 0.889 91 16 0
2.0899999 1.13 0.89200002 87 16 0
2.0840001 1.127 0.89300001 88 16 0
2.0810001 1.125 0.89499998 85 16 0
2.079 1.124 0.898 91 16 0
2.0710001 1.12 0.898 85 16 0
2.069 1.119 0.90100002 87 16 0
2.066 1.117 0.903 88 16 0
2.063 1.115 0.90499997 84 16 0
2.059 1.113 0.90700001 91 16 0
2.053 1.109 0.90700001 89 16 0
2.0480001 1.105 0.90799999 96 16 0
2.046 1.104 0.91100001 87 16 0
2.046 1.103 0.91399997 96 16 0
2.04 1.098 0.91399997 95 16 0
2.039 1.097 0.91600001 87 16 0
2.0309999 1.092 0.91600001 87 19 0
2.0309999 1.09 0.91799998 90 16 0
2.03 1.089 0.921 99 16 0
2.0280001 1.086 0.92199999 94 16 0
2.0220001 1.082 0.92199999 94 16 0
2.02 1.079 0.92400002 94 16 0
2.0190001 1.077 0.926 103 16 0
2.0139999 1.073 0.92500001 97 16 0
2.0090001 1.068 0.92500001 97 16 0
2.0090001 1.066 0.92799997 99 16 0
2.0079999 1.064 0.92900002 94 16 0
2.006 1.061 0.93099999 97 16 0
2.0079999 1.0599999 0.93300003 96 16 0
2.0020001 1.054 0.93199998 101 16 0
2 1.051 0.93300003 91 16 0
1.997 1.0470001 0.93300003 93 16 0
1.995 1.044 0.93400002 97 16 0
1.994 1.041 0.935 102 16 0
1.995 1.039 0.93699998 101 16 0
1.988 1.0319999 0.935 105 19 0
1.989 1.03 0.93699998 108 16 0
1.989 1.028 0.93800002 105 16 0
1.988 1.024 0.93900001 105 16 0
1.9859999 1.02 0.93900001 107 16 0
1.9859999 1.017 0.94 91 16 0
1.985 1.0140001 0.94099998 101 16 0
1.987 1.012 0.94300002 97 16 0
1.987 1.008 0.94300002 103 16 0
1.982 1.002 0.94199997 101 16 0
1.98 0.99800003 0.94099998 104 16 0
1.979 0.99400002 0.94099998 106 16 0
1.9809999 0.99199998 0.94300002 104 16 0
1.9809999 0.98799998 0.94300002 109 16 0
1.978 0.98299998 0.94199997 101 16 0
1.979 0.98000002 0.94300002 108 16 0
1.978 0.97600001 0.94199997 113 16 0
1.979 0.97299999 0.94300002 112 16 0
1.974 0.96700001 0.94099998 113 16 0
1.977 0.96399999 0.94199997 112 16 0
1.978 0.96100003 0.94199997 115 16 0
1.979 0.95700002 0.94199997 122 16 0
1.975 0.95099998 0.94 122 16 0
1.982 0.95099998 0.94300002 122 16 0
1.978 0.94400001 0.94099998 119 16 0
1.979 0.94 0.94 122 16 0
1.984 0.93900001 0.94300002 116 16 0
1.98 0.93300003 0.94 120 16 0
1.984 0.93000001 0.94099998 132 16 0
1.985 0.926 0.94099998 138 16 0
1.985 0.92199999 0.94 115 16 0
1.987 0.91799998 0.94 111 16 0
1.989 0.91500002 0.93900001 113 16 0
1.99 0.91000003 0.93900001 114 16 0
1.992 0.90700001 0.93800002 117 16 0
1.9910001 0.90200001 0.93699998 111 16 0
1.994 0.898 0.93699998 123 16 0
1.995 0.89399999 0.93599999 115 16 0
2.0009999 0.89200002 0.93699998 125 16 0
1.999 0.88599998 0.935 121 16 0
2.0020001 0.88300002 0.93400002 125 16 0
2.0039999 0.87900001 0.93400002 121 16 0
2.003 0.87300003 0.93099999 127 16 0
2.0090001 0.87099999 0.93199998 125 16 0
2.0109999 0.86699998 0.93099999 125 16 0
2.0120001 0.86199999 0.93000001 118 16 0
2.016 0.85900003 0.92900002 139 16 0
2.0179999 0.85500002 0.92799997 129 16 0
2.02 0.85000002 0.92699999 123 16 0
2.023 0.84600002 0.926 129 16 0
2.03 0.84399998 0.92699999 135 16 0
2.027 0.838 0.92299998 126 16 0
2.03 0.83399999 0.92199999 126 16 0
2.027 0.82800001 0.91799998 132 16 0
2.0350001 0.82499999 0.91900003 124 16 0
2.043 0.82300001 0.92000002 131 16 0
2.0450001 0.81900001 0.91900003 139 16 0
2.0439999 0.81300002 0.91500002 117 16 0
2.05 0.81 0.91500002 117 16 0
2.053 0.80599999 0.91299999 122 16 0
2.0550001 0.80199999 0.912 122 16 0
2.0599999 0.79799998 0.91100001 109 16 0
2.063 0.79400003 0.90899998 122 16 0
2.0639999 0.78899997 0.90600002 113 16 0
2.069 0.78500003 0.90499997 113 16 0
2.073 0.78100002 0.90399998 116 16 0
2.0739999 0.77600002 0.90100002 115 16 0
2.0780001 0.77200001 0.89899999 118 16 0
2.082 0.76800001 0.898 111 16 0
2.0869999 0.764 0.89600003 114 16 0
2.0929999 0.76099998 0.89499998 117 16 0
2.092 0.755 0.89099997 94 16 0
2.099 0.75199997 0.89099997 131 16 0
2.108 0.75 0.89099997 131 16 0
2.109 0.74400002 0.88800001 132 16 0
2.1140001 0.74000001 0.88599998 138 16 0
2.1170001 0.736 0.88300002 136 16 0
2.125 0.73299998 0.88300002 132 16 0
2.1240001 0.727 0.87800002 134 16 0
2.1370001 0.72600001 0.88 137 16 0
2.1389999 0.72100002 0.87599999 145 16 0
2.142 0.71600002 0.87400001 142 16 0
2.151 0.713 0.87300003 133 16 0
2.1570001 0.70999998 0.87099999 144 16 0
2.158 0.704 0.86799997 132 16 0
2.165 0.70099998 0.866 131 16 0
2.1659999 0.69599998 0.86199999 140 16 0
2.1700001 0.69099998 0.85900003 138 16 0
2.1789999 0.68800002 0.85900003 140 16 0
2.1830001 0.68400002 0.85600001 143 16 0
2.1919999 0.68099999 0.85500002 128 16 0
2.1949999 0.676 0.85100001 139 16 0
2.2019999 0.67299998 0.84899998 137 16 0
2.2090001 0.66900003 0.84799999 132 16 0
2.2119999 0.66399997 0.84399998 128 16 0
2.221 0.66100001 0.84299999 116 16 0
2.23 0.65799999 0.84100002 135 16 0
2.233 0.65399998 0.838 136 16 0
2.2390001 0.64899999 0.83499998 136 16 0
2.244 0.64499998 0.83200002 133 16 0
2.2490001 0.64099997 0.829 128 16 0
2.256 0.63700002 0.82599998 103 16 0
2.266 0.634 0.82499999 99 16 0
2.27 0.62900001 0.82099998 101 16 0
2.277 0.62599999 0.81900001 98 16 0
2.2809999 0.62099999 0.815 108 16 0
2.289 0.61699998 0.81300002 99 16 0
2.2969999 0.61400002 0.81 106 16 0
2.3010001 0.60900003 0.80599999 107 16 0
2.3080001 0.60500002 0.80299997 124 16 0
2.3169999 0.602 0.801 150 16 0
2.313 0.59500003 0.79500002 113 16 0
2.3429999 0.597 0.79900002 52 18 0
2.3759999 0.60000002 0.80500001 25 16 0
2.395 0.59899998 0.80599999 15 16 0
2.4170001 0.59799999 0.80699998 9 16 0
2.4100001 0.58999997 0.79900002 3 16 0
2.4159999 0.58600003 0.796 2 16 0
2.3800001 0.57099998 0.778 2 18 0
2.382 0.56599998 0.773 12 16 0
2.3870001 0.56199998 0.76899999 47 16 0
2.3929999 0.55699998 0.76499999 97 16 0
2.404 0.55400002 0.76300001 100 16 0
2.4089999 0.54900002 0.75800002 94 16 0
2.4189999 0.546 0.755 87 16 0
2.4289999 0.542 0.75300002 93 16 0
2.4330001 0.53799999 0.74800003 86 16 0
2.447 0.53500003 0.74599999 91 16 0
2.454 0.53100002 0.74199998 97 16 0
2.4619999 0.52700001 0.73799998 94 16 0
2.47 0.523 0.73500001 88 16 0
2.477 0.51899999 0.73100001 78 16 0
2.4860001 0.514 0.727 80 16 0
2.4960001 0.51099998 0.72399998 85 16 0
2.5090001 0.50800002 0.72100002 84 16 0
2.5139999 0.50300002 0.71600002 87 16 0
2.523 0.49900001 0.71200001 80 16 0
2.529 0.495 0.708 80 16 0
2.5369999 0.49000001 0.704 83 16 0
2.5469999 0.48699999 0.69999999 87 16 0
2.5599999 0.48300001 0.69700003 79 16 0
2.566 0.479 0.69199997 80 16 0
2.5829999 0.47600001 0.69 76 16 0
2.5869999 0.47099999 0.68400002 72 16 0
2.5969999 0.46700001 0.68000001 73 16 0
2.608 0.46399999 0.67699999 63 16 0
2.615 0.45899999 0.671 74 16 0
2.6229999 0.45500001 0.667 67 16 0
2.638 0.45199999 0.66399997 47 16 0
2.6459999 0.447 0.65899998 45 16 0
2.652 0.442 0.65399998 51 16 0
2.6600001 0.43799999 0.64899999 47 16 0
2.6760001 0.435 0.64600003 44 16 0
2.6830001 0.43000001 0.63999999 39 16 0
2.694 0.426 0.63599998 39 16 0
2.7079999 0.42300001 0.63200003 42 16 0
2.7160001 0.41800001 0.62699997 39 16 0
2.7249999 0.414 0.62199998 39 16 0
2.7379999 0.41 0.61699998 39 16 0
2.7479999 0.40599999 0.61299998 40 16 0
2.7620001 0.40200001 0.60799998 40 16 0
2.7720001 0.398 0.60299999 38 16 0
2.7820001 0.39399999 0.59799999 37 16 0
2.7969999 0.38999999 0.59399998 37 16 0
2.8069999 0.38600001 0.58899999 37 16 0
2.819 0.382 0.58399999 38 16 0
2.8280001 0.377 0.57800001 37 16 0
2.839 0.373 0.57300001 37 16 0
2.8570001 0.36899999 0.56900001 37 16 0
2.8640001 0.36399999 0.56300002 37 16 0
2.8759999 0.36000001 0.55699998 37 16 0
2.892 0.35600001 0.55299997 35 16 0
2.904 0.352 0.54699999 36 16 0
2.9200001 0.34799999 0.54299998 36 16 0
2.925 0.34299999 0.53600001 36 16 0
2.9360001 0.33899999 0.52999997 35 16 0
2.9549999 0.33500001 0.52499998 35 16 0
2.967 0.331 0.51899999 36 16 0
2.9809999 0.32600001 0.514 35 16 0
2.994 0.322 0.50800002 33 16 0
3.0079999 0.31799999 0.50199997 35 16 0
3.0209999 0.31299999 0.49599999 35 16 0
3.036 0.30899999 0.491 35 16 0
3.043 0.30399999 0.484 34 16 0
3.0610001 0.30000001 0.47799999 33 16 0
3.076 0.296 0.472 33 16 0
3.089 0.29100001 0.46599999 33 16 0
3.1040001 0.28600001 0.46000001 35 16 0
3.125 0.28200001 0.45500001 34 16 0
3.135 0.278 0.44800001 35 16 0
3.1530001 0.273 0.442 34 16 0
3.1659999 0.26899999 0.435 36 16 0
3.1819999 0.264 0.428 36 16 0
3.1919999 0.259 0.421 35 16 0
3.2179999 0.255 0.41600001 32 16 0
3.23 0.25 0.40799999 31 16 0
3.243 0.245 0.40099999 31 16 0
3.263 0.241 0.39500001 33 16 0
3.2679999 0.235 0.38600001 54 16 0
3.2780001 0.23 0.37900001 139 16 0
3.279 0.22400001 0.37 137 16 0
3.279 0.21799999 0.361 132 16 0
3.277 0.212 0.352 108 16 0
3.2780001 0.206 0.34299999 109 16 0
3.276 0.20100001 0.33399999 113 16 0
3.2780001 0.19499999 0.32499999 123 16 0
3.277 0.189 0.31600001 111 16 0
3.273 0.183 0.30599999 118 16 0
3.2690001 0.177 0.29699999 117 16 0
3.2750001 0.17200001 0.289 127 16 0
3.1960001 0.162 0.273 150 17 0
3.1359999 0.153 0.259 150 16 0
3.1830001 0.15000001 0.25400001 150 16 0
3.257 0.148 0.25099999 128 16 0
3.2650001 0.14300001 0.243 129 16 0
3.27 0.13699999 0.234 135 16 0
3.2639999 0.132 0.22400001 125 16 0
3.2609999 0.126 0.215 134 16 0
3.2620001 0.12 0.206 130 16 0
3.2579999 0.115 0.197 129 16 0
3.2590001 0.109 0.18799999 143 16 0
3.263 0.104 0.17900001 133 16 0
3.2579999 0.097999997 0.17 109 16 0
3.256 0.093000002 0.161 140 16 0
3.2539999 0.086999997 0.152 140 16 0
3.2520001 0.082000002 0.142 133 16 0
3.2520001 0.075999998 0.133 129 16 0
3.2609999 0.071000002 0.124 41 16 0
3.273 0.066 0.116 28 16 0
3.2950001 0.061000001 0.107 28 16 0
3.3210001 0.056000002 0.098999999 31 16 0
3.323 0.050999999 0.090000004 19 16 0
3.329 0.046 0.079999998 5 16 0
3.358 0.041000001 0.071999997 16 19 0
3.3559999 0.035 0.061999999 38 16 0
3.3559999 0.029999999 0.052999999 68 16 0
3.3499999 0.024 0.043000001 39 16 0
3.335 0.018999999 0.034000002 22 16 0
3.316 0.013 0.024 19 16 0
3.302 0.0080000004 0.015 17 16 0
3.286 0.003 0.0049999999 17 16 0
3.276 -0.001 -0.003 16 16 0
3.257 -0.0060000001 -0.012 16 16 0
3.237 -0.012 -0.021 18 16 0
3.23 -0.016000001 -0.029999999 28 16 0
3.2260001 -0.022 -0.039000001 47 16 0
3.227 -0.026000001 -0.048 97 16 0
3.224 -0.030999999 -0.057999998 114 16 0
3.224 -0.035999998 -0.067000002 121 16 0
3.221 -0.041000001 -0.075999998 112 16 0
3.221 -0.046 -0.085000001 110 16 0
3.223 -0.050999999 -0.093999997 125 16 0
3.2149999 -0.056000002 -0.103 118 16 0
3.217 -0.061000001 -0.112 150 16 0
3.2079999 -0.066 -0.121 150 16 0
3.207 -0.071000002 -0.13 86 16 0
3.204 -0.075000003 -0.14 41 16 0
3.1860001 -0.079999998 -0.148 26 16 0
3.174 -0.083999999 -0.15700001 25 16 0
3.1619999 -0.089000002 -0.16500001 25 16 0
3.142 -0.093000002 -0.17299999 25 16 0
3.132 -0.097000003 -0.18099999 25 16 0
3.1199999 -0.101 -0.19 24 16 0
3.109 -0.106 -0.198 24 16 0
3.096 -0.11 -0.206 24 16 0
3.085 -0.114 -0.215 23 16 0
3.0710001 -0.118 -0.223 24 16 0
3.052 -0.121 -0.23 24 16 0
3.0420001 -0.125 -0.23800001 23 16 0
3.0339999 -0.13 -0.24600001 24 16 0
3.02 -0.133 -0.25400001 24 16 0
3.007 -0.13699999 -0.26199999 24 16 0
2.9920001 -0.141 -0.26899999 23 16 0
2.9809999 -0.14399999 -0.27700001 23 16 0
2.973 -0.148 -0.285 23 16 0
2.9619999 -0.152 -0.29300001 23 16 0
2.948 -0.155 -0.30000001 23 16 0
2.944 -0.15899999 -0.308 23 16 0
2.931 -0.163 -0.315 23 16 0
2.914 -0.16599999 -0.322 23 16 0
2.901 -0.169 -0.329 24 16 0
2.8940001 -0.17299999 -0.33700001 24 16 0
2.8829999 -0.176 -0.34400001 24 16 0
2.8729999 -0.17900001 -0.352 24 16 0
2.8640001 -0.183 -0.359 24 16 0
2.8510001 -0.186 -0.366 26 16 0
2.842 -0.189 -0.373 26 16 0
2.8280001 -0.192 -0.38 26 16 0
2.823 -0.19599999 -0.38800001 26 16 0
2.8169999 -0.199 -0.39500001 26 16 0
2.8050001 -0.20200001 -0.40200001 26 16 0
2.7920001 -0.205 -0.40799999 27 16 0
2.7839999 -0.208 -0.41600001 27 16 0
2.7739999 -0.211 -0.42199999 27 16 0
2.766 -0.214 -0.43000001 27 16 0
2.757 -0.21699999 -0.43599999 26 16 0
2.747 -0.219 -0.44299999 26 16 0
2.7379999 -0.222 -0.44999999 26 16 0
2.73 -0.22499999 -0.45699999 26 16 0
2.721 -0.228 -0.46399999 26 16 0
2.7079999 -0.23 -0.47 25 16 0
2.7019999 -0.233 -0.477 27 16 0
2.6960001 -0.236 -0.484 26 16 0
2.6889999 -0.23899999 -0.491 26 16 0
2.6830001 -0.242 -0.498 26 16 0
2.678 -0.245 -0.50599998 26 16 0
2.6670001 -0.24699999 -0.51200002 27 16 0
2.6589999 -0.25 -0.51800001 28 16 0
2.648 -0.252 -0.52399999 27 16 0
2.638 -0.25400001 -0.52999997 26 16 0
2.632 -0.257 -0.537 26 16 0
2.625 -0.25999999 -0.54400003 26 16 0
2.6229999 -0.26300001 -0.55199999 27 16 0
2.6059999 -0.264 -0.55599999 26 16 0
2.5999999 -0.26699999 -0.56300002 27 16 0
2.5899999 -0.26899999 -0.56900001 26 16 0
2.5829999 -0.271 -0.57599998 28 16 0
2.576 -0.273 -0.58200002 29 16 0
2.5680001 -0.27599999 -0.588 28 16 0
2.563 -0.278 -0.59500003 28 16 0
2.5539999 -0.28 -0.60100001 28 16 0
2.5469999 -0.28200001 -0.60699999 29 16 0
2.536 -0.28400001 -0.61299998 28 16 0
2.5339999 -0.287 -0.62 29 16 0
2.5239999 -0.28799999 -0.62599999 28 16 0
2.52 -0.29100001 -0.63300002 28 16 0
2.5109999 -0.29300001 -0.639 27 16 0
2.5 -0.294 -0.64399999 26 16 0
2.503 -0.29699999 -0.65200001 29 16 0
2.4949999 -0.29899999 -0.65799999 29 16 0
2.4779999 -0.30000001 -0.662 29 16 0
2.4749999 -0.30199999 -0.66900003 36 16 0
2.471 -0.30399999 -0.676 45 16 0
2.4630001 -0.30599999 -0.68099999 39 16 0
2.46 -0.308 -0.68800002 39 16 0
2.448 -0.30899999 -0.69300002 48 16 0
2.4449999 -0.31099999 -0.69999999 45 16 0
2.437 -0.31299999 -0.70599997 40 16 0
2.4319999 -0.315 -0.71200001 41 16 0
2.428 -0.317 -0.71799999 41 16 0
2.4159999 -0.31799999 -0.72299999 45 16 0
2.411 -0.31900001 -0.72899997 49 16 0
2.4100001 -0.322 -0.73699999 39 16 0
2.4030001 -0.32300001 -0.74199998 45 16 0
2.3959999 -0.32499999 -0.74800003 43 16 0
2.388 -0.32600001 -0.75300002 42 16 0
2.3800001 -0.32699999 -0.75800002 37 16 0
2.378 -0.329 -0.76599997 42 16 0
2.3740001 -0.331 -0.77200001 45 16 0
2.3699999 -0.33199999 -0.778 48 16 0
2.362 -0.333 -0.78399998 46 16 0
2.358 -0.33500001 -0.79000002 50 16 0
2.3559999 -0.33700001 -0.79699999 51 16 0
2.3429999 -0.33700001 -0.80000001 54 16 0
2.339 -0.33899999 -0.80699998 48 16 0
2.335 -0.34 -0.81300002 48 16 0
2.3340001 -0.34200001 -0.81999999 55 16 0
2.3299999 -0.34299999 -0.82700002 50 16 0
2.325 -0.34400001 -0.83200002 47 16 0
2.319 -0.345 -0.838 49 16 0
2.3110001 -0.34599999 -0.84299999 48 16 0
2.3080001 -0.34799999 -0.84899998 48 16 0
2.303 -0.34900001 -0.85500002 49 16 0
2.2969999 -0.34999999 -0.86000001 46 16 0
2.2980001 -0.35100001 -0.86799997 50 16 0
2.2880001 -0.352 -0.87300003 50 16 0
2.286 -0.35299999 -0.87900001 52 16 0
2.28 -0.354 -0.88499999 50 16 0
2.276 -0.35499999 -0.88999999 58 16 0
2.2690001 -0.35600001 -0.89499998 55 16 0
2.2639999 -0.35600001 -0.90100002 53 16 0
2.2639999 -0.35800001 -0.90799999 62 16 0
2.2579999 -0.359 -0.91399997 56 16 0
2.2550001 -0.359 -0.92000002 56 16 0
2.2490001 -0.36000001 -0.92500001 56 16 0
2.244 -0.361 -0.93099999 53 16 0
2.2409999 -0.361 -0.93699998 75 16 0
2.2349999 -0.36199999 -0.94199997 69 16 0
2.2309999 -0.36300001 -0.94700003 69 16 0
2.23 -0.36399999 -0.954 70 16 0
2.227 -0.36500001 -0.95999998 73 16 0
2.2219999 -0.36500001 -0.96600002 66 16 0
2.221 -0.366 -0.97299999 74 16 0
2.2130001 -0.366 -0.97600001 67 16 0
2.2079999 -0.366 -0.98199999 67 16 0
2.207 -0.36700001 -0.98900002 67 16 0
2.2030001 -0.368 -0.99400002 66 16 0
2.2 -0.368 -1 85 16 0
2.1949999 -0.368 -1.005 92 16 0
2.194 -0.36899999 -1.012 92 16 0
2.191 -0.37 -1.018 91 16 0
2.187 -0.37 -1.023 89 16 0
2.184 -0.37 -1.029 90 16 0
2.181 -0.37 -1.035 87 16 0
2.178 -0.37099999 -1.041 89 16 0
2.175 -0.37099999 -1.046 88 16 0
2.1719999 -0.37099999 -1.052 89 16 0
2.168 -0.37099999 -1.057 90 16 0
2.165 -0.37099999 -1.063 88 16 0
2.1619999 -0.37099999 -1.068 90 16 0
2.161 -0.37200001 -1.075 90 16 0
2.1600001 -0.37200001 -1.082 90 16 0
2.154 -0.37200001 -1.085 87 16 0
2.1530001 -0.37200001 -1.092 88 16 0
2.148 -0.37200001 -1.096 86 16 0
2.1470001 -0.37200001 -1.103 84 16 0
2.1440001 -0.37200001 -1.108 84 16 0
2.142 -0.37099999 -1.114 88 16 0
2.145 -0.37200001 -1.122 86 16 0
2.1400001 -0.37200001 -1.126 84 16 0
2.1389999 -0.37200001 -1.133 83 16 0
2.1370001 -0.37099999 -1.138 85 16 0
2.131 -0.37099999 -1.142 80 16 0
2.132 -0.37099999 -1.149 82 16 0
2.132 -0.37099999 -1.156 82 16 0
2.1289999 -0.37 -1.161 87 16 0
2.131 -0.37099999 -1.168 87 16 0
2.128 -0.37 -1.173 79 16 0
2.1240001 -0.36899999 -1.177 73 16 0
2.125 -0.36899999 -1.1849999 84 16 0
2.1199999 -0.368 -1.188 78 16 0
2.1210001 -0.368 -1.1950001 78 16 0
2.122 -0.368 -1.202 89 16 0
2.1210001 -0.36700001 -1.2079999 90 16 0
2.1170001 -0.366 -1.212 79 16 0
2.1159999 -0.36500001 -1.217 84 16 0
2.1159999 -0.36500001 -1.223 77 16 0
2.1159999 -0.36399999 -1.23 84 16 0
2.1140001 -0.36399999 -1.235 79 16 0
2.1129999 -0.36300001 -1.24 80 16 0
2.112 -0.36199999 -1.245 80 16 0
2.112 -0.361 -1.251 77 16 0
2.115 -0.361 -1.2589999 76 16 0
2.1129999 -0.36000001 -1.2640001 83 16 0
2.1070001 -0.35800001 -1.266 72 16 0
2.108 -0.35699999 -1.272 65 16 0
2.1099999 -0.35699999 -1.279 70 16 0
2.108 -0.35600001 -1.283 67 16 0
2.1110001 -0.35499999 -1.29 66 16 0
2.1110001 -0.354 -1.296 67 16 0
2.112 -0.35299999 -1.302 66 16 0
2.105 -0.35100001 -1.303 63 16 0
2.1099999 -0.34999999 -1.312 64 16 0
2.1159999 -0.34999999 -1.3200001 68 16 0
2.109 -0.34799999 -1.322 65 16 0
2.1140001 -0.347 -1.33 65 16 0
2.1129999 -0.34599999 -1.334 59 16 0
2.1129999 -0.34400001 -1.339 57 16 0
2.1110001 -0.34299999 -1.3430001 56 16 0
2.112 -0.34099999 -1.348 58 16 0
2.1129999 -0.34 -1.353 63 16 0
2.1110001 -0.338 -1.357 58 16 0
2.1170001 -0.33700001 -1.365 57 16 0
2.1140001 -0.33500001 -1.368 58 16 0
2.118 -0.33399999 -1.375 49 16 0
2.1210001 -0.333 -1.381 54 16 0
2.1229999 -0.331 -1.387 51 16 0
2.1259999 -0.33000001 -1.393 55 16 0
2.1270001 -0.32800001 -1.398 58 16 0
2.1259999 -0.32600001 -1.401 62 16 0
2.125 -0.324 -1.404 61 16 0
2.131 -0.32300001 -1.4119999 61 16 0
2.1300001 -0.32100001 -1.415 59 16 0
2.1329999 -0.31900001 -1.42 63 16 0
2.1359999 -0.31799999 -1.426 65 16 0
2.1359999 -0.315 -1.4299999 63 16 0
2.1370001 -0.31299999 -1.434 59 16 0
2.141 -0.31200001 -1.439 61 16 0
2.1400001 -0.30899999 -1.442 48 16 0
2.142 -0.30700001 -1.447 52 16 0
2.1470001 -0.30500001 -1.4529999 49 16 0
2.1489999 -0.303 -1.457 45 16 0
2.154 -0.30199999 -1.4630001 45 16 0
2.1559999 -0.29899999 -1.467 47 16 0
2.1600001 -0.29800001 -1.473 44 16 0
2.1619999 -0.29499999 -1.476 49 16 0
2.1659999 -0.29300001 -1.4809999 45 16 0
2.1670001 -0.29100001 -1.485 36 16 0
2.1719999 -0.289 -1.49 39 16 0
2.1719999 -0.28600001 -1.492 38 16 0
2.1760001 -0.28400001 -1.497 39 16 0
2.1800001 -0.28200001 -1.502 41 16 0
2.188 -0.28 -1.5089999 42 16 0
2.191 -0.27700001 -1.512 37 16 0
2.194 -0.27500001 -1.516 37 16 0
2.2 -0.273 -1.521 37 16 0
2.2 -0.27000001 -1.523 38 16 0
2.2060001 -0.26800001 -1.528 37 16 0
2.2090001 -0.26499999 -1.531 36 16 0
2.2090001 -0.26199999 -1.5319999 37 16 0
2.217 -0.25999999 -1.538 37 19 0
2.2219999 -0.257 -1.5420001 36 16 0
2.2249999 -0.25400001 -1.545 37 16 0
2.2309999 -0.252 -1.55 37 16 0
2.233 -0.249 -1.551 35 16 0
2.237 -0.24600001 -1.554 35 16 0
