# .PCD v0.7 - Point Cloud Data file format
VERSION 0.7
FIELDS x y z intensity tag line
SIZE 4 4 4 4 1 1
TYPE F F F F U U
COUNT 1 1 1 1 1 1
WIDTH 1373
HEIGHT 1
VIEWPOINT 0 0 0 1 0 0 0
POINTS 1373
DATA ascii
3.1159999 -0.21600001 0.463 39 16 0
3.1229999 -0.213 0.45500001 32 16 0
3.138 -0.20999999 0.447 28 16 0
3.1370001 -0.206 0.43799999 26 16 0
3.141 -0.20200001 0.42899999 25 16 0
3.1500001 -0.199 0.421 25 16 0
3.1530001 -0.19499999 0.41100001 24 16 0
3.158 -0.191 0.403 25 16 0
3.164 -0.18700001 0.39399999 25 16 0
3.175 -0.184 0.38600001 25 16 0
3.171 -0.18000001 0.37599999 25 16 0
3.181 -0.176 0.36700001 23 16 0
3.188 -0.17200001 0.35800001 23 16 0
3.191 -0.168 0.34900001 23 16 0
3.1919999 -0.164 0.34 22 16 0
3.1949999 -0.16 0.331 23 16 0
3.2060001 -0.156 0.322 23 16 0
3.21 -0.152 0.31299999 23 16 0
3.2179999 -0.148 0.30399999 23 16 0
3.2219999 -0.14399999 0.29499999 24 16 0
3.23 -0.14 0.28600001 24 16 0
3.2360001 -0.13600001 0.27700001 24 16 0
3.237 -0.131 0.26800001 23 16 0
3.2449999 -0.127 0.259 24 16 0
3.2539999 -0.123 0.25 24 16 0
3.2539999 -0.119 0.23999999 24 16 0
3.266 -0.115 0.23199999 24 16 0
3.273 -0.11 0.223 24 16 0
3.2780001 -0.106 0.213 23 16 0
3.2839999 -0.102 0.204 23 16 0
3.286 -0.097000003 0.19400001 24 16 0
3.2950001 -0.093000002 0.185 24 16 0
3.3039999 -0.088 0.176 23 16 0
3.3099999 -0.083999999 0.167 23 16 0
3.3139999 -0.079000004 0.15700001 24 16 0
3.322 -0.075000003 0.148 25 16 0
3.3280001 -0.07 0.139 40 16 0
3.325 -0.064999998 0.12899999 73 16 0
3.3169999 -0.059999999 0.119 100 16 0
3.312 -0.055 0.109 79 16 0
3.3050001 -0.050999999 0.098999999 75 16 0
3.3010001 -0.046 0.090000004 70 16 0
3.2939999 -0.041000001 0.079999998 61 16 0
3.2820001 -0.035999998 0.07 72 16 0
3.277 -0.030999999 0.059999999 96 16 0
3.2709999 -0.026000001 0.050999999 83 16 0
3.2620001 -0.021 0.041000001 45 16 0
3.2639999 -0.016000001 0.032000002 27 16 0
3.26 -0.011 0.023 17 16 0
3.2720001 -0.0070000002 0.013 15 16 0
3.277 -0.0020000001 0.0040000002 14 16 0
3.2820001 0.0020000001 -0.0049999999 15 16 0
3.2909999 0.0070000002 -0.014 16 16 0
3.299 0.012 -0.024 16 16 0
3.3110001 0.017000001 -0.033 19 16 0
3.313 0.022 -0.043000001 27 16 0
3.3080001 0.027000001 -0.052000001 43 16 0
3.299 0.032000002 -0.061000001 54 16 0
3.286 0.037 -0.07 50 16 0
3.283 0.041999999 -0.079999998 52 16 0
3.276 0.046999998 -0.089000002 43 16 0
3.2720001 0.052000001 -0.097999997 36 16 0
3.266 0.057 -0.107 39 16 0
3.27 0.061999999 -0.116 50 16 0
3.25 0.067000002 -0.125 52 16 0
3.2490001 0.071999997 -0.134 51 16 0
3.2409999 0.077 -0.14300001 52 16 0
3.233 0.082000002 -0.152 54 16 0
3.2279999 0.086999997 -0.161 51 16 0
3.2249999 0.092 -0.17 54 16 0
3.211 0.097000003 -0.178 53 16 0
3.207 0.102 -0.18700001 57 16 0
3.201 0.107 -0.19599999 59 16 0
3.1930001 0.112 -0.204 51 16 0
3.184 0.116 -0.212 63 16 0
3.1800001 0.121 -0.221 58 16 0
3.1689999 0.126 -0.229 58 16 0
3.168 0.131 -0.23800001 51 16 0
3.1589999 0.13600001 -0.24600001 59 16 0
3.155 0.141 -0.255 64 16 0
3.148 0.146 -0.26300001 58 16 0
3.1400001 0.15099999 -0.271 50 16 0
3.1329999 0.156 -0.27900001 52 16 0
3.131 0.161 -0.28799999 62 16 0
3.1229999 0.16599999 -0.296 64 16 0
3.115 0.171 -0.30399999 53 16 0
3.109 0.176 -0.31200001 58 16 0
3.105 0.18099999 -0.31999999 59 16 0
3.098 0.185 -0.32800001 64 16 0
3.092 0.19 -0.336 56 16 0
3.0829999 0.19499999 -0.34400001 70 16 0
3.076 0.2 -0.352 59 16 0
3.069 0.205 -0.359 63 16 0
3.0639999 0.20999999 -0.36700001 67 16 0
3.053 0.214 -0.375 63 16 0
3.052 0.219 -0.38299999 68 16 0
3.0480001 0.22400001 -0.391 68 16 0
3.039 0.229 -0.398 67 16 0
3.0369999 0.234 -0.40599999 63 16 0
3.029 0.23899999 -0.41299999 70 16 0
3.0179999 0.243 -0.41999999 68 16 0
3.013 0.249 -0.428 72 16 0
3.01 0.25400001 -0.43599999 89 16 0
3.003 0.25799999 -0.44299999 90 16 0
3.0009999 0.264 -0.45100001 84 16 0
2.9920001 0.26800001 -0.458 79 16 0
2.9879999 0.273 -0.46599999 95 16 0
2.9790001 0.278 -0.472 90 16 0
2.9749999 0.28299999 -0.47999999 86 16 0
2.971 0.28799999 -0.48699999 87 16 0
2.9619999 0.29300001 -0.49399999 85 16 0
2.9560001 0.29800001 -0.50099999 95 16 0
2.954 0.303 -0.509 93 16 0
2.948 0.308 -0.51599997 96 16 0
2.941 0.31200001 -0.523 115 16 0
2.938 0.31799999 -0.52999997 130 16 0
2.9319999 0.32300001 -0.537 120 16 0
2.925 0.32699999 -0.54400003 132 16 0
2.911 0.331 -0.54900002 116 16 0
2.914 0.33700001 -0.55800003 123 16 0
2.8959999 0.34099999 -0.56199998 120 16 0
2.8940001 0.34599999 -0.56999999 109 16 0
2.8900001 0.35100001 -0.57700002 126 16 0
2.8870001 0.35600001 -0.58399999 122 16 0
2.8800001 0.361 -0.58999997 147 16 0
2.875 0.366 -0.597 136 16 0
2.8710001 0.37099999 -0.60399997 131 16 0
2.8599999 0.375 -0.61000001 135 16 0
2.858 0.38100001 -0.61699998 131 16 0
2.8540001 0.38600001 -0.62400001 127 16 0
2.846 0.38999999 -0.63 118 16 0
2.8399999 0.39500001 -0.63599998 137 16 0
2.8369999 0.40099999 -0.64300001 139 16 0
2.829 0.405 -0.64899999 140 16 0
2.8239999 0.41 -0.65499997 135 16 0
2.8210001 0.41499999 -0.662 148 16 0
2.8110001 0.41999999 -0.667 141 16 0
2.8080001 0.42500001 -0.67400002 124 16 0
2.8039999 0.43000001 -0.68000001 135 16 0
2.799 0.435 -0.68699998 132 16 0
2.79 0.43900001 -0.69199997 150 16 0
2.7909999 0.44499999 -0.699 144 16 0
2.7850001 0.44999999 -0.70599997 144 16 0
2.7809999 0.45500001 -0.71200001 146 16 0
2.7709999 0.45899999 -0.71600002 144 16 0
2.767 0.465 -0.72299999 150 16 0
2.7539999 0.46799999 -0.727 139 16 0
2.756 0.47499999 -0.73500001 150 16 0
2.7479999 0.479 -0.73900002 150 16 0
2.7449999 0.484 -0.74599999 150 16 0
2.7349999 0.48899999 -0.75099999 150 16 0
2.733 0.49399999 -0.75700003 150 16 0
2.73 0.49900001 -0.76300001 150 16 0
2.7260001 0.505 -0.76899999 150 16 0
2.714 0.50800002 -0.773 150 16 0
2.71 0.514 -0.77899998 150 16 0
2.707 0.51899999 -0.78500003 150 16 0
2.701 0.52399999 -0.79000002 150 16 0
2.6919999 0.528 -0.79500002 150 16 0
2.6919999 0.53399998 -0.80199999 150 16 0
2.6860001 0.53899997 -0.80699998 150 16 0
2.684 0.54400003 -0.81300002 150 16 0
2.681 0.55000001 -0.81900001 150 16 0
2.6689999 0.55400002 -0.82200003 150 16 0
2.6659999 0.55900002 -0.82800001 150 16 0
2.6619999 0.56400001 -0.833 150 16 0
2.6589999 0.56999999 -0.83899999 150 16 0
2.654 0.57499999 -0.84399998 150 16 0
2.645 0.579 -0.84799999 150 16 0
2.6440001 0.58499998 -0.85399997 150 16 0
2.6370001 0.58899999 -0.85900003 150 16 0
2.6289999 0.59399998 -0.86299998 150 16 0
2.6229999 0.59799999 -0.86699998 150 16 0
2.6199999 0.60399997 -0.87300003 150 16 0
2.6159999 0.60900003 -0.87800002 150 16 0
2.612 0.61400002 -0.88300002 150 16 0
2.6070001 0.61900002 -0.88700002 150 16 0
2.602 0.62400001 -0.89200002 150 16 0
2.5969999 0.62900001 -0.89700001 150 16 0
2.592 0.634 -0.90100002 150 16 0
2.595 0.64099997 -0.90899998 61 16 0
2.595 0.64700001 -0.91500002 14 16 0
2.585 0.65100002 -0.91799998 2 16 0
2.6619999 0.67699999 -0.95099998 0 17 0
2.661 0.68300003 -0.95700002 0 16 0
2.642 0.685 -0.95700002 0 16 0
2.6500001 0.69300002 -0.96600002 0 16 0
2.615 0.69099998 -0.95899999 0 18 0
2.632 0.70200002 -0.972 0 16 0
2.6370001 0.70899999 -0.97899997 0 16 0
2.598 0.70499998 -0.97100002 0 18 0
2.5999999 0.71200001 -0.97799999 0 16 0
2.5999999 0.71899998 -0.98400003 0 16 0
2.6129999 0.72899997 -0.99400002 0 16 0
2.598 0.73100001 -0.995 0 16 0
2.5910001 0.736 -0.99800003 0 16 0
2.5940001 0.74299997 -1.005 0 16 0
2.526 0.73000002 -0.98400003 1 17 0
2.5209999 0.73500001 -0.98699999 12 16 0
2.513 0.73900002 -0.99000001 35 16 0
2.5039999 0.74299997 -0.99199998 150 16 0
2.4949999 0.74599999 -0.99299997 150 16 0
2.49 0.75099999 -0.99699998 150 16 0
2.4860001 0.75599998 -1 150 16 0
2.483 0.76200002 -1.0039999 150 16 0
2.4779999 0.76700002 -1.008 150 16 0
2.4760001 0.77200001 -1.012 150 16 0
2.471 0.77700001 -1.015 150 16 0
2.4679999 0.78299999 -1.0190001 150 16 0
2.464 0.78799999 -1.022 150 16 0
2.4619999 0.79299998 -1.026 150 16 0
2.4519999 0.79699999 -1.027 150 16 0
2.45 0.80199999 -1.031 150 16 0
2.447 0.80800003 -1.034 150 16 0
2.4430001 0.81199998 -1.0369999 150 16 0
2.4400001 0.81800002 -1.041 150 16 0
2.4349999 0.82300001 -1.043 150 16 0
2.431 0.82800001 -1.046 150 16 0
2.428 0.833 -1.049 150 16 0
2.424 0.838 -1.052 150 16 0
2.421 0.84299999 -1.0549999 150 16 0
2.414 0.847 -1.056 150 16 0
2.4100001 0.852 -1.059 150 16 0
2.408 0.85699999 -1.062 150 16 0
2.404 0.86199999 -1.0650001 150 16 0
2.402 0.86799997 -1.068 150 16 0
2.3959999 0.87199998 -1.069 150 16 0
2.3929999 0.87699997 -1.072 150 16 0
2.392 0.88300002 -1.075 150 16 0
2.3889999 0.88800001 -1.077 150 16 0
2.385 0.89200002 -1.079 150 16 0
2.3840001 0.898 -1.0829999 150 16 0
2.372 0.89999998 -1.081 150 16 0
2.3699999 0.90499997 -1.0829999 150 16 0
2.368 0.91100001 -1.086 150 16 0
2.3670001 0.91600001 -1.089 150 16 0
2.3610001 0.92000002 -1.089 150 16 0
2.358 0.92500001 -1.091 150 16 0
2.352 0.92900002 -1.092 150 16 0
2.3510001 0.93400002 -1.094 150 16 0
2.3469999 0.93800002 -1.095 150 16 0
2.348 0.94499999 -1.099 150 16 0
2.3599999 0.95499998 -1.107 151 19 0
2.362 0.96200001 -1.1109999 151 16 0
2.348 0.963 -1.107 151 16 0
2.3369999 0.96399999 -1.104 150 16 0
2.325 0.96399999 -1.101 150 16 0
2.322 0.96899998 -1.103 150 16 0
2.3199999 0.97399998 -1.104 150 16 0
2.3169999 0.97799999 -1.105 150 16 0
2.3150001 0.98299998 -1.1059999 150 16 0
2.312 0.98699999 -1.107 150 16 0
2.313 0.99299997 -1.11 150 16 0
2.3080001 0.99599999 -1.109 150 16 0
2.3039999 1 -1.109 150 16 0
2.3010001 1.0039999 -1.11 150 16 0
2.3010001 1.01 -1.1109999 150 16 0
2.2969999 1.013 -1.1109999 150 16 0
2.3 1.02 -1.114 150 16 0
2.296 1.023 -1.114 150 16 0
2.29 1.026 -1.112 150 16 0
2.2920001 1.0319999 -1.114 150 16 0
2.286 1.035 -1.113 150 16 0
2.2869999 1.04 -1.114 150 16 0
2.286 1.044 -1.115 150 16 0
2.2780001 1.046 -1.112 150 16 0
2.28 1.051 -1.114 150 16 0
2.2780001 1.0549999 -1.114 150 16 0
2.2739999 1.058 -1.113 150 16 0
2.2720001 1.062 -1.112 150 16 0
2.273 1.067 -1.113 150 16 0
2.2679999 1.069 -1.1109999 150 16 0
2.2639999 1.072 -1.11 150 16 0
2.2690001 1.079 -1.112 150 16 0
2.2609999 1.08 -1.109 150 16 0
2.26 1.0829999 -1.108 150 16 0
2.2609999 1.0880001 -1.108 150 16 0
2.257 1.09 -1.1059999 150 16 0
2.256 1.094 -1.1059999 150 16 0
2.2550001 1.097 -1.105 150 16 0
2.2539999 1.101 -1.104 150 16 0
2.2520001 1.104 -1.103 151 16 0
2.253 1.108 -1.102 150 16 0
2.25 1.1109999 -1.1 150 16 0
2.2490001 1.114 -1.099 150 16 0
2.2509999 1.118 -1.099 151 16 0
2.2479999 1.12 -1.097 150 16 0
2.2479999 1.124 -1.096 151 16 0
2.2479999 1.127 -1.095 151 16 0
2.244 1.1289999 -1.092 150 16 0
2.2449999 1.132 -1.09 151 16 0
2.247 1.136 -1.09 151 16 0
2.244 1.137 -1.087 151 16 0
2.2449999 1.141 -1.086 151 16 0
2.243 1.143 -1.084 151 16 0
2.2449999 1.147 -1.0829999 151 16 0
2.244 1.149 -1.081 151 16 0
2.244 1.151 -1.079 151 16 0
2.244 1.154 -1.077 151 16 0
2.2420001 1.155 -1.074 151 16 0
2.243 1.158 -1.072 151 16 0
2.2420001 1.16 -1.069 151 16 0
2.244 1.163 -1.068 151 16 0
2.2420001 1.164 -1.064 151 16 0
2.2409999 1.166 -1.061 151 16 0
2.2420001 1.168 -1.059 151 16 0
2.2420001 1.17 -1.057 151 16 0
2.244 1.173 -1.0549999 151 16 0
2.2449999 1.174 -1.052 151 16 0
2.243 1.175 -1.049 151 16 0
2.247 1.178 -1.048 151 16 0
2.244 1.178 -1.043 151 16 0
2.2449999 1.1799999 -1.04 151 16 0
2.2460001 1.181 -1.0369999 151 16 0
2.2460001 1.183 -1.034 151 16 0
2.2490001 1.1849999 -1.0319999 151 16 0
2.2490001 1.186 -1.029 151 16 0
2.2509999 1.188 -1.026 151 16 0
2.2509999 1.188 -1.023 151 16 0
2.25 1.188 -1.0190001 151 16 0
2.253 1.1900001 -1.016 151 16 0
2.2520001 1.1900001 -1.012 151 16 0
2.2539999 1.191 -1.0089999 151 16 0
2.2550001 1.192 -1.005 151 16 0
2.2579999 1.193 -1.002 151 16 0
2.2590001 1.194 -0.99900001 151 16 0
2.26 1.194 -0.995 151 16 0
2.26 1.194 -0.991 151 16 0
2.2609999 1.194 -0.98699999 151 16 0
2.2639999 1.196 -0.98400003 151 16 0
2.266 1.196 -0.98100001 151 16 0
2.267 1.196 -0.977 151 16 0
2.267 1.1950001 -0.97299999 151 16 0
2.2720001 1.197 -0.97000003 151 16 0
2.2720001 1.196 -0.96499997 151 16 0
2.276 1.197 -0.96200001 151 16 0
2.2739999 1.1950001 -0.95700002 151 16 0
2.277 1.1950001 -0.954 151 16 0
2.279 1.1950001 -0.94999999 151 16 0
2.283 1.196 -0.94599998 151 16 0
2.283 1.194 -0.94099998 151 16 0
2.2839999 1.193 -0.93699998 151 16 0
2.2869999 1.193 -0.93300003 151 16 0
2.2869999 1.191 -0.92799997 150 16 0
2.2950001 1.194 -0.926 150 16 0
2.2969999 1.193 -0.92199999 151 16 0
2.2980001 1.191 -0.917 151 16 0
2.299 1.1900001 -0.91299999 151 16 0
2.3099999 1.193 -0.912 150 16 0
2.3150001 1.193 -0.90799999 26 16 0
2.3180001 1.193 -0.90399998 5 16 0
2.3310001 1.197 -0.90399998 3 16 0
2.336 1.197 -0.89999998 3 16 0
2.336 1.194 -0.89499998 3 16 0
2.3410001 1.194 -0.89099997 3 16 0
2.3380001 1.189 -0.88499999 4 16 0
2.3369999 1.186 -0.87900001 4 16 0
2.346 1.188 -0.87599999 3 16 0
2.346 1.1849999 -0.87099999 3 16 0
2.358 1.188 -0.87 3 16 0
2.3599999 1.1849999 -0.86500001 2 16 0
2.3570001 1.1799999 -0.85799998 2 16 0
2.365 1.181 -0.85500002 1 16 0
2.368 1.179 -0.85100001 1 16 0
2.368 1.175 -0.84500003 1 16 0
2.3670001 1.1720001 -0.83899999 1 16 0
2.375 1.1720001 -0.83600003 3 16 0
2.369 1.165 -0.82800001 9 16 0
2.3629999 1.158 -0.81999999 51 16 0
2.3659999 1.156 -0.815 150 16 0
2.3710001 1.154 -0.81099999 150 16 0
2.3729999 1.151 -0.80599999 150 16 0
2.3740001 1.148 -0.801 150 16 0
2.3770001 1.145 -0.796 150 16 0
2.3800001 1.142 -0.79100001 150 16 0
2.3829999 1.1390001 -0.78600001 150 16 0
2.3859999 1.136 -0.78200001 150 16 0
2.391 1.1339999 -0.77700001 150 16 0
2.3970001 1.132 -0.773 150 16 0
2.3989999 1.1289999 -0.76800001 150 16 0
2.4030001 1.126 -0.76300001 150 16 0
2.4059999 1.123 -0.75800002 150 16 0
2.408 1.119 -0.75300002 150 16 0
2.4130001 1.117 -0.74900001 150 16 0
2.4159999 1.113 -0.74400002 150 16 0
2.418 1.109 -0.73900002 150 16 0
2.4289999 1.109 -0.736 150 16 0
2.4330001 1.1059999 -0.73100001 150 16 0
2.434 1.101 -0.72600001 150 16 0
2.4389999 1.098 -0.72100002 150 16 0
2.4430001 1.095 -0.71600002 150 16 0
2.4460001 1.091 -0.71100003 150 16 0
2.4519999 1.0880001 -0.70700002 150 16 0
2.4549999 1.084 -0.70200002 150 16 0
2.4579999 1.08 -0.69700003 150 16 0
2.4619999 1.077 -0.69199997 150 16 0
2.4649999 1.072 -0.68699998 150 16 0
2.4690001 1.068 -0.68199998 150 16 0
2.474 1.0650001 -0.67799997 150 16 0
2.477 1.0599999 -0.67299998 150 16 0
2.4809999 1.056 -0.66799998 150 16 0
2.4879999 1.053 -0.66399997 150 16 0
2.4949999 1.051 -0.66000003 150 16 0
2.497 1.046 -0.65499997 150 16 0
2.5 1.041 -0.64999998 150 16 0
2.5039999 1.0369999 -0.64499998 150 16 0
2.5079999 1.0319999 -0.63999999 150 16 0
2.5109999 1.027 -0.63499999 150 16 0
2.516 1.023 -0.63 150 16 0
2.523 1.02 -0.62599999 150 16 0
2.5220001 1.013 -0.62 150 16 0
2.526 1.0089999 -0.61500001 150 16 0
2.5320001 1.005 -0.611 150 16 0
2.5369999 1.001 -0.60600001 150 16 0
2.5409999 0.99599999 -0.60100001 150 16 0
2.543 0.99000001 -0.59600002 150 16 0
2.549 0.986 -0.59200001 150 16 0
2.553 0.98100001 -0.58700001 150 16 0
2.556 0.97600001 -0.58200002 150 16 0
2.5669999 0.97299999 -0.579 150 16 0
2.5910001 0.97600001 -0.57800001 150 19 0
2.592 0.97000003 -0.57300001 150 16 0
2.585 0.95999998 -0.56599998 150 16 0
2.582 0.95200002 -0.55900002 150 16 0
2.5899999 0.949 -0.55500001 150 16 0
2.595 0.94400001 -0.551 150 16 0
2.6010001 0.93900001 -0.546 150 16 0
2.6010001 0.93199998 -0.54100001 150 16 0
2.605 0.92699999 -0.53600001 150 16 0
2.6129999 0.92199999 -0.53200001 150 16 0
2.6159999 0.917 -0.52700001 150 16 0
2.622 0.912 -0.52200001 150 16 0
2.625 0.90600002 -0.51700002 150 16 0
2.6300001 0.89999998 -0.51300001 150 16 0
2.6340001 0.89499998 -0.50800002 150 16 0
2.6370001 0.889 -0.50300002 150 16 0
2.6489999 0.88599998 -0.5 150 16 0
2.654 0.88 -0.495 150 16 0
2.658 0.87400001 -0.491 150 16 0
2.6600001 0.86799997 -0.486 150 16 0
2.6659999 0.86199999 -0.48100001 150 16 0
2.6730001 0.85699999 -0.477 150 16 0
2.675 0.85100001 -0.472 150 16 0
2.6819999 0.84500003 -0.46799999 150 16 0
2.684 0.83899999 -0.463 150 16 0
2.6900001 0.833 -0.458 150 16 0
2.694 0.82700002 -0.454 150 16 0
2.701 0.82200003 -0.449 150 16 0
2.7049999 0.81599998 -0.44499999 150 16 0
2.7119999 0.81 -0.44100001 150 16 0
2.717 0.80400002 -0.43599999 150 16 0
2.724 0.79900002 -0.43200001 150 16 0
2.7249999 0.79100001 -0.42699999 150 16 0
2.7260001 0.78399998 -0.42199999 150 16 0
2.7320001 0.778 -0.417 150 16 0
2.744 0.77399999 -0.414 150 16 0
2.7539999 0.76899999 -0.41 150 16 0
2.7520001 0.76099998 -0.405 150 16 0
2.757 0.75400001 -0.40000001 150 16 0
2.7679999 0.75 -0.39700001 150 16 0
2.7709999 0.74199998 -0.39199999 150 16 0
2.7750001 0.736 -0.38699999 150 16 0
2.7780001 0.72899997 -0.382 150 16 0
2.7809999 0.722 -0.37799999 150 16 0
2.789 0.71600002 -0.37400001 150 16 0
2.799 0.70999998 -0.37 150 16 0
2.802 0.70300001 -0.36500001 150 16 0
2.8069999 0.69700003 -0.361 150 16 0
2.8139999 0.69 -0.35600001 150 16 0
2.8210001 0.68400002 -0.352 150 16 0
2.825 0.67699999 -0.34799999 150 16 0
2.8269999 0.66900003 -0.34299999 150 16 0
2.835 0.66299999 -0.33899999 150 16 0
2.842 0.65700001 -0.33500001 150 16 0
2.8469999 0.64999998 -0.33000001 150 16 0
2.8510001 0.64200002 -0.32600001 150 16 0
2.858 0.63599998 -0.322 150 16 0
2.8610001 0.62900001 -0.317 150 16 0
2.865 0.62099999 -0.31200001 150 16 0
2.8740001 0.61500001 -0.308 150 16 0
2.8759999 0.60699999 -0.30399999 150 16 0
2.882 0.60000002 -0.30000001 150 16 0
2.888 0.59299999 -0.29499999 150 16 0
2.902 0.588 -0.292 150 16 0
2.902 0.579 -0.287 150 16 0
2.9089999 0.57200003 -0.28299999 150 16 0
2.914 0.565 -0.278 150 16 0
2.9159999 0.55699998 -0.27399999 150 16 0
2.921 0.54900002 -0.26899999 150 16 0
2.9360001 0.54400003 -0.266 150 16 0
2.9360001 0.53500003 -0.26100001 150 16 0
2.941 0.528 -0.257 150 16 0
2.9489999 0.52100003 -0.25299999 150 16 0
2.9530001 0.51300001 -0.248 150 16 0
2.9630001 0.50599998 -0.244 150 16 0
2.9660001 0.498 -0.23999999 150 16 0
2.973 0.491 -0.236 150 16 0
2.9779999 0.48300001 -0.23100001 150 16 0
2.9860001 0.47499999 -0.227 150 16 0
2.987 0.46700001 -0.223 150 16 0
2.9949999 0.46000001 -0.219 150 16 0
3.0009999 0.45199999 -0.214 150 16 0
3.0039999 0.44299999 -0.20999999 150 16 0
3.0150001 0.43599999 -0.206 150 16 0
3.0190001 0.428 -0.20200001 150 16 0
3.0250001 0.41999999 -0.198 150 16 0
3.029 0.412 -0.193 150 16 0
3.0380001 0.40400001 -0.189 150 16 0
3.0420001 0.396 -0.185 146 16 0
3.0510001 0.38800001 -0.18099999 150 16 0
3.0539999 0.38 -0.176 150 16 0
3.0580001 0.37099999 -0.17200001 150 16 0
3.0680001 0.36399999 -0.168 150 16 0
3.072 0.35499999 -0.164 147 16 0
3.0780001 0.347 -0.16 111 16 0
3.092 0.33899999 -0.156 137 16 0
3.0940001 0.331 -0.15099999 143 16 0
3.0999999 0.322 -0.147 147 16 0
3.109 0.31400001 -0.14300001 125 16 0
3.1170001 0.30599999 -0.139 133 16 0
3.1210001 0.29699999 -0.13500001 111 16 0
3.1229999 0.28799999 -0.13 114 16 0
3.1300001 0.27900001 -0.126 120 16 0
3.138 0.271 -0.122 124 16 0
3.1489999 0.26300001 -0.118 126 16 0
3.155 0.25400001 -0.114 126 16 0
3.161 0.245 -0.109 126 16 0
3.165 0.236 -0.105 95 16 0
3.177 0.228 -0.101 125 16 0
3.1800001 0.219 -0.097000003 114 16 0
3.191 0.20999999 -0.093000002 106 16 0
3.2030001 0.20100001 -0.089000002 114 16 0
3.2 0.192 -0.083999999 114 16 0
3.2090001 0.183 -0.079999998 111 16 0
3.221 0.17399999 -0.075999998 110 16 0
3.2260001 0.16500001 -0.071999997 105 16 0
3.2360001 0.155 -0.068000004 116 16 0
3.2460001 0.146 -0.064000003 102 16 0
3.247 0.13699999 -0.059 103 16 0
3.253 0.12800001 -0.055 98 16 0
3.2550001 0.118 -0.050999999 91 16 0
3.2620001 0.109 -0.046999998 86 16 0
3.273 0.098999999 -0.043000001 83 16 0
3.2780001 0.090000004 -0.037999999 91 16 0
3.283 0.079999998 -0.034000002 85 16 0
3.293 0.071000002 -0.029999999 92 16 0
3.3039999 0.061000001 -0.026000001 48 16 0
3.302 0.050999999 -0.022 51 16 0
3.312 0.041000001 -0.017000001 73 16 0
3.3239999 0.032000002 -0.013 52 16 0
3.3199999 0.022 -0.0089999996 25 16 0
3.299 0.012 -0.0049999999 19 16 0
3.2780001 0.0020000001 -0.001 19 16 0
3.2550001 -0.0070000002 0.003 20 16 0
3.2460001 -0.016000001 0.0070000002 46 16 0
3.2590001 -0.026000001 0.011 150 16 0
3.263 -0.035999998 0.015 148 16 0
3.266 -0.046 0.018999999 148 16 0
3.2750001 -0.056000002 0.023 150 16 0
3.28 -0.066 0.027000001 150 16 0
3.2650001 -0.075000003 0.030999999 33 16 0
3.247 -0.085000001 0.035 33 16 0
3.227 -0.093999997 0.037999999 33 16 0
3.2090001 -0.103 0.041999999 30 16 0
3.194 -0.112 0.046 32 16 0
3.1700001 -0.121 0.048999999 32 16 0
3.155 -0.13 0.052000001 32 16 0
3.1359999 -0.138 0.056000002 32 16 0
3.1140001 -0.147 0.059 31 16 0
3.095 -0.155 0.061999999 29 16 0
3.0799999 -0.164 0.066 30 16 0
3.062 -0.17200001 0.068999998 30 16 0
3.0439999 -0.18000001 0.071999997 31 16 0
3.0309999 -0.189 0.075000003 32 16 0
3.003 -0.19599999 0.078000002 31 16 0
2.994 -0.205 0.081 31 16 0
2.9760001 -0.212 0.083999999 31 16 0
2.9579999 -0.22 0.086999997 31 16 0
2.9430001 -0.228 0.090000004 31 16 0
2.9230001 -0.235 0.092 33 16 0
2.9030001 -0.243 0.094999999 31 16 0
2.8929999 -0.25099999 0.097999997 32 16 0
2.8789999 -0.25799999 0.101 32 16 0
2.865 -0.266 0.103 33 16 0
2.845 -0.273 0.106 35 16 0
2.8329999 -0.28 0.108 33 16 0
2.816 -0.287 0.111 35 16 0
2.802 -0.29499999 0.113 35 16 0
2.7880001 -0.30199999 0.116 36 16 0
2.7690001 -0.308 0.118 33 16 0
2.7639999 -0.31600001 0.121 38 16 0
2.744 -0.322 0.123 36 16 0
2.733 -0.329 0.125 37 16 0
2.72 -0.336 0.127 36 16 0
2.7119999 -0.34400001 0.13 38 16 0
2.694 -0.34999999 0.132 40 16 0
2.6789999 -0.35600001 0.134 37 16 0
2.6700001 -0.36300001 0.13600001 40 16 0
2.6440001 -0.368 0.13699999 36 19 0
2.635 -0.375 0.14 41 16 0
2.6210001 -0.38100001 0.142 49 16 0
2.6099999 -0.38800001 0.14399999 45 16 0
2.5969999 -0.39399999 0.145 53 16 0
2.5810001 -0.39899999 0.147 52 16 0
2.5710001 -0.40599999 0.149 50 16 0
2.5550001 -0.41100001 0.15099999 57 16 0
2.5409999 -0.417 0.152 57 16 0
2.5309999 -0.42300001 0.154 54 16 0
2.52 -0.43000001 0.156 62 16 0
2.506 -0.435 0.15700001 68 16 0
2.4960001 -0.44100001 0.15899999 69 16 0
2.4820001 -0.447 0.161 76 16 0
2.4649999 -0.45100001 0.162 69 16 0
2.46 -0.458 0.164 70 16 0
2.4519999 -0.465 0.16599999 84 16 0
2.438 -0.47 0.167 87 16 0
2.4260001 -0.47499999 0.168 79 16 0
2.4130001 -0.47999999 0.17 83 16 0
2.4030001 -0.486 0.171 82 16 0
2.388 -0.491 0.17200001 80 16 0
2.3759999 -0.49599999 0.17299999 81 16 0
2.3670001 -0.50099999 0.175 85 16 0
2.3540001 -0.50599998 0.176 88 16 0
2.3440001 -0.51200002 0.177 77 16 0
2.3299999 -0.51599997 0.178 75 16 0
2.3180001 -0.52100003 0.17900001 89 16 0
2.312 -0.52700001 0.18099999 83 16 0
2.303 -0.53200001 0.182 89 16 0
2.29 -0.537 0.183 92 16 0
2.273 -0.54000002 0.183 96 16 0
2.2639999 -0.54500002 0.185 88 16 0
2.256 -0.551 0.186 94 16 0
2.2460001 -0.55599999 0.18700001 92 16 0
2.2349999 -0.56 0.18799999 97 16 0
2.223 -0.56400001 0.18799999 96 16 0
2.2179999 -0.57099998 0.19 111 16 0
2.204 -0.574 0.19 105 16 0
2.194 -0.579 0.191 100 16 0
2.184 -0.583 0.192 87 16 0
2.178 -0.58899999 0.193 109 16 0
2.1670001 -0.59299999 0.19400001 105 16 0
2.158 -0.597 0.19400001 103 16 0
2.1459999 -0.60100001 0.19499999 112 16 0
2.138 -0.60600001 0.19599999 115 16 0
2.122 -0.60900003 0.19599999 115 16 0
2.115 -0.61400002 0.197 118 16 0
2.1059999 -0.61799997 0.197 129 16 0
2.099 -0.62300003 0.198 121 16 0
2.086 -0.62599999 0.198 136 16 0
2.0810001 -0.63099998 0.199 131 16 0
2.0669999 -0.634 0.199 121 16 0
2.059 -0.63800001 0.2 145 16 0
2.0510001 -0.64200002 0.2 149 16 0
2.0439999 -0.64700001 0.20100001 150 16 0
2.033 -0.64999998 0.20100001 150 16 0
2.0190001 -0.653 0.20100001 150 16 0
2.0150001 -0.65799999 0.20200001 150 16 0
2 -0.66000003 0.20100001 150 16 0
1.994 -0.66399997 0.20200001 150 16 0
1.988 -0.66900003 0.20299999 150 16 0
1.984 -0.67400002 0.20299999 150 16 0
1.973 -0.67799997 0.20299999 150 16 0
1.969 -0.68300003 0.204 150 16 0
1.9529999 -0.68400002 0.20299999 150 16 0
1.946 -0.68800002 0.204 150 16 0
1.938 -0.69099998 0.204 150 16 0
1.9349999 -0.69700003 0.204 150 16 0
1.916 -0.69700003 0.20299999 150 16 0
1.9119999 -0.70099998 0.204 150 16 0
1.906 -0.70599997 0.204 150 16 0
1.899 -0.70999998 0.204 150 16 0
1.8890001 -0.71200001 0.204 150 16 0
1.8839999 -0.71700001 0.204 150 16 0
1.877 -0.72000003 0.205 2 0 0
1.869 -0.72299999 0.204 3 0 0
1.8609999 -0.727 0.204 2 0 0
1.853 -0.73000002 0.204 3 0 0
1.846 -0.73299998 0.204 2 0 0
1.839 -0.73699999 0.204 150 16 0
1.8329999 -0.741 0.204 3 0 0
1.8200001 -0.74199998 0.20299999 2 0 0
1.814 -0.745 0.20299999 2 0 0
1.808 -0.74900001 0.20299999 4 0 0
1.8049999 -0.75400001 0.20299999 3 0 0
1.7920001 -0.755 0.20200001 3 0 0
1.784 -0.75700003 0.20200001 2 0 0
1.779 -0.76099998 0.20200001 2 0 0
1.771 -0.764 0.20100001 73 0 0
1.766 -0.76800001 0.20100001 2 0 0
1.763 -0.77200001 0.20100001 2 0 0
1.752 -0.773 0.2 3 0 0
1.75 -0.778 0.20100001 2 0 0
1.74 -0.77999997 0.2 106 0 0
1.734 -0.78299999 0.199 5 0 0
1.726 -0.78500003 0.199 1 0 0
1.721 -0.78899997 0.198 94 0 0
1.7130001 -0.79100001 0.198 135 0 0
1.709 -0.79500002 0.198 2 0 0
1.7029999 -0.79799998 0.197 102 0 0
1.7 -0.80199999 0.197 2 0 0
1.682 -0.79900002 0.19499999 120 3 0
1.677 -0.80199999 0.19400001 148 0 0
1.671 -0.80500001 0.19400001 150 0 0
1.6670001 -0.80800003 0.193 150 0 0
1.663 -0.81199998 0.193 130 0 0
1.654 -0.81300002 0.192 147 0 0
1.646 -0.815 0.191 139 0 0
1.6440001 -0.81900001 0.191 146 0 0
1.636 -0.82099998 0.19 132 0 0
1.6339999 -0.82499999 0.189 132 0 0
1.6289999 -0.82800001 0.189 98 0 0
1.619 -0.82800001 0.18700001 117 0 0
1.617 -0.83200002 0.18700001 135 0 0
1.607 -0.83200002 0.186 150 0 0
1.604 -0.83600003 0.185 141 0 0
1.591 -0.83499998 0.183 145 0 0
1.591 -0.83899999 0.183 130 0 0
1.577 -0.83700001 0.18099999 133 3 0
1.574 -0.84100002 0.18000001 149 0 0
1.5700001 -0.84399998 0.18000001 126 0 0
1.568 -0.847 0.17900001 137 0 0
1.563 -0.85000002 0.178 146 0 0
1.558 -0.852 0.177 136 0 0
1.5549999 -0.85500002 0.176 150 0 0
1.55 -0.85699999 0.175 128 0 0
1.546 -0.86000001 0.17399999 150 0 0
1.5420001 -0.86199999 0.17299999 150 0 0
1.539 -0.866 0.17200001 115 0 0
1.529 -0.86500001 0.171 150 16 0
1.528 -0.86799997 0.17 150 0 0
1.522 -0.87 0.169 144 0 0
1.518 -0.87199998 0.168 133 0 0
1.513 -0.87400001 0.16599999 145 0 0
1.51 -0.87599999 0.16500001 150 0 0
1.503 -0.87699997 0.164 150 0 0
1.495 -0.87599999 0.162 149 0 0
1.493 -0.88 0.161 150 0 0
1.4910001 -0.88300002 0.16 128 0 0
1.4859999 -0.884 0.15899999 133 0 0
1.482 -0.88599998 0.15800001 118 0 0
1.475 -0.88599998 0.156 113 0 0
1.473 -0.889 0.155 136 0 0
1.466 -0.889 0.153 150 0 0
1.464 -0.89200002 0.152 150 0 0
1.46 -0.89300001 0.15099999 124 0 0
1.455 -0.89399999 0.149 150 0 0
1.452 -0.89600003 0.148 150 0 0
1.448 -0.89700001 0.146 150 0 0
1.4450001 -0.89899999 0.145 120 0 0
1.441 -0.89999998 0.14300001 150 0 0
1.434 -0.89899999 0.142 116 0 0
1.4299999 -0.90100002 0.14 150 0 0
1.426 -0.90100002 0.139 150 0 0
1.4299999 -0.90799999 0.138 150 0 0
1.423 -0.90600002 0.13600001 150 0 0
1.421 -0.90899998 0.13500001 150 0 0
1.4170001 -0.91000003 0.133 150 0 0
1.415 -0.912 0.131 150 0 0
1.414 -0.91399997 0.13 137 0 0
1.406 -0.912 0.12800001 144 0 0
1.403 -0.91299999 0.127 150 0 0
1.402 -0.91600001 0.125 150 0 0
1.401 -0.91799998 0.124 150 0 0
1.395 -0.917 0.122 150 0 0
1.392 -0.91799998 0.12 142 0 0
1.388 -0.91799998 0.118 135 0 0
1.385 -0.91900003 0.117 148 0 0
1.382 -0.92000002 0.115 150 0 0
1.38 -0.921 0.113 134 0 0
1.378 -0.92199999 0.112 150 0 0
1.374 -0.92199999 0.11 150 0 0
1.3710001 -0.92199999 0.108 147 0 0
1.372 -0.92500001 0.107 150 0 0
1.3660001 -0.92299998 0.105 123 0 0
1.367 -0.926 0.103 150 0 0
1.362 -0.92500001 0.101 150 0 0
1.3609999 -0.926 0.098999999 125 0 0
1.358 -0.92699999 0.097999997 148 0 0
1.358 -0.92799997 0.096000001 140 0 0
1.357 -0.92900002 0.093999997 150 0 0
1.3559999 -0.93099999 0.092 148 0 0
1.353 -0.93000001 0.090999998 104 0 0
1.353 -0.93199998 0.089000002 127 0 0
1.35 -0.93099999 0.086999997 150 0 0
1.348 -0.93199998 0.085000001 150 0 0
1.348 -0.93300003 0.082999997 119 0 0
1.348 -0.935 0.082000002 123 0 0
1.347 -0.935 0.079999998 144 0 0
1.346 -0.93599999 0.078000002 150 0 0
1.346 -0.93699998 0.075999998 144 0 0
1.344 -0.93599999 0.074000001 100 0 0
1.341 -0.935 0.071999997 81 0 0
1.344 -0.93900001 0.071000002 132 0 0
1.337 -0.935 0.068000004 131 0 0
1.336 -0.935 0.066 134 0 0
1.336 -0.935 0.064999998 107 0 0
1.336 -0.93599999 0.063000001 124 0 0
1.332 -0.93400002 0.061000001 104 0 0
1.335 -0.93699998 0.059 124 0 0
1.335 -0.93699998 0.057 135 0 0
1.332 -0.935 0.055 110 0 0
1.33 -0.93400002 0.052999999 112 0 0
1.332 -0.93599999 0.050999999 97 0 0
1.33 -0.935 0.048999999 106 0 0
1.33 -0.935 0.048 117 0 0
1.33 -0.935 0.046 126 0 0
1.335 -0.93800002 0.044 150 3 0
1.329 -0.93400002 0.041999999 127 0 0
1.33 -0.93400002 0.039999999 127 0 0
1.331 -0.93400002 0.037999999 138 0 0
1.331 -0.93400002 0.035999998 102 0 0
1.331 -0.93400002 0.034000002 144 0 0
1.3329999 -0.935 0.033 136 0 0
1.332 -0.93300003 0.030999999 114 0 0
1.331 -0.93199998 0.028999999 150 0 0
1.332 -0.93199998 0.027000001 128 0 0
1.33 -0.93000001 0.025 140 0 0
1.331 -0.92900002 0.023 150 0 0
1.334 -0.93000001 0.021 140 0 0
1.3329999 -0.92900002 0.018999999 104 0 0
1.332 -0.92699999 0.017000001 126 0 0
1.337 -0.92900002 0.016000001 129 0 0
1.336 -0.92799997 0.014 138 0 0
1.336 -0.926 0.012 124 0 0
1.335 -0.92400002 0.0099999998 111 0 0
1.337 -0.92400002 0.0080000004 150 0 0
1.3380001 -0.92299998 0.0060000001 124 0 0
1.341 -0.92400002 0.0049999999 127 0 0
1.34 -0.92199999 0.003 130 0 0
1.342 -0.92199999 0.001 100 0 0
1.3430001 -0.92000002 0 118 0 0
1.342 -0.91799998 -0.0020000001 129 0 0
1.347 -0.91900003 -0.0040000002 150 0 0
1.352 -0.92000002 -0.0049999999 150 0 0
1.35 -0.917 -0.0070000002 150 0 0
1.352 -0.91600001 -0.0089999996 104 0 0
1.353 -0.91500002 -0.011 132 0 0
1.358 -0.91600001 -0.012 142 0 0
1.354 -0.91100001 -0.014 149 0 0
1.3559999 -0.91000003 -0.016000001 115 0 0
1.3609999 -0.91100001 -0.017999999 125 0 0
1.363 -0.90899998 -0.018999999 150 0 0
1.364 -0.90799999 -0.021 141 0 0
1.367 -0.90700001 -0.023 150 0 0
1.369 -0.90600002 -0.024 131 0 0
1.37 -0.90399998 -0.026000001 131 0 0
1.374 -0.903 -0.028000001 150 0 0
1.372 -0.89999998 -0.029999999 126 0 0
1.376 -0.89899999 -0.030999999 135 0 0
1.38 -0.89899999 -0.033 127 0 0
1.3789999 -0.89499998 -0.034000002 139 0 0
1.383 -0.89399999 -0.035999998 124 0 0
1.385 -0.89300001 -0.037999999 135 0 0
1.385 -0.889 -0.039000001 150 0 0
1.3890001 -0.889 -0.041000001 129 0 0
1.39 -0.88599998 -0.041999999 138 0 0
1.392 -0.884 -0.044 128 0 0
1.397 -0.884 -0.045000002 142 0 0
1.401 -0.88300002 -0.046999998 150 0 0
1.404 -0.88099998 -0.048999999 150 0 0
1.4 -0.87599999 -0.050000001 150 0 0
1.411 -0.87900001 -0.052000001 148 0 0
1.408 -0.87300003 -0.052999999 140 0 0
1.414 -0.87300003 -0.054000001 129 0 0
1.42 -0.87300003 -0.056000002 125 0 0
1.421 -0.87 -0.057 134 0 0
1.426 -0.86900002 -0.059 150 0 0
1.428 -0.866 -0.059999999 133 0 0
1.432 -0.86500001 -0.061999999 150 0 0
1.434 -0.86199999 -0.063000001 150 0 0
1.438 -0.861 -0.064000003 150 0 0
1.443 -0.85900003 -0.066 150 0 0
1.444 -0.85600001 -0.067000002 126 0 0
1.45 -0.85500002 -0.068000004 150 0 0
1.456 -0.85399997 -0.07 150 0 0
1.46 -0.85299999 -0.071000002 135 0 0
1.462 -0.84899998 -0.071999997 142 0 0
1.464 -0.84600002 -0.072999999 150 0 0
1.474 -0.84799999 -0.075000003 150 0 0
1.475 -0.84399998 -0.075999998 126 0 0
1.478 -0.84100002 -0.077 131 0 0
1.484 -0.83999997 -0.079000004 143 0 0
1.49 -0.83899999 -0.079999998 136 0 0
1.492 -0.83600003 -0.081 135 0 0
1.5 -0.83499998 -0.082000002 117 0 0
1.501 -0.83099997 -0.082999997 121 0 0
1.503 -0.82800001 -0.083999999 118 0 0
1.507 -0.82499999 -0.085000001 108 0 0
1.513 -0.82300001 -0.086999997 120 0 0
1.5190001 -0.82200003 -0.088 105 0 0
1.525 -0.82099998 -0.089000002 113 0 0
1.527 -0.81699997 -0.090000004 132 0 0
1.535 -0.81599998 -0.090999998 133 0 0
1.538 -0.81300002 -0.092 121 0 0
1.543 -0.81 -0.093000002 136 0 0
1.546 -0.80699998 -0.093999997 94 0 0
1.551 -0.80500001 -0.094999999 137 0 0
1.559 -0.80400002 -0.096000001 150 0 0
1.5650001 -0.80199999 -0.097000003 91 0 0
1.571 -0.79900002 -0.097999997 127 0 0
1.575 -0.796 -0.098999999 108 0 0
1.584 -0.796 -0.1 127 0 0
1.59 -0.79400003 -0.101 98 0 0
1.592 -0.78899997 -0.102 84 0 0
1.594 -0.78500003 -0.102 97 0 0
1.599 -0.78200001 -0.103 87 0 0
1.604 -0.77899998 -0.104 122 0 0
1.61 -0.77700001 -0.105 86 0 0
1.615 -0.77399999 -0.106 115 0 0
1.627 -0.77399999 -0.107 61 0 0
1.6339999 -0.77200001 -0.108 82 0 0
1.638 -0.76800001 -0.108 102 0 0
1.6440001 -0.76599997 -0.109 150 16 0
1.65 -0.76300001 -0.11 4 0 0
1.656 -0.75999999 -0.11 2 0 0
1.661 -0.75700003 -0.111 150 16 0
1.665 -0.75300002 -0.112 150 16 0
1.678 -0.75300002 -0.113 150 16 0
1.683 -0.75 -0.113 79 0 0
1.6900001 -0.74699998 -0.114 106 0 0
1.693 -0.74299997 -0.114 150 16 0
1.699 -0.73900002 -0.115 85 0 0
1.709 -0.73799998 -0.116 68 0 0
1.714 -0.73400003 -0.116 75 0 0
1.716 -0.72899997 -0.116 69 0 0
1.73 -0.72899997 -0.117 73 0 0
1.74 -0.727 -0.118 72 0 0
1.745 -0.72399998 -0.118 60 0 0
1.7539999 -0.72100002 -0.119 63 0 0
1.7589999 -0.71799999 -0.119 56 0 0
1.763 -0.713 -0.12 71 0 0
1.772 -0.71100003 -0.12 2 0 0
1.775 -0.70599997 -0.12 2 0 0
1.786 -0.704 -0.121 2 0 0
1.794 -0.70099998 -0.121 2 0 0
1.801 -0.69800001 -0.122 2 0 0
1.804 -0.69300002 -0.122 1 0 0
1.814 -0.69099998 -0.122 1 0 0
1.825 -0.68800002 -0.123 2 0 0
1.829 -0.68400002 -0.123 1 0 0
1.841 -0.68199998 -0.123 1 0 0
1.844 -0.67699999 -0.123 2 0 0
1.8559999 -0.67500001 -0.124 2 0 0
1.86 -0.67000002 -0.124 2 0 0
1.868 -0.667 -0.124 2 0 0
1.875 -0.66299999 -0.124 150 16 0
1.8839999 -0.66000003 -0.124 150 16 0
1.891 -0.65499997 -0.124 150 16 0
1.902 -0.653 -0.125 138 16 0
1.9119999 -0.64999998 -0.125 144 16 0
1.9170001 -0.64499998 -0.125 133 16 0
1.926 -0.64099997 -0.125 146 16 0
1.928 -0.63599998 -0.125 127 16 0
1.937 -0.63200003 -0.125 146 16 0
1.944 -0.62800002 -0.125 127 16 0
1.966 -0.62800002 -0.125 147 19 0
1.969 -0.62300003 -0.125 132 16 0
1.978 -0.61900002 -0.125 129 16 0
1.9859999 -0.61400002 -0.125 135 16 0
1.998 -0.611 -0.125 123 16 0
2.0079999 -0.60799998 -0.125 134 16 0
2.0120001 -0.602 -0.124 131 16 0
2.0220001 -0.59799999 -0.124 115 16 0
2.033 -0.59500003 -0.124 124 16 0
2.0450001 -0.59100002 -0.124 128 16 0
2.049 -0.58600003 -0.124 112 16 0
2.0599999 -0.58200002 -0.124 119 16 0
2.075 -0.579 -0.124 119 16 0
2.0840001 -0.57499999 -0.123 119 16 0
2.092 -0.56999999 -0.123 110 16 0
2.0999999 -0.565 -0.123 108 16 0
2.1070001 -0.56 -0.122 90 16 0
2.1199999 -0.55599999 -0.122 73 16 0
2.135 -0.55299997 -0.122 88 16 0
2.141 -0.54799998 -0.121 83 16 0
2.1489999 -0.54299998 -0.121 86 16 0
2.1600001 -0.53799999 -0.12 79 16 0
2.181 -0.53600001 -0.121 72 16 0
2.184 -0.52999997 -0.12 70 16 0
2.197 -0.52600002 -0.119 75 16 0
2.2079999 -0.52100003 -0.119 74 16 0
2.2190001 -0.51599997 -0.118 71 16 0
2.234 -0.51200002 -0.118 67 16 0
2.243 -0.50700003 -0.117 62 16 0
2.2539999 -0.50199997 -0.117 60 16 0
2.2679999 -0.498 -0.116 68 16 0
2.276 -0.49200001 -0.115 56 16 0
2.289 -0.48699999 -0.115 64 16 0
2.2980001 -0.48199999 -0.114 64 16 0
2.3139999 -0.477 -0.113 56 16 0
2.3280001 -0.47299999 -0.113 53 16 0
2.336 -0.46700001 -0.112 45 16 0
2.346 -0.461 -0.111 53 16 0
2.3610001 -0.456 -0.11 50 16 0
2.3759999 -0.45199999 -0.11 43 16 0
2.3870001 -0.44600001 -0.109 51 16 0
2.404 -0.44100001 -0.108 52 16 0
2.414 -0.435 -0.107 53 16 0
2.4260001 -0.43000001 -0.106 54 16 0
2.444 -0.42500001 -0.105 54 16 0
2.457 -0.419 -0.104 50 16 0
2.4619999 -0.412 -0.103 50 16 0
2.477 -0.40599999 -0.102 43 16 0
2.4920001 -0.40099999 -0.101 46 16 0
2.507 -0.39500001 -0.1 39 16 0
2.52 -0.389 -0.098999999 42 16 0
2.533 -0.38299999 -0.097999997 36 16 0
2.5469999 -0.377 -0.096000001 33 16 0
2.563 -0.37099999 -0.094999999 33 16 0
2.5769999 -0.36500001 -0.093999997 33 16 0
2.5899999 -0.35800001 -0.093000002 34 16 0
2.605 -0.352 -0.090999998 31 16 0
2.6170001 -0.345 -0.090000004 34 16 0
2.6340001 -0.33899999 -0.089000002 34 16 0
2.6459999 -0.33199999 -0.086999997 34 16 0
2.6689999 -0.32699999 -0.086000003 32 16 0
2.681 -0.31999999 -0.083999999 29 16 0
2.701 -0.31299999 -0.082999997 30 16 0
2.7160001 -0.30700001 -0.082000002 27 16 0
2.727 -0.29899999 -0.079999998 27 16 0
2.7390001 -0.292 -0.078000002 27 16 0
2.7539999 -0.28400001 -0.077 27 16 0
2.7709999 -0.278 -0.075000003 27 16 0
2.789 -0.271 -0.072999999 28 16 0
2.803 -0.26300001 -0.071000002 27 16 0
2.823 -0.25600001 -0.07 26 16 0
2.842 -0.249 -0.068000004 26 16 0
2.8559999 -0.241 -0.066 26 16 0
2.8770001 -0.234 -0.064000003 26 16 0
2.898 -0.226 -0.061999999 27 16 0
2.9100001 -0.21799999 -0.059999999 26 16 0
2.931 -0.20999999 -0.057999998 26 16 0
2.9519999 -0.20200001 -0.056000002 26 16 0
2.967 -0.19400001 -0.054000001 25 16 0
2.9849999 -0.186 -0.052000001 26 16 0
3.0050001 -0.178 -0.050000001 26 16 0
3.0190001 -0.169 -0.048 25 16 0
3.053 -0.161 -0.046 26 16 0
3.073 -0.153 -0.043000001 26 16 0
3.092 -0.14399999 -0.041000001 25 16 0
3.112 -0.13500001 -0.039000001 25 16 0
3.131 -0.126 -0.035999998 26 16 0
3.154 -0.118 -0.034000002 26 16 0
3.175 -0.108 -0.030999999 26 16 0
3.2 -0.098999999 -0.028999999 27 16 0
3.2190001 -0.090000004 -0.026000001 26 16 0
3.237 -0.079999998 -0.023 29 16 0
3.2639999 -0.071000002 -0.02 56 16 0
3.2650001 -0.061000001 -0.017999999 150 16 0
3.257 -0.050000001 -0.015 124 16 0
3.253 -0.039999999 -0.012 125 16 0
3.2490001 -0.029999999 -0.0089999996 123 16 0
3.2460001 -0.02 -0.0060000001 51 16 0
3.2509999 -0.0099999998 -0.003 20 16 0
3.2780001 0 0 17 16 0
3.302 0.0099999998 0.003 18 16 0
3.326 0.02 0.0060000001 23 16 0
3.336 0.029999999 0.0089999996 50 16 0
3.325 0.039999999 0.012 52 16 0
3.325 0.050999999 0.015 46 16 0
3.3169999 0.061000001 0.017999999 42 16 0
3.3150001 0.071000002 0.022 56 16 0
3.3139999 0.081 0.025 69 16 0
3.3099999 0.090999998 0.028000001 58 16 0
3.3080001 0.102 0.030999999 67 16 0
3.3039999 0.112 0.034000002 63 16 0
3.303 0.122 0.037999999 69 16 0
3.2550001 0.13 0.039999999 78 18 0
3.224 0.139 0.043000001 75 16 0
3.223 0.149 0.046999998 88 16 0
3.217 0.15800001 0.050000001 91 16 0
3.217 0.168 0.052999999 98 16 0
3.21 0.178 0.056000002 100 16 0
3.2049999 0.18700001 0.059999999 94 16 0
3.2049999 0.197 0.063000001 102 16 0
3.1960001 0.207 0.066 93 16 0
3.2 0.21600001 0.068999998 104 16 0
3.1930001 0.226 0.072999999 93 16 0
3.1889999 0.235 0.075999998 109 16 0
3.1800001 0.244 0.079000004 91 16 0
3.1819999 0.25400001 0.082999997 110 16 0
3.175 0.26300001 0.086000003 81 16 0
3.1760001 0.273 0.089000002 104 16 0
3.1700001 0.28299999 0.093000002 108 16 0
3.1670001 0.292 0.096000001 95 16 0
3.1619999 0.301 0.098999999 101 16 0
3.164 0.31099999 0.103 109 16 0
3.1559999 0.31999999 0.106 112 16 0
3.152 0.329 0.11 113 16 0
3.152 0.33899999 0.113 139 16 0
3.155 0.34900001 0.117 53 16 0
3.197 0.36300001 0.122 47 18 0
3.2119999 0.375 0.126 116 16 0
3.2060001 0.384 0.13 122 16 0
3.2049999 0.39399999 0.133 126 16 0
3.198 0.403 0.13699999 120 16 0
3.197 0.412 0.141 120 16 0
3.1949999 0.42199999 0.14399999 123 16 0
3.1930001 0.43099999 0.148 115 16 0
3.181 0.43900001 0.15099999 72 16 0
3.1789999 0.449 0.155 46 16 0
3.165 0.456 0.15800001 40 16 0
3.1570001 0.465 0.162 34 16 0
3.1500001 0.47299999 0.16500001 33 16 0
3.142 0.48199999 0.168 31 16 0
3.132 0.49000001 0.17200001 30 16 0
3.1229999 0.498 0.175 30 16 0
3.115 0.50599998 0.17900001 31 16 0
3.1059999 0.514 0.182 32 16 0
3.0969999 0.52200001 0.185 31 16 0
3.0899999 0.52999997 0.189 32 16 0
3.0810001 0.53799999 0.192 31 16 0
3.075 0.54699999 0.19599999 31 16 0
3.0610001 0.55299997 0.199 32 16 0
3.0550001 0.56199998 0.20200001 36 16 0
3.0469999 0.56900001 0.206 37 16 0
3.0409999 0.57700002 0.20900001 45 16 0
3.033 0.58499998 0.213 64 16 0
3.027 0.59299999 0.21699999 112 16 0
3.02 0.60100001 0.22 150 16 0
3.013 0.60900003 0.22400001 150 16 0
3.013 0.61799997 0.228 150 16 0
3.0109999 0.62699997 0.23199999 150 16 0
3.007 0.63499999 0.235 150 16 0
3.003 0.64300001 0.23899999 150 16 0
3.0039999 0.65200001 0.243 150 16 0
3.0009999 0.66100001 0.24699999 150 16 0
3 0.67000002 0.25099999 150 16 0
2.9979999 0.67799997 0.255 150 16 0
2.994 0.68599999 0.259 150 16 0
2.984 0.69300002 0.26300001 150 16 0
2.9860001 0.70300001 0.26699999 150 16 0
2.984 0.71100003 0.271 150 16 0
2.9809999 0.72000003 0.27500001 150 16 0
2.9790001 0.72799999 0.27900001 150 16 0
2.974 0.736 0.28299999 150 16 0
2.971 0.74400002 0.287 150 16 0
2.9719999 0.75300002 0.292 150 16 0
2.967 0.76099998 0.296 150 16 0
2.967 0.76999998 0.30000001 150 16 0
2.9649999 0.778 0.30399999 150 16 0
2.9630001 0.787 0.30899999 150 16 0
2.96 0.79500002 0.31299999 150 16 0
2.957 0.80299997 0.317 150 16 0
2.9530001 0.81099999 0.32100001 150 16 0
2.9530001 0.81999999 0.32600001 150 16 0
2.951 0.82800001 0.33000001 150 16 0
2.9449999 0.83499998 0.33399999 150 16 0
2.947 0.84399998 0.33899999 150 16 0
2.9430001 0.852 0.34299999 150 16 0
2.938 0.85900003 0.347 150 16 0
2.934 0.86699998 0.35100001 150 16 0
2.9360001 0.87599999 0.35600001 150 16 0
2.931 0.884 0.361 150 16 0
2.9319999 0.89300001 0.36500001 150 16 0
2.927 0.89999998 0.37 150 16 0
2.928 0.90899998 0.37400001 150 16 0
2.925 0.917 0.37900001 150 16 0
2.918 0.92299998 0.38299999 150 16 0
2.9189999 0.93199998 0.38800001 150 16 0
2.9189999 0.94099998 0.39300001 150 16 0
2.914 0.94800001 0.39700001 150 16 0
2.911 0.95499998 0.40200001 150 16 0
2.9089999 0.963 0.40599999 150 16 0
2.908 0.97100002 0.41100001 150 16 0
2.904 0.97799999 0.41600001 150 16 0
2.904 0.98699999 0.421 150 16 0
2.9070001 0.99599999 0.426 150 16 0
2.898 1.002 0.43000001 150 16 0
2.9000001 1.011 0.435 150 16 0
2.8940001 1.017 0.44 150 16 0
2.8940001 1.026 0.44499999 150 16 0
2.891 1.033 0.449 150 16 0
2.8970001 1.043 0.456 150 16 0
2.8889999 1.049 0.46000001 150 16 0
2.892 1.058 0.465 150 16 0
2.888 1.0650001 0.47 150 16 0
2.885 1.072 0.47499999 150 16 0
2.885 1.081 0.47999999 150 16 0
2.882 1.0880001 0.48500001 150 16 0
2.8800001 1.095 0.49000001 150 16 0
2.878 1.103 0.495 150 16 0
2.875 1.11 0.5 150 16 0
2.8740001 1.118 0.50599998 150 16 0
2.869 1.124 0.50999999 150 16 0
2.875 1.1339999 0.51700002 150 16 0
2.869 1.1390001 0.52100003 150 16 0
2.8710001 1.148 0.52700001 150 16 0
2.869 1.155 0.53200001 150 16 0
2.865 1.1619999 0.537 150 16 0
2.8629999 1.169 0.542 150 16 0
2.859 1.175 0.54699999 150 16 0
2.8499999 1.179 0.551 119 16 0
2.8499999 1.187 0.55699998 48 16 0
2.8399999 1.191 0.56099999 40 16 0
2.8269999 1.193 0.56400001 39 16 0
2.8199999 1.198 0.56800002 37 16 0
2.8110001 1.201 0.57200003 39 16 0
2.8010001 1.205 0.57599998 37 16 0
2.7909999 1.2079999 0.579 40 16 0
2.786 1.2130001 0.58399999 40 16 0
2.777 1.216 0.588 40 16 0
2.767 1.219 0.59200001 40 16 0
2.7579999 1.223 0.59500003 41 16 0
2.744 1.223 0.59799999 41 16 0
2.737 1.227 0.602 40 16 0
2.7309999 1.2309999 0.60699999 41 16 0
2.7219999 1.234 0.61000001 42 16 0
2.71 1.2359999 0.61299998 40 16 0
2.7030001 1.24 0.61799997 41 16 0
2.6930001 1.242 0.62099999 40 16 0
2.6819999 1.243 0.62400001 42 16 0
2.677 1.248 0.62900001 42 16 0
2.6619999 1.247 0.63099998 40 16 0
2.658 1.252 0.63599998 39 16 0
2.651 1.255 0.63999999 39 16 0
2.6389999 1.256 0.64300001 39 16 0
2.6300001 1.258 0.64600003 38 16 0
2.625 1.262 0.65100002 39 16 0
2.615 1.263 0.65399998 38 16 0
2.6070001 1.265 0.65799999 40 16 0
2.598 1.267 0.662 39 16 0
2.592 1.27 0.66600001 40 16 0
2.5829999 1.271 0.66900003 39 16 0
2.5769999 1.274 0.67299998 36 16 0
2.5680001 1.275 0.67699999 39 16 0
2.5599999 1.277 0.68000001 40 16 0
2.55 1.278 0.68300003 39 16 0
2.539 1.278 0.68599999 40 16 0
2.5350001 1.281 0.69099998 40 16 0
2.5280001 1.283 0.69400001 41 16 0
2.513 1.281 0.69599998 38 16 0
2.507 1.283 0.69999999 39 16 0
2.503 1.285 0.704 40 16 0
2.493 1.285 0.70700002 37 16 0
2.4809999 1.284 0.70899999 37 16 0
2.4760001 1.2869999 0.713 38 16 0
2.47 1.288 0.71700001 35 16 0
2.4649999 1.29 0.72100002 37 16 0
2.4530001 1.289 0.72299999 37 16 0
2.447 1.29 0.727 37 16 0
2.4419999 1.2920001 0.73100001 37 16 0
2.434 1.2920001 0.73400003 38 16 0
2.4260001 1.2920001 0.73699999 36 16 0
2.4189999 1.293 0.741 36 16 0
2.4089999 1.291 0.74299997 40 16 0
2.404 1.2920001 0.74699998 38 16 0
2.395 1.291 0.74900001 39 16 0
2.3870001 1.291 0.75199997 40 16 0
2.381 1.291 0.75599998 38 16 0
2.3789999 1.294 0.75999999 40 16 0
2.3670001 1.291 0.76099998 39 16 0
2.3599999 1.29 0.764 38 16 0
2.3570001 1.2920001 0.76899999 40 16 0
2.345 1.289 0.76999998 43 16 0
2.339 1.289 0.773 38 16 0
2.3369999 1.291 0.77700001 42 16 0
2.3269999 1.288 0.77899998 41 16 0
2.3199999 1.2869999 0.78200001 48 16 0
2.3169999 1.288 0.78600001 45 16 0
2.306 1.285 0.787 50 16 0
2.3 1.284 0.79000002 41 16 0
2.2980001 1.285 0.79400003 43 16 0
2.2920001 1.285 0.79699999 53 16 0
2.2880001 1.285 0.801 51 16 0
2.2839999 1.285 0.80400002 54 16 0
2.279 1.284 0.80699998 58 16 0
2.2709999 1.281 0.80900002 52 16 0
2.267 1.281 0.81199998 56 16 0
2.257 1.277 0.81300002 46 16 0
2.2550001 1.278 0.81699997 50 16 0
2.2509999 1.277 0.81999999 46 16 0
2.2409999 1.273 0.82099998 51 16 0
2.237 1.272 0.824 53 16 0
2.2320001 1.271 0.82599998 52 16 0
2.2279999 1.27 0.829 57 16 0
2.2219999 1.268 0.83099997 57 16 0
2.221 1.268 0.83499998 60 16 0
2.214 1.265 0.83600003 57 16 0
2.2049999 1.26 0.83700001 56 16 0
2.201 1.2589999 0.83999997 58 16 0
2.1930001 1.255 0.84100002 57 16 0
2.188 1.253 0.84299999 61 16 0
2.187 1.252 0.84600002 62 16 0
2.181 1.249 0.84799999 61 16 0
2.174 1.245 0.84899998 59 16 0
2.175 1.2460001 0.85299999 62 16 0
2.1730001 1.245 0.85500002 66 16 0
2.1659999 1.2410001 0.85600001 63 16 0
2.1619999 1.238 0.85799998 68 16 0
2.1589999 1.237 0.861 71 16 0
2.1500001 1.2309999 0.86000001 72 19 0
2.1489999 1.23 0.86299998 70 16 0
2.1429999 1.226 0.86400002 72 16 0
2.138 1.222 0.86500001 73 16 0
2.1370001 1.221 0.86799997 76 16 0
2.132 1.217 0.86900002 72 16 0
2.131 1.215 0.87199998 73 16 0
2.1259999 1.212 0.87300003 70 16 0
2.128 1.212 0.87599999 79 16 0
2.1210001 1.206 0.87599999 71 19 0
2.118 1.2029999 0.87800002 53 16 0
2.115 1.2 0.87900001 45 16 0
2.1110001 1.196 0.88 31 16 0
2.108 1.193 0.88099998 28 16 0
2.108 1.191 0.884 28 16 0
2.1029999 1.186 0.884 27 16 0
2.1010001 1.183 0.88499999 29 16 0
2.0969999 1.179 0.88599998 31 16 0
2.095 1.176 0.88700002 34 16 0
2.092 1.1720001 0.88800001 42 16 0
2.0869999 1.1670001 0.88800001 53 16 0
2.089 1.166 0.89099997 64 16 0
2.0869999 1.1619999 0.89200002 82 16 0
2.0840001 1.158 0.89200002 92 16 0
2.0829999 1.155 0.89300001 107 16 0
2.082 1.152 0.89499998 103 16 0
2.0799999 1.148 0.89499998 100 16 0
2.079 1.1440001 0.89600003 100 16 0
2.0780001 1.141 0.89700001 93 16 0
2.079 1.138 0.89899999 96 16 0
2.0769999 1.1339999 0.89899999 95 16 0
2.073 1.1289999 0.898 109 16 0
2.0739999 1.126 0.89999998 116 16 0
2.069 1.12 0.89899999 108 16 0
2.066 1.115 0.898 107 16 0
2.075 1.1160001 0.903 108 16 0
2.0669999 1.108 0.89999998 109 16 0
2.0680001 1.105 0.90200001 107 16 0
2.063 1.099 0.89999998 105 16 0
2.0639999 1.096 0.90100002 100 16 0
2.0650001 1.092 0.90200001 100 16 0
2.066 1.089 0.903 100 16 0
2.0680001 1.086 0.90399998 102 16 0
2.0639999 1.08 0.90200001 98 16 0
2.0669999 1.0779999 0.90399998 103 16 0
2.0639999 1.072 0.903 93 16 0
2.066 1.069 0.903 88 16 0
2.0669999 1.0650001 0.90399998 104 16 0
2.0680001 1.061 0.90399998 97 16 0
2.0699999 1.057 0.90499997 106 16 0
2.0699999 1.053 0.90399998 111 16 0
2.0680001 1.048 0.903 107 16 0
2.0710001 1.044 0.90399998 103 16 0
2.073 1.041 0.90399998 110 16 0
2.0710001 1.035 0.903 103 16 0
2.0739999 1.0319999 0.903 112 16 0
2.072 1.026 0.90200001 112 16 0
2.0739999 1.022 0.90200001 105 16 0
2.079 1.02 0.903 105 16 0
2.0780001 1.015 0.90200001 107 16 0
2.0799999 1.011 0.90200001 103 16 0
2.085 1.008 0.903 112 16 0
2.0799999 1 0.89999998 109 16 0
2.082 0.99599999 0.89899999 106 16 0
2.0829999 0.99199998 0.89899999 104 16 0
2.086 0.98799998 0.898 112 16 0
2.0840001 0.98199999 0.89600003 106 16 0
2.0869999 0.97799999 0.89600003 104 16 0
2.0929999 0.97500002 0.89700001 109 16 0
2.095 0.97100002 0.89600003 106 16 0
2.092 0.96399999 0.89300001 110 16 0
2.099 0.96200001 0.89399999 109 16 0
2.102 0.95700002 0.89300001 109 16 0
2.1040001 0.95300001 0.89200002 108 16 0
2.105 0.94800001 0.89099997 116 16 0
2.1059999 0.94300002 0.889 111 16 0
2.1110001 0.94 0.889 117 16 0
2.112 0.93400002 0.88800001 120 16 0
2.1170001 0.93099999 0.88700002 108 16 0
2.119 0.926 0.88599998 125 16 0
2.1210001 0.921 0.88499999 116 16 0
2.1210001 0.91600001 0.88200003 110 16 0
