# .PCD v0.7 - Point Cloud Data file format
VERSION 0.7
FIELDS x y z intensity tag line
SIZE 4 4 4 4 1 1
TYPE F F F F U U
COUNT 1 1 1 1 1 1
WIDTH 1349
HEIGHT 1
VIEWPOINT 0 0 0 1 0 0 0
POINTS 1349
DATA ascii
2.3789999 1.2589999 -0.66399997 150 16 0
2.382 1.256 -0.65899998 150 16 0
2.3829999 1.252 -0.65399998 150 16 0
2.3859999 1.249 -0.64999998 150 16 0
2.391 1.247 -0.64600003 150 16 0
2.3929999 1.242 -0.64099997 150 16 0
2.398 1.24 -0.63700002 73 16 0
2.4030001 1.238 -0.63300002 37 16 0
2.408 1.235 -0.62900001 34 16 0
2.4089999 1.23 -0.62400001 33 16 0
2.414 1.227 -0.62 56 16 0
2.414 1.222 -0.61500001 131 16 0
2.4159999 1.2180001 -0.61000001 144 16 0
2.424 1.216 -0.60699999 107 16 0
2.424 1.21 -0.602 150 16 0
2.427 1.206 -0.597 150 16 0
2.4330001 1.204 -0.59299999 150 16 0
2.4389999 1.201 -0.58999997 150 16 0
2.4419999 1.196 -0.58499998 150 16 0
2.4449999 1.192 -0.58099997 150 16 0
2.4460001 1.187 -0.57599998 150 16 0
2.4519999 1.184 -0.57200003 150 16 0
2.457 1.1799999 -0.56800002 150 16 0
2.461 1.176 -0.56400001 150 16 0
2.4619999 1.171 -0.55900002 150 16 0
2.467 1.1670001 -0.55500001 150 16 0
2.4749999 1.164 -0.551 150 16 0
2.4779999 1.16 -0.54699999 150 16 0
2.48 1.154 -0.542 150 16 0
2.487 1.151 -0.53799999 150 16 0
2.493 1.147 -0.53500003 150 16 0
2.494 1.141 -0.52899998 150 16 0
2.497 1.136 -0.52499998 150 16 0
2.5 1.131 -0.52100003 150 16 0
2.507 1.127 -0.51700002 150 16 0
2.5090001 1.1210001 -0.51200002 150 16 0
2.5120001 1.1160001 -0.50800002 150 16 0
2.517 1.112 -0.50400001 150 16 0
2.5209999 1.107 -0.5 150 16 0
2.533 1.105 -0.49700001 150 16 0
2.5380001 1.1 -0.493 150 16 0
2.54 1.094 -0.48800001 150 16 0
2.543 1.089 -0.484 150 16 0
2.5510001 1.085 -0.47999999 150 16 0
2.5569999 1.08 -0.47600001 150 16 0
2.5569999 1.073 -0.472 150 16 0
2.563 1.069 -0.46799999 150 16 0
2.5680001 1.064 -0.46399999 150 16 0
2.572 1.058 -0.45899999 150 16 0
2.5769999 1.053 -0.456 150 16 0
2.5829999 1.048 -0.45199999 150 16 0
2.5880001 1.0420001 -0.447 150 16 0
2.5929999 1.0369999 -0.44400001 150 16 0
2.5969999 1.031 -0.43900001 150 16 0
2.5999999 1.025 -0.435 150 16 0
2.6029999 1.0190001 -0.43099999 150 16 0
2.6110001 1.0140001 -0.42699999 150 16 0
2.6110001 1.007 -0.42300001 150 16 0
2.6229999 1.0039999 -0.41999999 150 16 0
2.6270001 0.99800003 -0.41600001 150 16 0
2.6300001 0.991 -0.412 150 16 0
2.6359999 0.986 -0.40799999 150 16 0
2.642 0.98100001 -0.40400001 150 16 0
2.652 0.977 -0.40099999 150 16 0
2.6689999 0.97500002 -0.39899999 142 16 0
2.6570001 0.963 -0.39199999 137 16 0
2.6570001 0.95499998 -0.38800001 150 16 0
2.664 0.94999999 -0.384 150 16 0
2.6689999 0.94400001 -0.38 150 16 0
2.6719999 0.93699998 -0.37599999 150 16 0
2.6789999 0.93099999 -0.373 150 16 0
2.6819999 0.92400002 -0.36899999 150 16 0
2.6849999 0.917 -0.36500001 150 16 0
2.6930001 0.912 -0.361 150 16 0
2.6960001 0.90499997 -0.35699999 150 16 0
2.7 0.89899999 -0.35299999 150 16 0
2.707 0.89300001 -0.34999999 150 16 0
2.7090001 0.88599998 -0.34599999 150 16 0
2.717 0.88 -0.34200001 150 16 0
2.7219999 0.87300003 -0.338 150 16 0
2.7290001 0.86799997 -0.33500001 150 16 0
2.7320001 0.86000001 -0.331 150 16 0
2.7349999 0.85299999 -0.32699999 150 16 0
2.7379999 0.84500003 -0.32300001 150 16 0
2.747 0.83999997 -0.31999999 150 16 0
2.756 0.83499998 -0.317 150 16 0
2.7590001 0.82700002 -0.31299999 150 16 0
2.7639999 0.81999999 -0.30899999 150 16 0
2.7690001 0.81300002 -0.30500001 150 16 0
2.7750001 0.80699998 -0.30199999 150 16 0
2.78 0.80000001 -0.29800001 150 16 0
2.786 0.79299998 -0.29499999 150 16 0
2.789 0.78500003 -0.29100001 150 16 0
2.7920001 0.778 -0.287 150 16 0
2.8039999 0.773 -0.28400001 150 16 0
2.8039999 0.764 -0.28 150 16 0
2.812 0.75800002 -0.27700001 150 16 0
2.8139999 0.75 -0.273 150 16 0
2.8269999 0.745 -0.27000001 150 16 0
2.8269999 0.736 -0.266 150 16 0
2.832 0.72899997 -0.26300001 150 16 0
2.8399999 0.722 -0.259 150 16 0
2.846 0.71499997 -0.25600001 150 16 0
2.846 0.70599997 -0.252 150 16 0
2.8570001 0.69999999 -0.249 150 16 0
2.858 0.69099998 -0.245 150 16 0
2.865 0.68400002 -0.242 150 16 0
2.8670001 0.676 -0.23800001 150 16 0
2.8710001 0.66799998 -0.234 150 16 0
2.8789999 0.66100001 -0.23100001 150 16 0
2.882 0.653 -0.228 150 16 0
2.8929999 0.64700001 -0.22499999 150 16 0
2.8959999 0.639 -0.221 150 16 0
2.904 0.63099998 -0.21799999 150 16 0
2.9070001 0.62300003 -0.214 150 16 0
2.918 0.61699998 -0.211 150 16 0
2.9230001 0.60900003 -0.208 150 16 0
2.927 0.60100001 -0.205 150 16 0
2.934 0.59299999 -0.20100001 150 16 0
2.9400001 0.58499998 -0.198 150 16 0
2.9430001 0.57700002 -0.19499999 150 16 0
2.948 0.56900001 -0.191 150 16 0
2.957 0.56099999 -0.18799999 150 16 0
2.961 0.55299997 -0.185 150 16 0
2.9660001 0.54500002 -0.18099999 150 16 0
2.9749999 0.537 -0.178 150 16 0
2.9760001 0.528 -0.175 150 16 0
2.9820001 0.51999998 -0.171 150 16 0
2.9920001 0.51300001 -0.168 150 16 0
2.9960001 0.50400001 -0.16500001 150 16 0
2.997 0.495 -0.162 150 16 0
3.0050001 0.48699999 -0.15899999 140 16 0
3.01 0.479 -0.155 145 16 0
3.0139999 0.47 -0.152 134 16 0
3.0239999 0.46200001 -0.149 140 16 0
3.026 0.454 -0.146 137 16 0
3.0369999 0.44600001 -0.14300001 138 16 0
3.0420001 0.43700001 -0.139 150 16 0
3.0439999 0.428 -0.13600001 133 16 0
3.053 0.41999999 -0.133 134 16 0
3.059 0.41100001 -0.13 134 16 0
3.0610001 0.40200001 -0.127 138 16 0
3.0680001 0.39399999 -0.124 143 16 0
3.0810001 0.38600001 -0.121 149 16 0
3.082 0.37599999 -0.117 132 16 0
3.0940001 0.368 -0.114 117 16 0
3.0969999 0.359 -0.111 144 16 0
3.102 0.34999999 -0.108 140 16 0
3.1110001 0.34200001 -0.105 129 16 0
3.118 0.333 -0.102 116 16 0
3.1199999 0.32300001 -0.098999999 115 16 0
3.1259999 0.31400001 -0.096000001 107 16 0
3.1359999 0.30500001 -0.093000002 112 16 0
3.1389999 0.296 -0.090000004 114 16 0
3.1489999 0.287 -0.086999997 99 16 0
3.1589999 0.278 -0.083999999 129 16 0
3.1600001 0.26899999 -0.081 114 16 0
3.1689999 0.25999999 -0.078000002 106 16 0
3.1760001 0.25 -0.075000003 118 16 0
3.1819999 0.241 -0.071999997 107 16 0
3.1900001 0.23199999 -0.068999998 96 16 0
3.198 0.223 -0.066 99 16 0
3.2019999 0.213 -0.063000001 99 16 0
3.211 0.204 -0.059999999 98 16 0
3.22 0.19400001 -0.057 108 16 0
3.2260001 0.184 -0.054000001 104 16 0
3.2309999 0.175 -0.050999999 98 16 0
3.2360001 0.16500001 -0.048 93 16 0
3.2390001 0.155 -0.045000002 82 16 0
3.25 0.146 -0.041999999 99 16 0
3.253 0.13600001 -0.039000001 92 16 0
3.26 0.126 -0.035999998 88 16 0
3.27 0.116 -0.033 90 16 0
3.277 0.106 -0.029999999 92 16 0
3.283 0.096000001 -0.027000001 90 16 0
3.289 0.086000003 -0.024 95 16 0
3.293 0.075999998 -0.021 81 16 0
3.296 0.066 -0.017999999 64 16 0
3.306 0.056000002 -0.015 47 16 0
3.312 0.045000002 -0.012 76 16 0
3.319 0.035 -0.0089999996 79 16 0
3.329 0.025 -0.0070000002 37 16 0
3.3039999 0.014 -0.0040000002 21 16 0
3.2809999 0.0040000002 -0.001 18 16 0
3.26 -0.0049999999 0.001 18 16 0
3.2490001 -0.015 0.0040000002 40 16 0
3.2479999 -0.026000001 0.0070000002 150 16 0
3.2609999 -0.035999998 0.0089999996 150 16 0
3.266 -0.046 0.012 150 16 0
3.27 -0.056000002 0.015 150 16 0
3.2780001 -0.067000002 0.017999999 132 16 0
3.2650001 -0.077 0.02 32 16 0
3.237 -0.086000003 0.023 30 16 0
3.2149999 -0.096000001 0.025 28 16 0
3.204 -0.105 0.028000001 30 16 0
3.1789999 -0.115 0.029999999 30 16 0
3.1619999 -0.124 0.032000002 30 16 0
3.1389999 -0.133 0.035 30 16 0
3.118 -0.142 0.037 29 16 0
3.1010001 -0.15099999 0.039000001 28 16 0
3.079 -0.15899999 0.041000001 30 16 0
3.0610001 -0.168 0.043000001 30 16 0
3.0439999 -0.177 0.045000002 30 16 0
3.0190001 -0.185 0.046999998 30 16 0
3.0009999 -0.193 0.048999999 31 16 0
2.9849999 -0.20200001 0.050999999 31 16 0
2.97 -0.20999999 0.052999999 30 16 0
2.951 -0.21799999 0.055 31 16 0
2.934 -0.226 0.057 31 16 0
2.915 -0.234 0.057999998 33 16 0
2.895 -0.241 0.059999999 33 16 0
2.8829999 -0.25 0.061999999 32 16 0
2.8640001 -0.257 0.064000003 33 16 0
2.8440001 -0.264 0.064999998 32 16 0
2.8310001 -0.27200001 0.067000002 34 16 0
2.8199999 -0.28 0.068000004 33 16 0
2.8 -0.287 0.07 33 16 0
2.7869999 -0.294 0.071000002 35 16 0
2.767 -0.301 0.072999999 34 16 0
2.7539999 -0.30899999 0.074000001 35 16 0
2.737 -0.315 0.075999998 34 16 0
2.73 -0.32300001 0.077 35 16 0
2.7130001 -0.33000001 0.079000004 35 16 0
2.7019999 -0.33700001 0.079999998 37 16 0
2.6860001 -0.34400001 0.081 37 16 0
2.674 -0.35100001 0.082999997 41 16 0
2.652 -0.35699999 0.083999999 39 16 0
2.641 -0.36399999 0.085000001 48 16 0
2.625 -0.37 0.086000003 41 16 0
2.6140001 -0.377 0.086999997 43 16 0
2.595 -0.382 0.088 47 16 0
2.5799999 -0.38800001 0.089000002 34 16 0
2.5710001 -0.39500001 0.090000004 44 16 0
2.556 -0.40099999 0.090999998 61 16 0
2.5369999 -0.40700001 0.092 56 16 0
2.529 -0.414 0.093000002 58 16 0
2.5150001 -0.419 0.093999997 64 16 0
2.5039999 -0.426 0.094999999 64 16 0
2.4909999 -0.43200001 0.096000001 58 16 0
2.477 -0.43700001 0.097000003 63 16 0
2.4660001 -0.44299999 0.097999997 69 16 0
2.457 -0.44999999 0.098999999 64 16 0
2.4419999 -0.45500001 0.1 74 16 0
2.431 -0.461 0.1 63 16 0
2.4159999 -0.46599999 0.101 62 16 0
2.4059999 -0.472 0.102 65 16 0
2.3900001 -0.47600001 0.102 66 16 0
2.378 -0.48199999 0.103 64 16 0
2.3699999 -0.48800001 0.104 74 16 0
2.3570001 -0.493 0.104 63 16 0
2.3410001 -0.49700001 0.105 68 16 0
2.3329999 -0.50300002 0.106 77 16 0
2.325 -0.509 0.106 72 16 0
2.309 -0.51300001 0.107 76 16 0
2.2980001 -0.51899999 0.107 81 16 0
2.2809999 -0.52200001 0.107 87 16 0
2.2720001 -0.528 0.108 75 16 0
2.263 -0.53299999 0.108 84 16 0
2.2509999 -0.53799999 0.109 83 16 0
2.2390001 -0.542 0.109 66 16 0
2.2309999 -0.54799998 0.11 86 16 0
2.22 -0.55199999 0.11 90 16 0
2.2130001 -0.55800003 0.11 86 16 0
2.2 -0.56199998 0.111 84 16 0
2.1900001 -0.56699997 0.111 91 16 0
2.1789999 -0.57099998 0.111 109 16 0
2.1689999 -0.57599998 0.112 107 16 0
2.1570001 -0.57999998 0.112 108 16 0
2.141 -0.583 0.112 114 16 0
2.131 -0.58700001 0.112 107 16 0
2.1270001 -0.59299999 0.112 113 16 0
2.1170001 -0.597 0.112 118 16 0
2.1029999 -0.60100001 0.112 142 16 0
2.0969999 -0.60600001 0.113 150 16 0
2.0899999 -0.611 0.113 150 16 0
2.0769999 -0.61400002 0.113 150 16 0
2.0669999 -0.61799997 0.113 141 16 0
2.056 -0.62199998 0.113 149 16 0
2.05 -0.62699997 0.113 147 16 0
2.0380001 -0.63 0.113 150 16 0
2.03 -0.634 0.113 147 16 0
2.0190001 -0.63800001 0.113 150 16 0
2.01 -0.64200002 0.113 149 16 0
2.0020001 -0.64600003 0.113 150 16 0
1.995 -0.64999998 0.113 150 16 0
1.984 -0.65399998 0.112 150 16 0
1.977 -0.65799999 0.112 150 16 0
1.966 -0.66100001 0.112 150 16 0
1.959 -0.66500002 0.112 150 16 0
1.952 -0.66900003 0.112 150 16 0
1.933 -0.66900003 0.111 150 19 0
1.927 -0.67400002 0.111 150 16 0
1.923 -0.67900002 0.111 150 16 0
1.916 -0.68300003 0.111 150 16 0
1.9069999 -0.68599999 0.11 150 16 0
1.902 -0.69099998 0.11 150 16 0
1.8940001 -0.69499999 0.11 150 16 0
1.885 -0.69800001 0.11 150 16 0
1.878 -0.70099998 0.109 150 16 0
1.87 -0.70499998 0.109 150 16 0
1.8609999 -0.708 0.108 150 16 0
1.852 -0.71100003 0.108 150 16 0
1.847 -0.71499997 0.108 150 16 0
1.842 -0.72000003 0.107 150 16 0
1.8329999 -0.722 0.107 2 0 0
1.826 -0.72600001 0.106 5 0 0
1.814 -0.727 0.106 2 0 0
1.809 -0.73100001 0.105 4 0 0
1.802 -0.73500001 0.105 2 0 0
1.796 -0.73799998 0.104 2 0 0
1.786 -0.74000001 0.104 3 0 0
1.778 -0.74299997 0.103 150 16 0
1.774 -0.74699998 0.103 150 16 0
1.765 -0.75 0.102 150 16 0
1.761 -0.75400001 0.101 150 16 0
1.748 -0.75400001 0.1 2 0 0
1.745 -0.759 0.1 150 16 0
1.734 -0.75999999 0.098999999 150 16 0
1.73 -0.764 0.097999997 150 16 0
1.725 -0.76800001 0.097999997 150 16 0
1.723 -0.773 0.097000003 88 0 0
1.709 -0.77200001 0.096000001 85 0 0
1.702 -0.77499998 0.094999999 85 0 0
1.694 -0.77700001 0.094999999 100 0 0
1.687 -0.77899998 0.093999997 79 0 0
1.6849999 -0.78399998 0.093000002 119 0 0
1.677 -0.78600001 0.092 99 0 0
1.6720001 -0.78899997 0.090999998 97 0 0
1.664 -0.79100001 0.090999998 136 0 0
1.658 -0.79400003 0.090000004 103 0 0
1.647 -0.79400003 0.089000002 109 0 0
1.643 -0.79699999 0.088 119 0 0
1.637 -0.80000001 0.086999997 111 0 0
1.635 -0.80400002 0.086000003 140 0 0
1.626 -0.80500001 0.085000001 133 0 0
1.623 -0.80900002 0.083999999 117 0 0
1.612 -0.80900002 0.082999997 103 0 0
1.61 -0.81300002 0.082000002 102 0 0
1.598 -0.81199998 0.081 114 0 0
1.596 -0.81699997 0.079999998 101 0 0
1.591 -0.81900001 0.079000004 115 0 0
1.585 -0.82200003 0.078000002 108 0 0
1.581 -0.824 0.077 134 0 0
1.579 -0.82800001 0.075999998 108 0 0
1.571 -0.82999998 0.075000003 89 0 0
1.571 -0.83399999 0.074000001 110 0 0
1.569 -0.838 0.072999999 105 0 0
1.554 -0.83499998 0.071000002 122 3 0
1.552 -0.83899999 0.07 128 0 0
1.549 -0.84200001 0.068999998 130 0 0
1.54 -0.84200001 0.068000004 120 0 0
1.5369999 -0.84500003 0.067000002 134 0 0
1.527 -0.84500003 0.064999998 137 0 0
1.525 -0.84799999 0.064000003 124 0 0
1.52 -0.85000002 0.063000001 139 0 0
1.518 -0.85399997 0.061999999 150 0 0
1.5089999 -0.85299999 0.059999999 150 0 0
1.5089999 -0.85799998 0.059 137 0 0
1.505 -0.86000001 0.057999998 150 0 0
1.497 -0.86000001 0.056000002 92 0 0
1.492 -0.861 0.055 112 0 0
1.488 -0.86400002 0.054000001 150 0 0
1.478 -0.86199999 0.052000001 5 0 0
1.4809999 -0.86799997 0.050999999 143 0 0
1.475 -0.86900002 0.050000001 150 0 0
1.469 -0.87 0.048 126 0 0
1.465 -0.87199998 0.046999998 150 0 0
1.46 -0.87300003 0.045000002 113 0 0
1.4579999 -0.87599999 0.044 150 0 0
1.452 -0.87599999 0.041999999 124 0 0
1.447 -0.87699997 0.041000001 150 0 0
1.443 -0.87800002 0.039000001 136 0 0
1.441 -0.88099998 0.037999999 148 0 0
1.437 -0.88200003 0.035999998 96 0 0
1.434 -0.884 0.035 122 0 0
1.427 -0.884 0.033 150 0 0
1.426 -0.88700002 0.032000002 150 0 0
1.424 -0.889 0.029999999 139 0 0
1.418 -0.889 0.028999999 139 0 0
1.4170001 -0.89200002 0.027000001 135 0 0
1.4119999 -0.89200002 0.025 118 0 0
1.4069999 -0.89300001 0.024 139 0 0
1.405 -0.89499998 0.022 129 0 0
1.401 -0.89600003 0.021 129 0 0
1.397 -0.89600003 0.018999999 146 0 0
1.3940001 -0.898 0.017000001 150 0 0
1.392 -0.89899999 0.016000001 150 0 0
1.3890001 -0.89999998 0.014 133 0 0
1.387 -0.90200001 0.012 123 0 0
1.383 -0.90200001 0.011 110 0 0
1.3789999 -0.903 0.0089999996 139 0 0
1.377 -0.90399998 0.0070000002 120 0 0
1.376 -0.90600002 0.0060000001 140 0 0
1.373 -0.90700001 0.0040000002 132 0 0
1.369 -0.90700001 0.0020000001 99 0 0
1.369 -0.91000003 0 150 0 0
1.3660001 -0.91000003 0 130 0 0
1.365 -0.912 -0.0020000001 129 0 0
1.362 -0.91299999 -0.0040000002 150 0 0
1.3559999 -0.91100001 -0.0060000001 148 0 0
1.3559999 -0.91399997 -0.0070000002 108 0 0
1.353 -0.91299999 -0.0089999996 134 0 0
1.353 -0.91500002 -0.011 132 0 0
1.351 -0.91600001 -0.013 147 0 0
1.345 -0.91399997 -0.014 133 0 0
1.344 -0.91600001 -0.016000001 95 0 0
1.3430001 -0.917 -0.017999999 122 0 0
1.342 -0.91799998 -0.02 138 0 0
1.341 -0.91900003 -0.022 150 0 0
1.3380001 -0.91900003 -0.023 124 0 0
1.337 -0.92000002 -0.025 121 0 0
1.336 -0.921 -0.027000001 138 0 0
1.3329999 -0.92000002 -0.028999999 123 0 0
1.329 -0.91900003 -0.030999999 150 0 0
1.334 -0.92400002 -0.033 133 0 0
1.329 -0.921 -0.035 130 0 0
1.327 -0.92199999 -0.035999998 149 0 0
1.332 -0.926 -0.037999999 110 3 0
1.33 -0.92500001 -0.039999999 115 0 0
1.314 -0.91600001 -0.041999999 115 1 0
1.312 -0.91500002 -0.043000001 115 0 0
1.3099999 -0.91399997 -0.045000002 72 0 0
1.322 -0.92400002 -0.048 132 1 0
1.311 -0.917 -0.048999999 98 0 0
1.324 -0.92699999 -0.050999999 150 0 0
1.319 -0.92400002 -0.052999999 146 0 0
1.307 -0.91600001 -0.055 143 0 0
1.308 -0.917 -0.056000002 93 0 0
1.321 -0.926 -0.059 128 1 0
1.308 -0.917 -0.059999999 113 3 0
1.307 -0.917 -0.061999999 128 0 0
1.307 -0.917 -0.064000003 127 0 0
1.306 -0.917 -0.066 102 0 0
1.3049999 -0.91500002 -0.067000002 120 0 0
1.306 -0.917 -0.068999998 140 0 0
1.306 -0.91600001 -0.071000002 134 0 0
1.306 -0.91600001 -0.072999999 132 0 0
1.306 -0.91600001 -0.075000003 135 0 0
1.307 -0.91600001 -0.077 107 0 0
1.307 -0.91500002 -0.079000004 145 0 0
1.307 -0.91500002 -0.079999998 110 0 0
1.3049999 -0.91299999 -0.082000002 110 0 0
1.307 -0.91399997 -0.083999999 131 0 0
1.308 -0.91299999 -0.086000003 132 0 0
1.306 -0.912 -0.086999997 106 0 0
1.319 -0.92000002 -0.090000004 150 1 0
1.309 -0.91100001 -0.090999998 105 0 0
1.306 -0.90899998 -0.093000002 150 0 0
1.309 -0.91000003 -0.094999999 123 0 0
1.3099999 -0.90899998 -0.096000001 126 0 0
1.321 -0.91600001 -0.098999999 136 1 0
1.311 -0.90700001 -0.1 125 0 0
1.311 -0.90600002 -0.102 113 0 0
1.312 -0.90499997 -0.103 124 0 0
1.323 -0.912 -0.106 150 1 0
1.324 -0.91000003 -0.108 150 0 0
1.327 -0.91100001 -0.11 143 0 0
1.314 -0.90100002 -0.11 143 1 0
1.3150001 -0.89899999 -0.112 134 0 0
1.33 -0.90799999 -0.115 133 1 0
1.331 -0.90600002 -0.116 150 0 0
1.334 -0.90700001 -0.118 137 0 0
1.334 -0.90499997 -0.12 141 0 0
1.336 -0.90399998 -0.121 150 0 0
1.336 -0.90200001 -0.123 150 0 0
1.3380001 -0.89999998 -0.125 150 0 0
1.339 -0.89899999 -0.126 150 0 0
1.34 -0.89700001 -0.12800001 150 0 0
1.341 -0.89499998 -0.12899999 150 0 0
1.342 -0.89399999 -0.131 150 0 0
1.346 -0.89399999 -0.132 150 0 0
1.351 -0.89499998 -0.134 150 0 0
1.352 -0.89300001 -0.13600001 150 0 0
1.354 -0.89200002 -0.13699999 150 0 0
1.357 -0.89099997 -0.139 150 0 0
1.3609999 -0.88999999 -0.141 150 0 0
1.363 -0.889 -0.142 150 0 0
1.364 -0.88599998 -0.14300001 150 0 0
1.367 -0.88499999 -0.145 150 0 0
1.3710001 -0.88499999 -0.147 150 0 0
1.37 -0.88099998 -0.148 150 0 0
1.374 -0.88099998 -0.149 150 0 0
1.378 -0.87900001 -0.15099999 150 0 0
1.3789999 -0.87699997 -0.152 144 0 0
1.381 -0.875 -0.153 150 0 0
1.382 -0.87199998 -0.155 150 0 0
1.387 -0.87199998 -0.156 150 0 0
1.388 -0.86900002 -0.15700001 150 0 0
1.39 -0.86699998 -0.15899999 150 0 0
1.3940001 -0.86500001 -0.16 150 0 0
1.395 -0.86299998 -0.161 150 0 0
1.398 -0.861 -0.162 150 0 0
1.399 -0.85799998 -0.163 129 0 0
1.406 -0.85799998 -0.16500001 150 0 0
1.409 -0.85600001 -0.16599999 150 0 0
1.411 -0.85299999 -0.167 150 0 0
1.418 -0.85399997 -0.169 150 0 0
1.42 -0.85100001 -0.17 148 0 0
1.424 -0.85000002 -0.171 150 0 0
1.424 -0.84600002 -0.17200001 150 0 0
1.428 -0.84399998 -0.17299999 148 0 0
1.4349999 -0.84399998 -0.175 150 0 0
1.437 -0.84100002 -0.176 150 0 0
1.439 -0.838 -0.177 122 0 0
1.449 -0.83899999 -0.178 150 0 0
1.455 -0.83899999 -0.18000001 120 0 0
1.457 -0.83499998 -0.18099999 150 0 0
1.462 -0.833 -0.182 137 0 0
1.4630001 -0.82999998 -0.182 143 0 0
1.4680001 -0.82800001 -0.183 150 0 0
1.473 -0.82700002 -0.185 150 0 0
1.477 -0.824 -0.185 150 0 0
1.484 -0.824 -0.18700001 132 0 0
1.487 -0.81999999 -0.18700001 150 0 0
1.494 -0.81999999 -0.189 150 0 0
1.4960001 -0.81599998 -0.189 150 0 0
1.498 -0.81199998 -0.19 147 0 0
1.503 -0.81099999 -0.191 150 0 0
1.51 -0.81 -0.192 150 0 0
1.512 -0.80599999 -0.193 141 0 0
1.522 -0.80599999 -0.19400001 148 0 0
1.525 -0.80299997 -0.19499999 135 0 0
1.5319999 -0.80199999 -0.19599999 129 0 0
1.536 -0.79900002 -0.19599999 144 0 0
1.541 -0.796 -0.197 150 0 0
1.543 -0.792 -0.197 150 0 0
1.553 -0.79299998 -0.199 150 0 0
1.556 -0.78899997 -0.199 150 0 0
1.563 -0.787 -0.2 150 16 0
1.5700001 -0.78600001 -0.20100001 132 0 0
1.575 -0.78299999 -0.20100001 131 0 0
1.581 -0.78100002 -0.20200001 150 0 0
1.586 -0.778 -0.20299999 116 0 0
1.591 -0.77499998 -0.20299999 128 0 0
1.596 -0.77200001 -0.204 131 0 0
1.599 -0.76899999 -0.204 137 0 0
1.605 -0.76599997 -0.205 138 0 0
1.608 -0.76200002 -0.205 127 0 0
1.6160001 -0.75999999 -0.205 150 16 0
1.622 -0.75800002 -0.206 150 16 0
1.627 -0.755 -0.206 131 0 0
1.635 -0.75300002 -0.207 150 16 0
1.638 -0.74900001 -0.207 150 16 0
1.646 -0.74699998 -0.208 102 0 0
1.652 -0.74400002 -0.208 150 16 0
1.6569999 -0.741 -0.208 2 0 0
1.664 -0.73799998 -0.20900001 150 16 0
1.6720001 -0.736 -0.20900001 150 16 0
1.677 -0.73299998 -0.20900001 150 16 0
1.6849999 -0.73000002 -0.20999999 150 16 0
1.6950001 -0.72899997 -0.211 2 0 0
1.696 -0.72399998 -0.20999999 150 16 0
1.7079999 -0.72299999 -0.211 150 16 0
1.711 -0.71799999 -0.211 150 16 0
1.7180001 -0.71600002 -0.211 150 16 0
1.727 -0.71399999 -0.211 150 16 0
1.734 -0.71100003 -0.212 150 16 0
1.74 -0.70700002 -0.212 150 16 0
1.745 -0.70300001 -0.212 150 16 0
1.755 -0.70200002 -0.212 150 16 0
1.76 -0.69800001 -0.212 150 16 0
1.77 -0.69499999 -0.212 150 16 0
1.775 -0.69099998 -0.212 150 16 0
1.78 -0.68800002 -0.212 63 0 0
1.7920001 -0.68599999 -0.212 60 0 0
1.7970001 -0.68199998 -0.212 65 0 0
1.802 -0.67699999 -0.211 43 0 0
1.8099999 -0.67500001 -0.212 1 0 0
1.8200001 -0.67199999 -0.212 2 0 0
1.825 -0.66799998 -0.211 1 0 0
1.837 -0.66600001 -0.212 1 0 0
1.85 -0.66500002 -0.212 1 0 0
1.855 -0.66000003 -0.212 150 16 0
1.862 -0.65600002 -0.211 150 16 0
1.868 -0.65200001 -0.211 150 16 0
1.877 -0.64899999 -0.211 150 16 0
1.885 -0.64499998 -0.20999999 150 16 0
1.892 -0.64200002 -0.20999999 150 16 0
1.901 -0.63800001 -0.20999999 144 16 0
1.91 -0.63499999 -0.20900001 149 16 0
1.9170001 -0.63099998 -0.20900001 150 16 0
1.924 -0.62699997 -0.208 150 16 0
1.932 -0.62300003 -0.208 129 16 0
1.938 -0.61799997 -0.207 137 16 0
1.957 -0.61799997 -0.208 149 19 0
1.96 -0.61199999 -0.207 129 16 0
1.967 -0.60799998 -0.206 114 16 0
1.9809999 -0.60600001 -0.206 124 16 0
1.989 -0.602 -0.206 122 16 0
1.9960001 -0.597 -0.205 111 16 0
2.0050001 -0.59299999 -0.204 114 16 0
2.016 -0.58999997 -0.204 125 16 0
2.0239999 -0.58499998 -0.20299999 114 16 0
2.033 -0.58200002 -0.20200001 112 16 0
2.046 -0.57800001 -0.20200001 102 16 0
2.049 -0.57300001 -0.20100001 107 16 0
2.059 -0.56900001 -0.2 106 16 0
2.073 -0.56599998 -0.2 112 16 0
2.0799999 -0.56099999 -0.199 112 16 0
2.0910001 -0.55699998 -0.198 101 16 0
2.0999999 -0.55299997 -0.197 100 16 0
2.109 -0.54799998 -0.19599999 101 16 0
2.1259999 -0.54500002 -0.19599999 104 16 0
2.1329999 -0.54000002 -0.19499999 98 16 0
2.142 -0.53600001 -0.19400001 101 16 0
2.1470001 -0.52999997 -0.192 84 16 0
2.171 -0.52899998 -0.192 99 19 0
2.1789999 -0.52399999 -0.191 96 16 0
2.1889999 -0.51899999 -0.19 87 16 0
2.1960001 -0.514 -0.189 89 16 0
2.204 -0.509 -0.18700001 79 16 0
2.221 -0.505 -0.18700001 83 16 0
2.2279999 -0.5 -0.185 65 16 0
2.2420001 -0.49599999 -0.184 76 16 0
2.253 -0.491 -0.183 73 16 0
2.266 -0.486 -0.182 71 16 0
2.277 -0.48199999 -0.18099999 73 16 0
2.2880001 -0.477 -0.18000001 70 16 0
2.3010001 -0.472 -0.178 78 16 0
2.312 -0.46700001 -0.177 74 16 0
2.325 -0.46200001 -0.176 71 16 0
2.3340001 -0.45699999 -0.17399999 66 16 0
2.349 -0.45199999 -0.17299999 69 16 0
2.359 -0.447 -0.171 65 16 0
2.3729999 -0.442 -0.17 55 16 0
2.3840001 -0.43599999 -0.168 68 16 0
2.4030001 -0.43200001 -0.167 76 16 0
2.4119999 -0.426 -0.16500001 67 16 0
2.425 -0.421 -0.164 67 16 0
2.4360001 -0.41499999 -0.162 61 16 0
2.451 -0.41 -0.16 36 16 0
2.46 -0.40400001 -0.15800001 32 16 0
2.474 -0.398 -0.15700001 31 16 0
2.4879999 -0.39300001 -0.155 32 16 0
2.4979999 -0.38699999 -0.153 31 16 0
2.5109999 -0.38100001 -0.15099999 31 16 0
2.5280001 -0.37599999 -0.149 31 16 0
2.5420001 -0.37 -0.147 29 16 0
2.552 -0.36300001 -0.145 30 16 0
2.572 -0.35800001 -0.14399999 29 16 0
2.586 -0.352 -0.142 31 16 0
2.5999999 -0.34599999 -0.139 29 16 0
2.6110001 -0.34 -0.13699999 31 16 0
2.6300001 -0.33399999 -0.13500001 31 16 0
2.6440001 -0.32699999 -0.133 30 16 0
2.6570001 -0.32100001 -0.131 30 16 0
2.677 -0.315 -0.12899999 30 16 0
2.688 -0.308 -0.126 31 16 0
2.7060001 -0.30199999 -0.124 30 16 0
2.724 -0.296 -0.122 28 16 0
2.733 -0.28799999 -0.119 29 16 0
2.7490001 -0.28200001 -0.116 27 16 0
2.7639999 -0.27500001 -0.114 27 16 0
2.7839999 -0.26800001 -0.111 29 16 0
2.7950001 -0.26100001 -0.109 28 16 0
2.812 -0.25400001 -0.106 28 16 0
2.8329999 -0.24699999 -0.103 27 16 0
2.846 -0.23999999 -0.101 27 16 0
2.865 -0.233 -0.097999997 27 16 0
2.8829999 -0.22499999 -0.094999999 26 16 0
2.898 -0.21799999 -0.092 27 16 0
2.914 -0.20999999 -0.089000002 27 16 0
2.9319999 -0.20299999 -0.086000003 26 16 0
2.9549999 -0.19499999 -0.082999997 26 16 0
2.974 -0.18799999 -0.079999998 26 16 0
2.99 -0.18000001 -0.077 27 16 0
3.006 -0.171 -0.072999999 25 16 0
3.033 -0.164 -0.07 26 16 0
3.05 -0.156 -0.067000002 27 16 0
3.073 -0.148 -0.064000003 26 16 0
3.0929999 -0.139 -0.059999999 26 16 0
3.118 -0.131 -0.057 26 16 0
3.1329999 -0.123 -0.052999999 27 16 0
3.152 -0.114 -0.048999999 25 16 0
3.175 -0.105 -0.046 27 16 0
3.1989999 -0.096000001 -0.041999999 27 16 0
3.2149999 -0.086999997 -0.037999999 28 16 0
3.24 -0.078000002 -0.034000002 29 16 0
3.257 -0.068999998 -0.029999999 93 16 0
3.2609999 -0.059 -0.026000001 150 16 0
3.2579999 -0.050000001 -0.022 128 16 0
3.2539999 -0.039999999 -0.017999999 138 16 0
3.25 -0.029999999 -0.013 129 16 0
3.2449999 -0.021 -0.0089999996 70 16 0
3.25 -0.011 -0.0049999999 22 16 0
3.2739999 -0.001 0 17 16 0
3.299 0.0070000002 0.003 18 16 0
3.3210001 0.017000001 0.0070000002 20 16 0
3.3399999 0.027000001 0.012 39 16 0
3.3280001 0.037 0.016000001 58 16 0
3.325 0.046999998 0.021 56 16 0
3.3329999 0.056000002 0.025 40 16 0
3.3269999 0.066 0.029999999 52 16 0
3.3199999 0.075999998 0.034000002 64 16 0
3.322 0.085000001 0.039000001 50 16 0
3.3199999 0.094999999 0.043000001 49 16 0
3.313 0.105 0.048 54 16 0
3.309 0.114 0.052000001 53 16 0
3.302 0.123 0.057 46 16 0
3.2539999 0.131 0.061000001 89 18 0
3.2309999 0.14 0.064999998 95 16 0
3.2320001 0.149 0.068999998 97 16 0
3.2290001 0.15800001 0.074000001 85 16 0
3.2279999 0.168 0.078000002 95 16 0
3.2260001 0.177 0.082999997 101 16 0
3.224 0.186 0.088 93 16 0
3.23 0.19599999 0.092 120 16 0
3.237 0.206 0.097000003 93 16 0
3.221 0.214 0.101 46 16 0
3.217 0.22400001 0.106 45 16 0
3.2320001 0.234 0.111 44 16 0
3.2620001 0.24600001 0.117 55 16 0
3.2590001 0.255 0.122 45 16 0
3.2349999 0.26199999 0.125 33 16 0
3.207 0.26899999 0.12899999 26 16 0
3.2249999 0.28 0.13500001 38 16 0
3.22 0.289 0.139 36 16 0
3.2060001 0.29699999 0.14300001 35 16 0
3.2 0.30599999 0.148 33 16 0
3.1860001 0.31400001 0.152 31 16 0
3.177 0.322 0.15700001 32 16 0
3.1619999 0.33000001 0.161 31 16 0
3.1530001 0.338 0.16500001 39 16 0
3.141 0.34599999 0.169 46 16 0
3.1340001 0.354 0.17399999 77 16 0
3.1270001 0.36199999 0.178 134 16 0
3.122 0.37099999 0.183 150 16 0
3.1210001 0.37900001 0.18700001 150 16 0
3.1199999 0.38800001 0.192 150 16 0
3.112 0.396 0.197 150 16 0
3.1110001 0.405 0.20100001 150 16 0
3.115 0.414 0.207 150 16 0
3.108 0.42199999 0.211 150 16 0
3.105 0.43099999 0.21600001 150 16 0
3.1040001 0.43900001 0.221 150 16 0
3.102 0.44800001 0.226 150 16 0
3.0999999 0.45699999 0.23100001 150 16 0
3.102 0.46599999 0.236 150 16 0
3.0969999 0.47400001 0.23999999 150 16 0
3.0929999 0.48199999 0.245 150 16 0
3.0940001 0.491 0.25 150 16 0
3.089 0.49900001 0.255 150 16 0
3.0869999 0.50800002 0.25999999 150 16 0
3.086 0.51599997 0.26499999 150 16 0
3.0829999 0.52499998 0.27000001 150 16 0
3.0829999 0.53299999 0.27500001 150 16 0
3.0810001 0.542 0.28 150 16 0
3.0780001 0.55000001 0.285 150 16 0
3.075 0.55800003 0.28999999 150 16 0
3.075 0.56699997 0.29499999 150 16 0
3.0739999 0.57599998 0.30000001 150 16 0
3.0699999 0.58399999 0.30500001 150 16 0
3.0680001 0.59200001 0.31 150 16 0
3.0650001 0.60000002 0.315 150 16 0
3.063 0.60799998 0.32100001 150 16 0
3.062 0.61699998 0.32600001 150 16 0
3.0599999 0.625 0.331 150 16 0
3.056 0.63300002 0.336 150 16 0
3.0550001 0.64099997 0.34099999 150 16 0
3.052 0.64899999 0.34599999 150 16 0
3.052 0.65799999 0.352 150 16 0
3.0480001 0.66600001 0.35699999 150 16 0
3.0480001 0.67400002 0.36199999 150 16 0
3.0439999 0.68199998 0.36700001 150 16 0
3.043 0.69 0.373 150 16 0
3.039 0.69800001 0.37799999 150 16 0
3.039 0.70599997 0.38299999 150 16 0
3.0380001 0.71499997 0.389 150 16 0
3.0350001 0.722 0.39399999 150 16 0
3.0350001 0.73100001 0.40000001 150 16 0
3.0320001 0.73900002 0.405 150 16 0
3.033 0.74699998 0.41100001 150 16 0
3.03 0.755 0.41600001 150 16 0
3.026 0.76300001 0.421 150 16 0
3.0250001 0.77100003 0.42699999 150 16 0
3.0209999 0.778 0.43200001 150 16 0
3.0190001 0.78600001 0.43799999 150 16 0
3.017 0.79400003 0.44299999 150 16 0
3.0220001 0.80299997 0.44999999 150 16 0
3.0179999 0.81099999 0.45500001 150 16 0
3.0139999 0.81800002 0.46000001 150 16 0
3.01 0.82499999 0.46599999 150 16 0
3.013 0.83399999 0.472 150 16 0
3.007 0.84100002 0.477 150 16 0
3.007 0.84899998 0.48300001 150 16 0
3.007 0.85699999 0.48899999 150 16 0
3.0039999 0.86500001 0.495 150 16 0
2.997 0.87099999 0.49900001 91 16 0
2.984 0.875 0.50300002 47 16 0
2.9749999 0.88099998 0.50800002 41 16 0
2.961 0.88499999 0.51200002 41 16 0
2.957 0.89099997 0.51700002 41 16 0
2.9389999 0.89399999 0.51999998 42 16 0
2.9330001 0.89999998 0.52499998 40 16 0
2.927 0.90600002 0.52999997 43 16 0
2.9159999 0.91100001 0.53399998 42 16 0
2.904 0.91500002 0.53799999 41 16 0
2.8970001 0.92000002 0.54299998 44 16 0
2.885 0.92400002 0.54699999 42 16 0
2.8729999 0.92799997 0.55000001 41 16 0
2.865 0.93300003 0.55500001 43 16 0
2.855 0.93699998 0.55900002 41 16 0
2.8429999 0.94099998 0.56300002 41 16 0
2.8329999 0.94499999 0.56699997 43 16 0
2.822 0.949 0.57099998 44 16 0
2.8150001 0.954 0.57499999 44 16 0
2.8050001 0.958 0.57999998 42 16 0
2.789 0.95999998 0.58200002 44 16 0
2.78 0.96399999 0.58700001 44 16 0
2.773 0.96899998 0.59100002 43 16 0
2.766 0.97299999 0.59600002 41 16 0
2.753 0.97600001 0.59899998 40 16 0
2.7460001 0.98000002 0.60399997 41 16 0
2.7360001 0.98400003 0.60799998 59 16 0
2.7279999 0.98799998 0.61199999 61 16 0
2.72 0.99199998 0.616 61 16 0
2.7090001 0.995 0.62 62 16 0
2.7 0.99800003 0.62400001 55 16 0
2.6900001 1.001 0.62800002 65 16 0
2.6789999 1.0039999 0.63200003 64 16 0
2.6719999 1.008 0.63599998 63 16 0
2.6570001 1.0089999 0.639 64 16 0
2.6470001 1.012 0.64200002 68 16 0
2.6429999 1.017 0.648 67 16 0
2.635 1.02 0.65200001 67 16 0
2.6210001 1.021 0.65399998 60 16 0
2.619 1.027 0.66000003 66 16 0
2.6059999 1.028 0.66299999 60 16 0
2.595 1.03 0.66600001 62 16 0
2.586 1.033 0.67000002 67 16 0
2.5810001 1.0369999 0.67500001 67 16 0
2.573 1.04 0.67900002 70 16 0
2.5639999 1.0420001 0.68199998 76 16 0
2.55 1.0420001 0.685 73 16 0
2.5409999 1.044 0.68900001 64 16 0
2.5339999 1.0470001 0.69300002 67 16 0
2.5250001 1.05 0.69700003 66 16 0
2.517 1.052 0.69999999 71 16 0
2.51 1.0549999 0.70499998 69 16 0
2.5020001 1.057 0.70899999 72 16 0
2.4949999 1.059 0.71200001 67 16 0
2.4820001 1.059 0.71499997 70 16 0
2.477 1.063 0.72000003 67 16 0
2.4660001 1.064 0.722 67 16 0
2.46 1.066 0.727 63 16 0
2.454 1.069 0.73100001 68 16 0
2.4400001 1.068 0.73299998 57 16 0
2.4330001 1.0700001 0.73699999 59 16 0
2.428 1.073 0.741 62 16 0
2.4219999 1.075 0.745 65 16 0
2.4130001 1.076 0.74900001 64 16 0
2.4070001 1.079 0.75300002 63 16 0
2.402 1.081 0.75700003 60 16 0
2.3929999 1.082 0.75999999 64 16 0
2.3840001 1.082 0.76300001 66 16 0
2.375 1.0829999 0.76599997 71 16 0
2.3670001 1.084 0.76899999 75 16 0
2.362 1.086 0.77399999 76 16 0
2.3529999 1.086 0.77700001 60 16 0
2.345 1.087 0.77999997 70 16 0
2.339 1.0880001 0.78399998 78 16 0
2.3310001 1.089 0.787 77 16 0
2.322 1.089 0.79000002 71 16 0
2.313 1.089 0.792 79 16 0
2.302 1.0880001 0.79500002 76 16 0
2.2950001 1.0880001 0.79799998 79 16 0
2.2920001 1.091 0.80299997 80 16 0
2.283 1.09 0.80500001 69 16 0
2.2750001 1.09 0.80800003 78 16 0
2.273 1.092 0.81300002 84 16 0
2.2620001 1.091 0.81400001 76 16 0
2.256 1.091 0.81800002 75 16 0
2.247 1.091 0.81999999 78 16 0
2.24 1.091 0.82300001 82 16 0
2.234 1.091 0.82599998 83 16 0
2.2290001 1.092 0.82999998 82 16 0
2.221 1.09 0.83200002 86 16 0
2.2179999 1.092 0.83700001 76 16 0
2.211 1.092 0.83999997 81 16 0
2.2049999 1.091 0.84200001 72 16 0
2.197 1.09 0.84500003 77 16 0
2.187 1.0880001 0.84600002 72 16 0
2.1800001 1.087 0.84799999 74 16 0
2.1719999 1.086 0.85100001 71 16 0
2.1700001 1.087 0.85500002 78 16 0
2.1619999 1.086 0.85699999 78 16 0
2.1570001 1.085 0.86000001 79 16 0
2.1530001 1.086 0.86400002 87 16 0
2.1440001 1.0829999 0.86500001 74 16 0
2.1400001 1.0829999 0.86799997 71 16 0
2.1329999 1.082 0.87 80 16 0
2.128 1.081 0.87300003 79 16 0
2.1229999 1.08 0.87599999 72 16 0
2.1159999 1.079 0.87800002 79 16 0
2.1140001 1.079 0.88200003 83 16 0
2.1070001 1.077 0.884 81 16 0
2.0999999 1.075 0.88499999 84 16 0
2.098 1.075 0.889 88 16 0
2.0929999 1.074 0.89099997 83 16 0
2.0869999 1.072 0.89300001 82 16 0
2.0840001 1.072 0.89600003 83 16 0
2.073 1.067 0.89600003 80 16 0
2.072 1.067 0.89999998 82 16 0
2.069 1.067 0.903 84 16 0
2.063 1.064 0.90399998 83 16 0
2.0610001 1.064 0.90799999 110 16 0
2.0539999 1.061 0.90899998 96 16 0
2.0550001 1.062 0.91299999 102 16 0
2.0409999 1.056 0.91100001 108 18 0
2.039 1.0549999 0.91399997 99 16 0
2.039 1.0549999 0.91799998 110 16 0
2.0320001 1.052 0.91900003 105 16 0
2.0250001 1.048 0.91900003 98 16 0
2.0239999 1.048 0.92299998 98 16 0
2.02 1.046 0.92400002 101 16 0
2.017 1.044 0.926 86 16 0
2.0109999 1.041 0.92699999 87 16 0
2.01 1.039 0.93000001 90 16 0
2.003 1.036 0.93000001 90 16 0
2 1.033 0.93199998 97 16 0
1.999 1.0319999 0.935 96 16 0
1.993 1.029 0.935 93 16 0
1.988 1.026 0.93599999 82 16 0
1.988 1.024 0.93900001 84 16 0
1.9809999 1.02 0.93800002 82 19 0
1.98 1.018 0.94099998 86 16 0
1.978 1.016 0.94300002 89 16 0
1.975 1.0140001 0.94400001 86 16 0
1.974 1.012 0.94599998 97 16 0
1.972 1.0089999 0.94800001 99 16 0
1.9680001 1.006 0.94800001 95 16 0
1.964 1.002 0.949 97 16 0
1.9630001 1.001 0.95099998 99 16 0
1.9579999 0.99599999 0.94999999 97 16 0
1.957 0.99400002 0.95200002 98 16 0
1.952 0.99000001 0.95200002 99 16 0
1.95 0.98699999 0.95300001 97 16 0
1.95 0.98500001 0.95499998 99 16 0
1.947 0.98100001 0.95499998 95 16 0
1.948 0.98000002 0.95700002 98 16 0
1.942 0.97500002 0.95599997 94 16 0
1.946 0.97399998 0.95999998 100 16 0
1.942 0.97000003 0.95999998 100 16 0
1.9400001 0.96700001 0.95999998 109 16 0
1.937 0.963 0.95999998 108 16 0
1.936 0.95999998 0.96100003 107 16 0
1.9349999 0.95700002 0.96200001 112 16 0
1.936 0.954 0.963 110 16 0
1.933 0.94999999 0.963 107 16 0
1.932 0.94700003 0.963 111 16 0
1.932 0.94400001 0.96399999 105 16 0
1.9299999 0.94 0.96399999 107 16 0
1.933 0.93900001 0.96700001 114 16 0
1.929 0.93300003 0.96499997 109 16 0
1.924 0.92799997 0.963 113 16 0
1.926 0.926 0.96499997 107 16 0
1.926 0.92299998 0.96600002 110 16 0
1.9220001 0.91799998 0.96399999 116 16 0
1.923 0.91500002 0.96499997 112 16 0
1.925 0.912 0.96600002 120 16 0
1.923 0.90799999 0.96499997 117 16 0
1.925 0.90499997 0.96600002 113 16 0
1.925 0.90200001 0.96600002 118 16 0
1.924 0.89700001 0.96499997 113 16 0
1.925 0.89399999 0.96600002 121 16 0
1.926 0.89099997 0.96600002 121 16 0
1.928 0.88800001 0.96600002 125 16 0
1.926 0.88300002 0.96499997 118 16 0
1.928 0.88 0.96600002 123 16 0
1.9299999 0.87699997 0.96600002 119 16 0
1.931 0.87400001 0.96600002 118 16 0
1.933 0.87 0.96600002 130 16 0
1.933 0.866 0.96499997 127 16 0
1.9349999 0.86299998 0.96499997 127 16 0
1.9349999 0.85900003 0.96399999 130 16 0
1.936 0.85500002 0.96399999 136 16 0
1.936 0.85100001 0.963 136 16 0
1.938 0.847 0.963 129 16 0
1.937 0.84299999 0.96100003 127 16 0
1.941 0.83999997 0.96100003 132 16 0
1.941 0.83600003 0.95999998 138 16 0
1.946 0.833 0.96100003 123 16 0
1.9450001 0.82800001 0.95899999 133 16 0
1.947 0.82499999 0.958 137 16 0
1.949 0.82099998 0.958 139 16 0
1.95 0.81699997 0.95599997 135 16 0
1.955 0.81400001 0.95700002 150 16 0
1.954 0.80900002 0.95499998 119 16 0
1.956 0.80500001 0.954 121 16 0
1.959 0.80199999 0.95300001 130 16 0
1.961 0.79799998 0.95200002 128 16 0
1.9630001 0.79400003 0.95099998 127 16 0
1.966 0.79000002 0.94999999 121 16 0
1.9680001 0.78600001 0.949 126 16 0
1.97 0.78200001 0.94700003 144 16 0
1.972 0.778 0.94599998 125 16 0
1.974 0.77399999 0.94400001 118 16 0
1.976 0.76999998 0.94300002 111 16 0
1.98 0.76599997 0.94199997 118 16 0
1.9859999 0.764 0.94199997 120 16 0
1.9910001 0.76099998 0.94199997 120 16 0
1.994 0.75700003 0.94 121 16 0
1.992 0.75099999 0.93699998 120 16 0
1.999 0.74900001 0.93699998 130 16 0
2.0020001 0.745 0.935 120 16 0
2.003 0.74000001 0.93300003 124 16 0
2.006 0.736 0.93099999 121 16 0
2.0120001 0.73299998 0.93000001 127 16 0
2.013 0.72799999 0.92799997 123 16 0
2.0209999 0.72600001 0.92799997 126 16 0
2.0179999 0.72000003 0.92299998 130 16 0
2.0239999 0.71700001 0.92299998 123 16 0
2.03 0.71399999 0.92199999 135 16 0
2.0320001 0.70899999 0.91900003 126 16 0
2.0369999 0.70599997 0.91799998 124 16 0
2.0409999 0.70200002 0.91600001 129 16 0
2.0450001 0.69800001 0.91399997 132 16 0
2.0480001 0.69400001 0.912 130 16 0
2.052 0.69 0.91000003 125 16 0
2.063 0.68800002 0.91000003 133 16 0
2.063 0.68300003 0.90700001 135 16 0
2.066 0.67900002 0.90399998 132 16 0
2.076 0.67699999 0.90399998 132 16 0
2.0799999 0.67299998 0.90200001 147 16 0
2.0840001 0.66900003 0.89999998 137 16 0
2.0869999 0.66399997 0.89700001 138 16 0
2.096 0.662 0.89700001 144 16 0
2.099 0.65799999 0.89399999 150 16 0
2.1059999 0.65399998 0.89200002 143 16 0
2.105 0.64899999 0.88800001 128 16 0
2.1129999 0.64600003 0.88599998 130 16 0
2.122 0.64300001 0.88499999 126 16 0
2.125 0.639 0.88200003 119 16 0
2.132 0.63499999 0.88 128 16 0
2.1340001 0.63099998 0.87699997 130 16 0
2.1429999 0.62800002 0.87599999 150 16 0
2.148 0.62400001 0.87300003 150 16 0
2.151 0.62 0.87 146 16 0
2.1600001 0.61699998 0.86799997 145 16 0
2.1619999 0.61199999 0.86400002 144 16 0
2.1719999 0.60900003 0.86299998 150 16 0
2.178 0.60600001 0.861 147 16 0
2.1849999 0.602 0.85900003 147 16 0
2.1949999 0.60000002 0.85799998 144 16 0
2.1960001 0.59399998 0.85299999 143 16 0
2.201 0.59100002 0.85000002 140 16 0
2.2049999 0.58600003 0.84600002 136 16 0
2.2149999 0.58399999 0.84500003 133 16 0
2.2190001 0.579 0.84100002 142 16 0
2.2279999 0.57599998 0.83899999 130 16 0
2.2349999 0.57300001 0.83700001 128 16 0
2.2420001 0.56900001 0.83399999 125 16 0
2.253 0.56599998 0.83200002 138 16 0
2.2590001 0.56199998 0.829 123 16 0
2.2639999 0.55800003 0.82599998 131 16 0
2.2709999 0.55500001 0.82300001 125 16 0
2.277 0.551 0.81900001 113 16 0
2.2839999 0.54699999 0.81599998 129 16 0
2.2939999 0.54400003 0.81400001 106 16 0
2.3010001 0.54100001 0.81099999 109 16 0
2.3069999 0.53600001 0.80699998 100 16 0
2.3139999 0.53299999 0.80400002 106 16 0
2.323 0.52899998 0.801 105 16 0
2.3280001 0.52499998 0.79699999 98 16 0
2.332 0.52100003 0.79299998 107 16 0
2.3410001 0.51700002 0.79000002 96 16 0
2.3469999 0.51300001 0.78600001 112 16 0
2.359 0.51099998 0.78399998 105 16 0
2.365 0.50700003 0.77999997 95 16 0
2.3759999 0.50400001 0.77700001 99 16 0
2.382 0.49900001 0.773 94 16 0
2.388 0.495 0.76899999 96 16 0
2.3989999 0.49200001 0.76700002 95 16 0
2.408 0.48899999 0.76300001 100 16 0
2.4130001 0.484 0.75800002 101 16 0
2.4219999 0.48100001 0.755 91 16 0
2.434 0.47799999 0.75199997 91 16 0
2.441 0.47400001 0.74800003 90 16 0
2.45 0.47 0.74400002 93 16 0
2.4619999 0.46700001 0.74199998 86 16 0
2.4690001 0.463 0.73699999 87 16 0
2.4779999 0.46000001 0.73400003 83 16 0
2.4849999 0.456 0.72899997 87 16 0
2.4920001 0.45199999 0.72399998 76 16 0
2.5050001 0.449 0.722 87 16 0
2.516 0.44499999 0.71799999 84 16 0
2.5239999 0.44100001 0.713 80 16 0
2.536 0.43799999 0.70999998 66 16 0
2.5420001 0.43399999 0.70499998 66 16 0
2.55 0.43000001 0.70099998 57 16 0
2.563 0.42699999 0.69700003 60 16 0
2.569 0.42300001 0.69199997 67 16 0
2.586 0.41999999 0.69 51 16 0
2.5940001 0.41600001 0.685 57 16 0
2.6029999 0.412 0.68000001 57 16 0
2.6140001 0.40799999 0.676 47 16 0
2.6210001 0.40400001 0.671 47 16 0
2.6370001 0.40099999 0.667 60 16 0
2.642 0.39700001 0.662 54 16 0
2.654 0.39300001 0.65700001 50 16 0
2.661 0.389 0.65200001 51 16 0
2.668 0.38499999 0.64600003 45 16 0
2.6849999 0.382 0.64300001 43 16 0
2.694 0.37799999 0.63800001 45 16 0
2.7049999 0.37400001 0.63300002 43 16 0
2.717 0.37099999 0.62900001 40 16 0
2.7309999 0.36700001 0.62400001 40 16 0
2.74 0.36300001 0.61900002 39 16 0
2.7509999 0.359 0.61400002 38 16 0
2.763 0.35499999 0.60900003 39 16 0
2.77 0.35100001 0.60299999 38 16 0
2.783 0.347 0.59799999 38 16 0
2.802 0.345 0.59399998 36 16 0
2.8080001 0.34 0.588 38 16 0
2.8239999 0.33700001 0.58399999 37 16 0
2.8329999 0.33199999 0.57800001 35 16 0
2.8440001 0.32800001 0.57200003 37 16 0
2.859 0.32499999 0.56699997 38 16 0
2.8740001 0.32100001 0.56199998 38 16 0
2.878 0.31600001 0.55500001 36 16 0
2.8970001 0.31299999 0.551 37 16 0
2.905 0.30899999 0.54400003 37 16 0
2.921 0.30500001 0.53899997 36 16 0
2.9319999 0.301 0.53299999 36 16 0
2.947 0.29699999 0.52700001 35 16 0
2.9579999 0.29300001 0.52100003 37 16 0
2.9690001 0.289 0.51499999 37 16 0
2.9849999 0.285 0.509 38 16 0
2.9990001 0.28099999 0.50300002 37 16 0
3.0120001 0.27700001 0.49700001 38 16 0
3.023 0.273 0.49000001 37 16 0
3.0439999 0.26899999 0.48500001 35 16 0
3.059 0.26499999 0.479 35 16 0
3.069 0.26100001 0.472 31 16 0
3.092 0.257 0.46700001 30 16 0
3.1059999 0.25299999 0.46000001 30 16 0
3.125 0.249 0.454 31 16 0
3.1370001 0.245 0.447 32 16 0
3.1570001 0.241 0.44100001 32 16 0
3.1730001 0.237 0.43399999 33 16 0
3.1819999 0.23199999 0.42699999 32 16 0
3.198 0.228 0.41999999 33 16 0
3.22 0.22400001 0.414 33 16 0
3.233 0.219 0.40599999 32 16 0
3.2460001 0.215 0.39899999 31 16 0
3.266 0.211 0.39199999 32 16 0
3.2780001 0.206 0.384 40 16 0
3.2950001 0.20200001 0.377 139 16 0
3.2920001 0.19599999 0.36700001 138 16 0
3.2869999 0.19 0.35699999 116 16 0
3.286 0.185 0.34799999 127 16 0
3.2869999 0.18000001 0.33899999 129 16 0
3.2839999 0.17399999 0.329 114 16 0
3.286 0.169 0.31999999 134 16 0
3.2839999 0.164 0.31 141 16 0
3.2820001 0.15800001 0.301 114 16 0
3.283 0.153 0.292 118 16 0
3.2820001 0.148 0.28200001 119 16 0
3.2780001 0.142 0.273 145 16 0
3.276 0.13699999 0.26300001 139 16 0
3.277 0.132 0.25400001 135 16 0
3.2750001 0.127 0.245 131 16 0
3.276 0.122 0.235 135 16 0
3.2750001 0.117 0.226 136 16 0
3.2679999 0.111 0.21600001 150 16 0
3.2690001 0.106 0.207 150 16 0
3.2679999 0.101 0.197 141 16 0
3.2690001 0.096000001 0.18799999 124 16 0
3.26 0.090999998 0.178 129 16 0
3.2609999 0.086000003 0.169 122 16 0
3.2620001 0.081 0.16 144 16 0
3.2620001 0.075999998 0.15000001 128 16 0
3.2620001 0.071000002 0.141 129 16 0
3.26 0.066 0.131 126 16 0
3.2650001 0.061999999 0.122 41 16 0
3.2850001 0.057 0.113 29 16 0
3.3010001 0.052000001 0.105 29 16 0
3.325 0.048 0.096000001 27 16 0
3.3440001 0.043000001 0.086999997 14 16 0
3.3599999 0.037999999 0.077 21 16 0
3.3570001 0.033 0.068000004 43 16 0
3.3610001 0.028999999 0.057999998 53 16 0
3.349 0.024 0.048 33 16 0
3.339 0.018999999 0.037999999 20 16 0
3.3180001 0.014 0.028000001 18 16 0
3.306 0.0089999996 0.018999999 17 16 0
3.2920001 0.0040000002 0.0089999996 17 16 0
3.28 0 0 16 16 0
3.2620001 -0.0040000002 -0.0089999996 16 16 0
3.2479999 -0.0089999996 -0.018999999 16 16 0
3.2360001 -0.013 -0.028000001 20 16 0
3.224 -0.017999999 -0.037 30 16 0
3.22 -0.022 -0.046 47 16 0
3.2219999 -0.027000001 -0.056000002 104 16 0
3.2219999 -0.030999999 -0.064999998 104 16 0
3.221 -0.035999998 -0.075000003 113 16 0
3.2160001 -0.039999999 -0.083999999 119 16 0
3.2149999 -0.045000002 -0.093000002 131 16 0
3.214 -0.048999999 -0.103 136 16 0
3.211 -0.052999999 -0.112 126 16 0
3.2119999 -0.057999998 -0.122 126 16 0
3.2049999 -0.061999999 -0.131 150 16 0
3.2060001 -0.066 -0.14 150 16 0
3.1989999 -0.071000002 -0.149 115 16 0
3.2 -0.075000003 -0.15899999 43 16 0
3.184 -0.079000004 -0.167 30 16 0
3.1689999 -0.082999997 -0.176 26 16 0
3.158 -0.086999997 -0.185 25 16 0
3.141 -0.090000004 -0.193 25 16 0
3.1259999 -0.093999997 -0.20100001 24 16 0
3.1229999 -0.097999997 -0.20999999 24 16 0
3.108 -0.102 -0.219 24 16 0
3.089 -0.105 -0.227 23 16 0
3.0869999 -0.109 -0.236 24 16 0
3.0769999 -0.113 -0.244 24 16 0
3.063 -0.116 -0.252 23 16 0
3.05 -0.119 -0.25999999 24 16 0
3.036 -0.123 -0.26800001 23 16 0
3.026 -0.126 -0.27599999 24 16 0
3.017 -0.13 -0.28400001 24 16 0
3.0079999 -0.133 -0.29300001 24 16 0
2.9890001 -0.13600001 -0.30000001 24 16 0
2.983 -0.14 -0.308 23 16 0
2.9719999 -0.14300001 -0.31600001 24 16 0
2.9630001 -0.146 -0.324 27 16 0
2.95 -0.149 -0.331 26 16 0
2.944 -0.152 -0.34 26 16 0
2.931 -0.155 -0.347 26 16 0
2.927 -0.15899999 -0.35499999 26 16 0
2.9100001 -0.161 -0.36199999 26 16 0
2.8989999 -0.164 -0.37 27 16 0
2.892 -0.167 -0.37799999 26 16 0
2.8829999 -0.17 -0.38499999 27 16 0
2.8699999 -0.17299999 -0.39199999 26 16 0
2.8670001 -0.176 -0.40000001 26 16 0
2.8540001 -0.17900001 -0.40700001 26 16 0
2.8429999 -0.182 -0.414 26 16 0
2.835 -0.184 -0.42199999 25 16 0
2.832 -0.18799999 -0.43000001 26 16 0
2.8169999 -0.19 -0.43700001 26 16 0
2.813 -0.193 -0.44499999 27 16 0
2.799 -0.19499999 -0.45100001 26 16 0
2.7850001 -0.197 -0.45699999 26 16 0
2.78 -0.2 -0.465 27 16 0
2.7709999 -0.20299999 -0.472 26 16 0
2.767 -0.206 -0.47999999 26 16 0
2.757 -0.208 -0.48699999 26 16 0
2.747 -0.20999999 -0.49399999 25 16 0
2.7349999 -0.212 -0.5 25 16 0
2.7320001 -0.215 -0.50800002 26 16 0
2.727 -0.21799999 -0.51599997 27 16 0
2.7160001 -0.22 -0.52200001 25 16 0
2.711 -0.222 -0.52999997 26 16 0
2.697 -0.22400001 -0.53500003 25 16 0
2.6889999 -0.226 -0.542 25 16 0
2.687 -0.229 -0.55000001 26 16 0
2.6789999 -0.23100001 -0.55699998 26 16 0
2.6719999 -0.234 -0.56400001 26 16 0
2.6700001 -0.236 -0.57200003 26 16 0
2.6589999 -0.23800001 -0.57800001 26 16 0
2.6530001 -0.23999999 -0.58499998 26 16 0
2.6440001 -0.242 -0.59200001 26 16 0
2.6359999 -0.244 -0.59799999 25 16 0
2.6259999 -0.24600001 -0.60399997 25 16 0
2.6210001 -0.248 -0.611 25 16 0
2.615 -0.25 -0.61799997 26 16 0
2.6099999 -0.252 -0.62599999 26 16 0
2.605 -0.25400001 -0.63300002 26 16 0
2.5899999 -0.25600001 -0.63700002 26 16 0
2.586 -0.25799999 -0.64499998 26 16 0
2.5799999 -0.25999999 -0.65100002 29 16 0
2.572 -0.26100001 -0.65799999 29 16 0
2.5639999 -0.26300001 -0.66399997 29 16 0
2.5580001 -0.26499999 -0.671 34 16 0
2.553 -0.26699999 -0.67799997 35 16 0
2.5469999 -0.26800001 -0.68400002 35 16 0
2.5420001 -0.27000001 -0.69099998 34 16 0
2.533 -0.27200001 -0.69700003 34 16 0
2.5309999 -0.27399999 -0.70499998 37 16 0
2.523 -0.27500001 -0.70999998 35 16 0
2.52 -0.27700001 -0.71799999 35 16 0
2.5079999 -0.278 -0.72299999 33 16 0
2.5009999 -0.27900001 -0.72899997 33 16 0
2.4979999 -0.28099999 -0.736 36 16 0
2.4909999 -0.28299999 -0.74199998 34 16 0
2.4849999 -0.28400001 -0.74900001 33 16 0
2.4820001 -0.28600001 -0.75599998 35 16 0
2.473 -0.287 -0.76099998 33 16 0
2.47 -0.289 -0.76899999 37 16 0
2.4660001 -0.28999999 -0.77499998 33 16 0
2.46 -0.29100001 -0.78100002 35 16 0
2.4519999 -0.29300001 -0.787 36 16 0
2.4460001 -0.294 -0.79299998 34 16 0
2.4419999 -0.29499999 -0.80000001 36 16 0
2.434 -0.296 -0.80599999 33 16 0
2.4319999 -0.29800001 -0.81300002 38 16 0
2.4219999 -0.29800001 -0.81800002 39 16 0
2.4189999 -0.30000001 -0.82499999 40 16 0
2.4159999 -0.301 -0.83200002 35 16 0
2.408 -0.30199999 -0.83700001 39 16 0
2.4059999 -0.303 -0.84399998 41 16 0
2.4030001 -0.30500001 -0.85100001 38 16 0
2.391 -0.30500001 -0.85500002 38 16 0
2.3870001 -0.30599999 -0.86199999 38 16 0
2.3829999 -0.30700001 -0.86799997 39 16 0
2.382 -0.308 -0.875 37 16 0
2.3770001 -0.30899999 -0.88200003 40 16 0
2.375 -0.31 -0.889 43 16 0
2.368 -0.31099999 -0.89399999 36 16 0
2.3629999 -0.31200001 -0.89999998 38 16 0
2.3629999 -0.31299999 -0.90799999 37 16 0
2.3510001 -0.31299999 -0.912 40 16 0
2.3499999 -0.31400001 -0.91900003 41 16 0
2.346 -0.315 -0.92500001 46 16 0
2.3410001 -0.31600001 -0.93099999 44 16 0
2.335 -0.31600001 -0.93599999 49 16 0
2.335 -0.317 -0.94400001 64 16 0
2.326 -0.317 -0.949 49 16 0
2.326 -0.31900001 -0.95700002 61 16 0
2.323 -0.31900001 -0.963 64 16 0
2.3210001 -0.31999999 -0.97000003 64 16 0
2.3139999 -0.31999999 -0.97500002 62 16 0
2.3110001 -0.32100001 -0.98100001 65 16 0
2.3039999 -0.32100001 -0.986 60 16 0
2.3050001 -0.322 -0.99400002 65 16 0
2.2980001 -0.322 -0.99900001 60 16 0
2.2980001 -0.32300001 -1.007 63 16 0
2.2920001 -0.32300001 -1.012 60 16 0
2.2920001 -0.324 -1.02 59 16 0
2.286 -0.324 -1.025 63 16 0
2.283 -0.324 -1.031 60 16 0
2.28 -0.32499999 -1.0369999 61 16 0
2.28 -0.32499999 -1.045 61 16 0
2.2739999 -0.32499999 -1.05 61 16 0
2.2720001 -0.32499999 -1.056 62 16 0
2.2679999 -0.32600001 -1.062 59 16 0
2.2650001 -0.32600001 -1.068 65 16 0
2.263 -0.32600001 -1.075 61 16 0
2.26 -0.32600001 -1.081 60 16 0
2.257 -0.32600001 -1.087 52 16 0
2.253 -0.32600001 -1.0930001 57 16 0
2.2509999 -0.32600001 -1.099 61 16 0
2.2479999 -0.32600001 -1.105 58 16 0
2.244 -0.32600001 -1.11 60 16 0
2.2449999 -0.32600001 -1.118 72 16 0
2.24 -0.32600001 -1.123 84 16 0
2.237 -0.32600001 -1.1289999 78 16 0
2.234 -0.32499999 -1.1339999 73 16 0
2.2309999 -0.32499999 -1.14 74 16 0
