# .PCD v0.7 - Point Cloud Data file format
VERSION 0.7
FIELDS x y z intensity tag line
SIZE 4 4 4 4 1 1
TYPE F F F F U U
COUNT 1 1 1 1 1 1
WIDTH 1359
HEIGHT 1
VIEWPOINT 0 0 0 1 0 0 0
POINTS 1359
DATA ascii
2.188 -0.352 -1.108 78 16 0
2.188 -0.352 -1.115 86 16 0
2.184 -0.352 -1.1210001 82 16 0
2.1849999 -0.352 -1.128 84 16 0
2.1819999 -0.352 -1.1339999 78 16 0
2.1789999 -0.352 -1.1390001 84 16 0
2.178 -0.35100001 -1.145 77 16 0
2.175 -0.35100001 -1.151 77 16 0
2.174 -0.35100001 -1.1569999 76 16 0
2.1719999 -0.35100001 -1.163 75 16 0
2.1730001 -0.35100001 -1.17 71 16 0
2.1659999 -0.34999999 -1.173 76 16 0
2.1630001 -0.34900001 -1.179 77 16 0
2.1659999 -0.34900001 -1.187 75 16 0
2.1630001 -0.34900001 -1.192 70 16 0
2.1600001 -0.34799999 -1.197 72 16 0
2.1630001 -0.34799999 -1.205 75 16 0
2.1619999 -0.34799999 -1.211 81 16 0
2.1589999 -0.347 -1.216 79 16 0
2.1570001 -0.34599999 -1.221 74 16 0
2.154 -0.345 -1.226 69 16 0
2.155 -0.345 -1.233 79 16 0
2.155 -0.34400001 -1.239 79 16 0
2.1500001 -0.34299999 -1.243 72 16 0
2.1500001 -0.34200001 -1.249 71 16 0
2.152 -0.34200001 -1.256 73 16 0
2.152 -0.34099999 -1.263 71 16 0
2.1530001 -0.34099999 -1.2690001 70 16 0
2.1530001 -0.34 -1.275 74 16 0
2.148 -0.338 -1.278 70 16 0
2.145 -0.33700001 -1.283 62 16 0
2.1459999 -0.336 -1.289 59 16 0
2.145 -0.33500001 -1.295 59 16 0
2.1459999 -0.33399999 -1.301 61 16 0
2.1470001 -0.333 -1.307 63 16 0
2.148 -0.333 -1.314 59 16 0
2.1500001 -0.33199999 -1.321 59 16 0
2.148 -0.33000001 -1.325 60 16 0
2.1470001 -0.329 -1.33 57 16 0
2.145 -0.32699999 -1.334 55 16 0
2.148 -0.32600001 -1.341 59 16 0
2.152 -0.32600001 -1.349 59 16 0
2.1500001 -0.324 -1.353 55 16 0
2.152 -0.32300001 -1.36 51 16 0
2.1500001 -0.32100001 -1.363 53 16 0
2.1489999 -0.31900001 -1.368 48 16 0
2.154 -0.31900001 -1.376 53 16 0
2.1559999 -0.317 -1.382 51 16 0
2.1589999 -0.31600001 -1.3890001 54 16 0
2.1570001 -0.31400001 -1.392 54 16 0
2.1570001 -0.31200001 -1.397 52 16 0
2.158 -0.31099999 -1.402 50 16 0
2.1600001 -0.30899999 -1.408 45 16 0
2.1589999 -0.30700001 -1.4119999 44 16 0
2.161 -0.30500001 -1.4170001 39 16 0
2.1619999 -0.30399999 -1.4220001 37 16 0
2.1659999 -0.30199999 -1.429 38 16 0
2.168 -0.301 -1.4349999 43 16 0
2.1700001 -0.29899999 -1.4400001 44 16 0
2.174 -0.29699999 -1.446 40 16 0
2.175 -0.29499999 -1.451 42 16 0
2.174 -0.29300001 -1.454 42 16 0
2.175 -0.29100001 -1.4579999 53 16 0
2.1800001 -0.289 -1.465 49 16 0
2.184 -0.287 -1.471 48 16 0
2.184 -0.285 -1.474 42 16 0
2.184 -0.28299999 -1.478 40 16 0
2.1930001 -0.28099999 -1.487 41 19 0
2.198 -0.27900001 -1.493 41 16 0
2.197 -0.27700001 -1.4960001 39 16 0
2.1989999 -0.27500001 -1.5 37 16 0
2.2 -0.27200001 -1.503 35 16 0
2.2060001 -0.27000001 -1.51 36 16 0
2.207 -0.26800001 -1.513 36 16 0
2.2130001 -0.266 -1.5190001 36 16 0
2.214 -0.26300001 -1.523 36 16 0
2.2219999 -0.26100001 -1.53 39 19 0
2.223 -0.25799999 -1.533 35 16 0
2.2249999 -0.25600001 -1.536 35 16 0
2.2279999 -0.25299999 -1.54 34 16 0
2.234 -0.25099999 -1.546 37 16 0
2.237 -0.248 -1.549 36 16 0
2.24 -0.24600001 -1.553 36 16 0
2.2409999 -0.243 -1.5549999 34 16 0
2.2509999 -0.241 -1.563 34 18 0
2.2539999 -0.23800001 -1.567 35 16 0
2.2539999 -0.235 -1.567 34 16 0
2.2609999 -0.233 -1.573 35 16 0
2.266 -0.23 -1.577 35 16 0
2.27 -0.228 -1.581 34 16 0
2.27 -0.22400001 -1.581 33 16 0
2.276 -0.222 -1.586 33 16 0
2.2780001 -0.219 -1.5880001 33 16 0
2.2850001 -0.21600001 -1.5930001 33 19 0
2.2909999 -0.213 -1.597 34 16 0
2.296 -0.211 -1.6 34 16 0
2.2969999 -0.208 -1.601 33 16 0
2.3050001 -0.205 -1.6059999 33 19 0
2.312 -0.20200001 -1.61 33 16 0
2.316 -0.199 -1.613 33 16 0
2.319 -0.19599999 -1.614 33 16 0
2.3280001 -0.193 -1.619 33 19 0
2.332 -0.19 -1.6210001 33 16 0
2.3380001 -0.18700001 -1.624 34 16 0
2.345 -0.184 -1.627 33 16 0
2.349 -0.18099999 -1.6289999 32 16 0
2.3559999 -0.178 -1.632 34 16 0
2.3629999 -0.175 -1.636 34 16 0
2.365 -0.17200001 -1.635 34 16 0
2.369 -0.169 -1.636 34 16 0
2.3789999 -0.16599999 -1.641 35 16 0
2.385 -0.163 -1.643 33 16 0
2.3929999 -0.16 -1.646 34 16 0
2.3970001 -0.15700001 -1.646 33 16 0
2.4030001 -0.154 -1.648 33 16 0
2.411 -0.15099999 -1.651 34 16 0
2.415 -0.147 -1.65 34 16 0
2.428 -0.145 -1.6569999 33 19 0
2.4300001 -0.141 -1.655 35 16 0
2.4349999 -0.138 -1.655 35 16 0
2.437 -0.13500001 -1.653 34 16 0
2.4560001 -0.132 -1.6619999 36 18 0
2.457 -0.12899999 -1.66 36 16 0
2.4649999 -0.125 -1.661 35 16 0
2.474 -0.122 -1.664 35 16 0
2.477 -0.119 -1.6619999 34 16 0
2.4849999 -0.116 -1.663 35 16 0
2.4909999 -0.113 -1.663 35 16 0
2.497 -0.109 -1.663 34 16 0
2.5039999 -0.106 -1.6619999 34 16 0
2.5139999 -0.103 -1.665 36 16 0
2.5179999 -0.1 -1.663 40 16 0
2.527 -0.097000003 -1.664 85 16 0
2.5350001 -0.093999997 -1.664 150 16 0
2.5339999 -0.090000004 -1.659 150 16 0
2.5339999 -0.086999997 -1.654 150 16 0
2.5339999 -0.082999997 -1.648 150 16 0
2.5380001 -0.079999998 -1.645 150 16 0
2.54 -0.077 -1.641 150 16 0
2.5380001 -0.072999999 -1.6339999 150 16 0
2.5380001 -0.07 -1.6289999 150 16 0
2.54 -0.067000002 -1.625 150 16 0
2.5409999 -0.064000003 -1.62 150 16 0
2.5420001 -0.061000001 -1.614 150 16 0
2.5420001 -0.057999998 -1.608 150 16 0
2.5450001 -0.054000001 -1.604 150 16 0
2.5469999 -0.050999999 -1.599 150 16 0
2.546 -0.048 -1.592 150 16 0
2.54 -0.045000002 -1.5829999 150 16 0
2.543 -0.041999999 -1.5779999 75 16 0
2.55 -0.039000001 -1.575 38 16 0
2.5550001 -0.035999998 -1.572 30 16 0
2.5610001 -0.033 -1.569 25 16 0
2.5699999 -0.030999999 -1.568 25 16 0
2.5769999 -0.028000001 -1.5650001 25 16 0
2.586 -0.025 -1.564 25 16 0
2.592 -0.022 -1.5599999 25 16 0
2.5969999 -0.018999999 -1.557 26 16 0
2.6059999 -0.017000001 -1.5549999 26 16 0
2.6140001 -0.014 -1.552 26 16 0
2.619 -0.011 -1.548 27 16 0
2.6259999 -0.0080000004 -1.545 28 16 0
2.6300001 -0.0060000001 -1.54 30 16 0
2.6489999 -0.003 -1.544 36 16 0
2.655 -0.001 -1.539 56 16 0
2.6589999 0.001 -1.533 107 16 0
2.6600001 0.003 -1.526 150 16 0
2.6600001 0.0060000001 -1.5190001 150 16 0
2.665 0.0089999996 -1.5140001 150 16 0
2.665 0.011 -1.505 150 16 0
2.664 0.013 -1.497 150 16 0
2.6630001 0.016000001 -1.488 150 16 0
2.6659999 0.017999999 -1.482 150 16 0
2.668 0.021 -1.475 150 16 0
2.674 0.023 -1.47 150 16 0
2.6719999 0.025 -1.461 150 16 0
2.671 0.027000001 -1.452 150 16 0
2.675 0.028999999 -1.446 150 16 0
2.6789999 0.030999999 -1.439 150 16 0
2.6819999 0.034000002 -1.432 142 16 0
2.6819999 0.035999998 -1.424 150 16 0
2.6889999 0.037999999 -1.42 150 16 0
2.6919999 0.039999999 -1.4119999 150 16 0
2.6889999 0.041999999 -1.402 150 16 0
2.6960001 0.044 -1.397 150 16 0
2.701 0.046 -1.391 150 16 0
2.697 0.046999998 -1.38 150 16 0
2.7 0.048999999 -1.373 150 16 0
2.7030001 0.050999999 -1.3660001 150 16 0
2.707 0.052999999 -1.359 150 16 0
2.71 0.055 -1.352 150 16 0
2.7119999 0.056000002 -1.344 150 16 0
2.717 0.057999998 -1.3380001 150 16 0
2.7160001 0.059999999 -1.3279999 150 16 0
2.7190001 0.061000001 -1.3200001 150 16 0
2.723 0.063000001 -1.313 150 16 0
2.727 0.064000003 -1.306 150 16 0
2.7249999 0.066 -1.296 150 16 0
2.7279999 0.067000002 -1.288 150 16 0
2.733 0.068999998 -1.2819999 150 16 0
2.7349999 0.07 -1.274 150 16 0
2.734 0.071999997 -1.2640001 150 16 0
2.7420001 0.072999999 -1.2589999 150 16 0
2.7449999 0.074000001 -1.251 150 16 0
2.7479999 0.075999998 -1.243 150 16 0
2.7479999 0.077 -1.234 150 16 0
2.7509999 0.078000002 -1.225 150 16 0
2.7539999 0.079000004 -1.2180001 150 16 0
2.7579999 0.079999998 -1.21 150 16 0
2.7609999 0.081 -1.202 150 16 0
2.7650001 0.082999997 -1.194 150 16 0
2.7679999 0.083999999 -1.186 150 16 0
2.7720001 0.085000001 -1.179 150 16 0
2.7739999 0.086000003 -1.17 150 16 0
2.776 0.086999997 -1.1619999 150 16 0
2.7809999 0.088 -1.154 150 16 0
2.7809999 0.088 -1.145 150 16 0
2.7820001 0.089000002 -1.136 150 16 0
2.79 0.090000004 -1.13 150 16 0
2.7939999 0.090999998 -1.122 150 16 0
2.7980001 0.092 -1.114 150 16 0
2.799 0.093000002 -1.105 150 16 0
2.8039999 0.093000002 -1.097 150 16 0
2.8110001 0.093999997 -1.09 150 16 0
2.8110001 0.094999999 -1.081 150 16 0
2.8139999 0.094999999 -1.072 150 16 0
2.8180001 0.096000001 -1.064 150 16 0
2.8210001 0.096000001 -1.056 150 16 0
2.8239999 0.097000003 -1.0470001 150 16 0
2.8310001 0.097999997 -1.04 150 16 0
2.8299999 0.097999997 -1.03 150 16 0
2.8329999 0.097999997 -1.022 150 16 0
2.8399999 0.098999999 -1.0140001 150 16 0
2.839 0.098999999 -1.0039999 150 16 0
2.846 0.1 -0.99699998 150 16 0
2.849 0.1 -0.98799998 150 16 0
2.852 0.1 -0.98000002 150 16 0
2.8510001 0.101 -0.97000003 150 16 0
2.862 0.101 -0.96399999 150 16 0
2.8610001 0.101 -0.954 150 16 0
2.8659999 0.101 -0.94599998 150 16 0
2.8670001 0.102 -0.93599999 150 16 0
2.8729999 0.102 -0.92900002 150 16 0
2.8759999 0.102 -0.92000002 150 16 0
2.8829999 0.102 -0.912 150 16 0
2.8870001 0.102 -0.90399998 150 16 0
2.8889999 0.102 -0.89499998 150 16 0
2.8929999 0.102 -0.88599998 150 16 0
2.895 0.102 -0.87699997 150 16 0
2.902 0.102 -0.86900002 150 16 0
2.9059999 0.102 -0.86000001 150 16 0
2.908 0.102 -0.85100001 150 16 0
2.915 0.102 -0.84399998 150 16 0
2.9200001 0.102 -0.83499998 150 16 0
2.9219999 0.102 -0.82599998 150 16 0
2.9219999 0.101 -0.81599998 150 16 0
2.9289999 0.101 -0.80800003 150 16 0
2.9319999 0.101 -0.79900002 150 16 0
2.937 0.101 -0.79100001 150 16 0
2.9400001 0.1 -0.78100002 150 16 0
2.9419999 0.1 -0.77200001 150 16 0
2.95 0.1 -0.764 150 16 0
2.9549999 0.1 -0.75599998 150 16 0
2.957 0.098999999 -0.74599999 150 16 0
2.9579999 0.098999999 -0.73699999 150 16 0
2.9660001 0.097999997 -0.72899997 150 16 0
2.967 0.097999997 -0.71899998 150 16 0
2.973 0.097000003 -0.71100003 150 16 0
2.9779999 0.097000003 -0.70200002 150 16 0
2.9809999 0.096000001 -0.69300002 150 16 0
2.9849999 0.096000001 -0.68400002 150 16 0
2.9890001 0.094999999 -0.67500001 150 16 0
2.9960001 0.094999999 -0.66600001 150 16 0
3 0.093999997 -0.65700001 150 16 0
3.0050001 0.093999997 -0.64899999 150 16 0
3.006 0.093000002 -0.639 150 16 0
3.016 0.092 -0.63099998 150 16 0
3.016 0.090999998 -0.62099999 150 16 0
3.0220001 0.090999998 -0.61199999 150 16 0
3.026 0.090000004 -0.60299999 150 16 0
3.03 0.089000002 -0.59399998 150 16 0
3.033 0.088 -0.58399999 150 16 0
3.0380001 0.088 -0.57499999 150 16 0
3.043 0.086999997 -0.56599998 150 16 0
3.046 0.086000003 -0.55699998 150 16 0
3.052 0.085000001 -0.54799998 150 16 0
3.0580001 0.083999999 -0.53899997 150 16 0
3.0599999 0.082999997 -0.52899998 150 16 0
3.0669999 0.082000002 -0.51999998 150 16 0
3.072 0.081 -0.51099998 150 16 0
3.0769999 0.079999998 -0.50199997 150 16 0
3.0869999 0.079000004 -0.49399999 150 16 0
3.092 0.078000002 -0.484 150 16 0
3.0929999 0.077 -0.47400001 150 16 0
3.0999999 0.075999998 -0.465 142 16 0
3.105 0.075000003 -0.456 130 16 0
3.1070001 0.074000001 -0.44600001 129 16 0
3.109 0.072999999 -0.43599999 126 16 0
3.1140001 0.071000002 -0.42699999 131 16 0
3.122 0.07 -0.41800001 150 16 0
3.1229999 0.068999998 -0.40799999 150 16 0
3.132 0.068000004 -0.39899999 145 16 0
3.135 0.067000002 -0.389 141 16 0
3.1429999 0.064999998 -0.38 132 16 0
3.148 0.064000003 -0.37 136 16 0
3.154 0.063000001 -0.361 137 16 0
3.155 0.061000001 -0.35100001 96 16 0
3.165 0.059999999 -0.34200001 80 16 0
3.1700001 0.059 -0.33199999 59 16 0
3.1730001 0.057 -0.322 58 16 0
3.175 0.056000002 -0.31200001 52 16 0
3.1819999 0.054000001 -0.30199999 52 16 0
3.1919999 0.052999999 -0.29300001 59 16 0
3.1960001 0.050999999 -0.28299999 67 16 0
3.1960001 0.050000001 -0.273 66 16 0
3.204 0.048 -0.26300001 80 16 0
3.211 0.046 -0.25299999 107 16 0
3.211 0.045000002 -0.243 141 16 0
3.214 0.043000001 -0.233 126 16 0
3.2260001 0.041999999 -0.22400001 133 16 0
3.223 0.039999999 -0.213 113 16 0
3.233 0.037999999 -0.20299999 115 16 0
3.243 0.035999998 -0.19400001 150 16 0
3.2479999 0.035 -0.183 135 16 0
3.25 0.033 -0.17299999 123 16 0
3.2590001 0.030999999 -0.163 110 16 0
3.266 0.028999999 -0.153 91 16 0
3.2679999 0.027000001 -0.14300001 53 16 0
3.2720001 0.026000001 -0.133 46 16 0
3.2720001 0.024 -0.122 35 16 0
3.276 0.022 -0.112 27 16 0
3.2780001 0.02 -0.102 25 16 0
3.273 0.017999999 -0.090999998 22 16 0
3.273 0.016000001 -0.081 22 16 0
3.283 0.014 -0.071000002 21 16 0
3.2739999 0.012 -0.059999999 20 16 0
3.277 0.0099999998 -0.050000001 20 16 0
3.2720001 0.0080000004 -0.039000001 19 16 0
3.277 0.0049999999 -0.028999999 19 16 0
3.276 0.003 -0.017999999 19 16 0
3.277 0.001 -0.0080000004 19 16 0
3.277 0 0.001 19 16 0
3.2720001 -0.0020000001 0.012 19 16 0
3.2720001 -0.0040000002 0.022 20 16 0
3.267 -0.0060000001 0.033 23 16 0
3.2650001 -0.0089999996 0.043000001 26 16 0
3.2709999 -0.011 0.052999999 35 16 0
3.273 -0.013 0.064000003 45 16 0
3.28 -0.015 0.074000001 86 16 0
3.286 -0.017999999 0.085000001 140 16 0
3.29 -0.02 0.094999999 150 16 0
3.2969999 -0.023 0.106 150 16 0
3.3010001 -0.025 0.116 150 16 0
3.3050001 -0.027000001 0.127 150 16 0
3.3150001 -0.029999999 0.138 150 16 0
3.3210001 -0.032000002 0.149 145 16 0
3.3280001 -0.035 0.15899999 150 16 0
3.3310001 -0.037 0.17 150 16 0
3.3399999 -0.039999999 0.18099999 149 16 0
3.342 -0.043000001 0.192 150 16 0
3.3529999 -0.045000002 0.20299999 150 16 0
3.3599999 -0.048 0.214 150 16 0
3.3659999 -0.050999999 0.22499999 150 16 0
3.372 -0.052999999 0.236 150 16 0
3.3759999 -0.056000002 0.24699999 150 16 0
3.382 -0.059 0.25799999 150 16 0
3.3859999 -0.061999999 0.26899999 113 16 0
3.3870001 -0.064000003 0.28 55 16 0
3.3870001 -0.067000002 0.29100001 39 16 0
3.3840001 -0.07 0.301 31 16 0
3.3800001 -0.071999997 0.31099999 30 16 0
3.382 -0.075000003 0.322 30 16 0
3.3770001 -0.078000002 0.33199999 32 16 0
3.378 -0.081 0.34299999 39 16 0
3.359 -0.082999997 0.352 44 16 0
3.345 -0.086000003 0.361 41 16 0
3.3280001 -0.088 0.36899999 36 16 0
3.312 -0.090000004 0.37799999 35 16 0
3.289 -0.093000002 0.38600001 35 16 0
3.2739999 -0.094999999 0.39399999 34 16 0
3.253 -0.097000003 0.40200001 35 16 0
3.237 -0.1 0.41 36 16 0
3.22 -0.102 0.41800001 35 16 0
3.201 -0.104 0.426 41 16 0
3.1849999 -0.107 0.43399999 39 16 0
3.1630001 -0.109 0.44100001 38 16 0
3.1459999 -0.111 0.44800001 38 16 0
3.1289999 -0.114 0.456 38 16 0
3.1110001 -0.116 0.463 37 16 0
3.092 -0.118 0.47 36 16 0
3.0769999 -0.12 0.477 37 16 0
3.063 -0.123 0.484 39 16 0
3.039 -0.125 0.49000001 38 16 0
3.026 -0.127 0.498 38 16 0
3.0120001 -0.12899999 0.505 38 16 0
2.9949999 -0.132 0.51200002 39 16 0
2.9860001 -0.134 0.51899999 38 16 0
2.97 -0.13600001 0.52600002 38 16 0
2.9460001 -0.138 0.53100002 38 16 0
2.938 -0.141 0.53899997 38 16 0
2.9289999 -0.14300001 0.546 38 16 0
2.9159999 -0.146 0.55299997 39 16 0
2.892 -0.148 0.55800003 37 16 0
2.881 -0.15000001 0.56400001 38 16 0
2.872 -0.152 0.57200003 38 16 0
2.8559999 -0.155 0.57700002 38 16 0
2.8440001 -0.15700001 0.58399999 41 16 0
2.832 -0.15899999 0.58999997 40 16 0
2.8180001 -0.162 0.59600002 40 16 0
2.803 -0.164 0.602 45 16 0
2.786 -0.16599999 0.60699999 40 16 0
2.7709999 -0.168 0.61199999 39 16 0
2.763 -0.17 0.61900002 40 16 0
2.7479999 -0.17299999 0.625 39 16 0
2.7360001 -0.175 0.63099998 39 16 0
2.7219999 -0.177 0.63599998 42 16 0
2.711 -0.17900001 0.64200002 41 16 0
2.6919999 -0.18099999 0.64600003 49 16 0
2.6849999 -0.184 0.653 45 16 0
2.671 -0.186 0.65700001 91 16 0
2.658 -0.18799999 0.662 100 16 0
2.6440001 -0.19 0.667 117 16 0
2.6329999 -0.193 0.67299998 127 16 0
2.6240001 -0.19499999 0.67900002 110 16 0
2.608 -0.197 0.68300003 98 16 0
2.598 -0.2 0.68800002 100 16 0
2.5899999 -0.20200001 0.69400001 108 16 0
2.579 -0.205 0.69999999 103 16 0
2.569 -0.207 0.70499998 73 16 0
2.5569999 -0.20900001 0.70899999 86 16 0
2.549 -0.212 0.71499997 75 16 0
2.5380001 -0.214 0.72000003 78 16 0
2.527 -0.21600001 0.72500002 91 16 0
2.517 -0.219 0.73000002 113 16 0
2.5079999 -0.221 0.73500001 128 16 0
2.497 -0.223 0.74000001 131 16 0
2.49 -0.226 0.74599999 122 16 0
2.477 -0.228 0.74900001 114 16 0
2.4690001 -0.23100001 0.755 120 16 0
2.457 -0.233 0.759 134 16 0
2.4489999 -0.235 0.764 131 16 0
2.437 -0.23800001 0.76700002 135 16 0
2.425 -0.23999999 0.77100003 128 16 0
2.4170001 -0.242 0.77600002 122 16 0
2.408 -0.245 0.78100002 140 16 0
2.402 -0.24699999 0.78600001 126 16 0
2.385 -0.249 0.78799999 119 16 0
2.3759999 -0.25099999 0.792 132 16 0
2.3740001 -0.255 0.79900002 141 16 0
2.362 -0.257 0.80199999 133 16 0
2.3540001 -0.259 0.80699998 133 16 0
2.345 -0.26199999 0.81099999 140 16 0
2.336 -0.264 0.815 130 16 0
2.3280001 -0.266 0.81900001 135 16 0
2.3180001 -0.26899999 0.82300001 137 16 0
2.3080001 -0.271 0.82599998 130 16 0
2.299 -0.27399999 0.82999998 147 16 0
2.2909999 -0.27599999 0.83499998 142 16 0
2.2780001 -0.278 0.83700001 128 16 0
2.2720001 -0.28099999 0.84100002 142 16 0
2.2639999 -0.28299999 0.84500003 150 16 0
2.2539999 -0.28600001 0.84799999 149 16 0
2.2490001 -0.28799999 0.85299999 150 16 0
2.2390001 -0.29100001 0.85600001 150 16 0
2.2249999 -0.292 0.85799998 150 16 0
2.2190001 -0.29499999 0.86199999 150 16 0
2.2149999 -0.29800001 0.86699998 150 16 0
2.207 -0.301 0.87099999 150 16 0
2.197 -0.303 0.87300003 150 16 0
2.1900001 -0.30500001 0.87699997 150 16 0
2.1800001 -0.308 0.87900001 150 16 0
2.171 -0.31 0.88300002 150 16 0
2.165 -0.31299999 0.88599998 150 16 0
2.1559999 -0.315 0.889 150 16 0
2.1489999 -0.31799999 0.89200002 150 16 0
2.1429999 -0.31999999 0.89700001 150 16 0
2.1359999 -0.32300001 0.89999998 150 16 0
2.1300001 -0.32600001 0.903 150 16 0
2.1210001 -0.32800001 0.90600002 150 16 0
2.109 -0.33000001 0.90700001 150 16 0
2.105 -0.333 0.91100001 150 16 0
2.1010001 -0.336 0.91500002 150 16 0
2.092 -0.338 0.91799998 150 16 0
2.0829999 -0.34 0.92000002 150 16 0
2.0769999 -0.34299999 0.92299998 150 16 0
2.0699999 -0.34599999 0.92500001 150 16 0
2.062 -0.34799999 0.92799997 150 16 0
2.0569999 -0.35100001 0.93199998 150 16 0
2.053 -0.354 0.935 150 16 0
2.046 -0.35699999 0.93800002 150 16 0
2.0409999 -0.36000001 0.94099998 150 16 0
2.0320001 -0.36199999 0.94300002 150 16 0
2.03 -0.36500001 0.94700003 150 16 0
2.023 -0.368 0.94999999 150 16 0
2.013 -0.37 0.94999999 150 16 0
2.007 -0.37200001 0.95300001 150 16 0
1.998 -0.37400001 0.954 150 16 0
1.995 -0.37799999 0.958 150 16 0
1.992 -0.38100001 0.96200001 150 16 0
1.984 -0.38299999 0.963 150 16 0
1.977 -0.38600001 0.96499997 150 16 0
1.972 -0.389 0.96799999 150 16 0
1.967 -0.391 0.97100002 150 16 0
1.961 -0.39399999 0.97299999 150 16 0
1.9579999 -0.39700001 0.97600001 150 16 0
1.951 -0.40000001 0.97799999 150 16 0
1.952 -0.40400001 0.98299998 150 16 0
1.936 -0.40400001 0.98000002 150 16 0
1.928 -0.40700001 0.98100001 150 16 0
1.924 -0.40900001 0.98400003 150 16 0
1.921 -0.41299999 0.98699999 150 16 0
1.919 -0.41600001 0.99000001 150 16 0
1.913 -0.419 0.99199998 150 16 0
1.9069999 -0.421 0.99299997 150 16 0
1.905 -0.42500001 0.99699998 150 16 0
1.901 -0.428 0.99900001 150 16 0
1.9 -0.43099999 1.003 150 16 0
1.8940001 -0.43399999 1.0039999 150 16 0
1.887 -0.43599999 1.005 150 16 0
1.883 -0.43900001 1.007 150 16 0
1.8789999 -0.442 1.0089999 150 16 0
1.873 -0.44400001 1.01 150 16 0
1.867 -0.447 1.011 150 16 0
1.864 -0.44999999 1.013 150 16 0
1.862 -0.45300001 1.016 150 16 0
1.859 -0.456 1.018 150 16 0
1.857 -0.46000001 1.021 150 16 0
1.85 -0.46200001 1.021 150 16 0
1.848 -0.465 1.024 150 16 0
1.8380001 -0.46700001 1.022 150 16 0
1.836 -0.47 1.024 150 16 0
1.835 -0.47299999 1.027 150 16 0
1.83 -0.47600001 1.028 150 16 0
1.825 -0.479 1.028 150 16 0
1.825 -0.48199999 1.0319999 150 16 0
1.8279999 -0.48699999 1.036 150 16 0
1.822 -0.48899999 1.036 150 16 0
1.824 -0.493 1.041 150 16 0
1.813 -0.49399999 1.0369999 150 16 0
1.8049999 -0.49599999 1.036 150 16 0
1.8049999 -0.49900001 1.038 150 16 0
1.803 -0.50300002 1.04 150 16 0
1.798 -0.505 1.04 150 16 0
1.798 -0.509 1.043 150 16 0
1.796 -0.51200002 1.045 150 16 0
1.7920001 -0.514 1.045 150 16 0
1.79 -0.51800001 1.046 150 16 0
1.784 -0.51899999 1.044 150 16 0
1.7819999 -0.52200001 1.046 150 16 0
1.78 -0.52499998 1.0470001 150 16 0
1.779 -0.52899998 1.048 150 16 0
1.777 -0.53200001 1.049 150 16 0
1.776 -0.53500003 1.051 150 16 0
1.774 -0.53799999 1.052 150 16 0
1.771 -0.54000002 1.052 150 16 0
1.771 -0.54400003 1.053 150 16 0
1.768 -0.546 1.053 150 16 0
1.7640001 -0.54900002 1.053 150 16 0
1.765 -0.55199999 1.0549999 150 16 0
1.765 -0.55599999 1.057 150 16 0
1.7640001 -0.55900002 1.057 150 16 0
1.763 -0.56199998 1.058 150 16 0
1.76 -0.56400001 1.057 150 16 0
1.755 -0.56599998 1.0549999 150 16 0
1.758 -0.56999999 1.058 150 16 0
1.763 -0.57499999 1.062 150 16 0
1.755 -0.57599998 1.059 150 16 0
1.7589999 -0.57999998 1.062 150 16 0
1.762 -0.58399999 1.0650001 150 16 0
1.7640001 -0.588 1.066 139 16 0
1.768 -0.59200001 1.069 108 16 0
1.7690001 -0.59600002 1.071 86 16 0
1.771 -0.59899998 1.072 71 16 0
1.778 -0.60500002 1.077 65 19 0
1.783 -0.60900003 1.08 65 16 0
1.783 -0.61199999 1.08 59 16 0
1.7869999 -0.61699998 1.082 55 16 0
1.7869999 -0.61900002 1.082 55 16 0
1.793 -0.62400001 1.086 54 19 0
1.796 -0.62800002 1.087 49 16 0
1.795 -0.63099998 1.087 48 16 0
1.804 -0.63700002 1.092 48 18 0
1.8049999 -0.639 1.092 48 16 0
1.808 -0.64300001 1.0930001 51 16 0
1.809 -0.64600003 1.0930001 44 16 0
1.811 -0.64899999 1.094 43 16 0
1.814 -0.653 1.095 39 16 0
1.812 -0.65499997 1.0930001 40 16 0
1.817 -0.65899998 1.095 44 16 0
1.817 -0.66100001 1.094 41 16 0
1.817 -0.66399997 1.092 42 16 0
1.819 -0.667 1.092 42 16 0
1.817 -0.66799998 1.09 43 16 0
1.823 -0.67299998 1.092 39 19 0
1.826 -0.676 1.092 43 16 0
1.819 -0.67500001 1.087 40 19 0
1.824 -0.67900002 1.0880001 40 16 0
1.826 -0.68199998 1.087 38 16 0
1.827 -0.68400002 1.086 42 16 0
1.825 -0.685 1.0829999 38 16 0
1.827 -0.68800002 1.082 41 16 0
1.8279999 -0.68900001 1.08 42 16 0
1.821 -0.68900001 1.075 39 19 0
1.822 -0.69099998 1.073 39 16 0
1.822 -0.69199997 1.071 37 16 0
1.823 -0.69400001 1.069 38 16 0
1.824 -0.69599998 1.066 40 16 0
1.822 -0.69599998 1.063 44 16 0
1.8200001 -0.69700003 1.059 45 16 0
1.818 -0.69700003 1.0549999 57 16 0
1.817 -0.69800001 1.052 69 16 0
1.816 -0.699 1.048 90 16 0
1.814 -0.699 1.045 95 16 0
1.816 -0.70099998 1.043 119 16 0
1.818 -0.70300001 1.041 149 16 0
1.822 -0.70499998 1.04 150 16 0
1.821 -0.70599997 1.036 150 16 0
1.823 -0.70700002 1.034 150 16 0
1.8329999 -0.71200001 1.036 150 19 0
1.835 -0.713 1.034 150 16 0
1.8329999 -0.713 1.029 150 16 0
1.8430001 -0.71700001 1.031 150 19 0
1.8430001 -0.71700001 1.027 150 16 0
1.85 -0.72100002 1.027 150 16 0
1.854 -0.72299999 1.026 150 16 0
1.8559999 -0.72399998 1.024 150 16 0
1.858 -0.72500002 1.021 150 16 0
1.865 -0.72799999 1.021 150 16 0
1.8710001 -0.73000002 1.02 150 16 0
1.876 -0.73199999 1.018 150 16 0
1.878 -0.73299998 1.015 150 16 0
1.885 -0.73500001 1.015 150 16 0
1.891 -0.73699999 1.013 150 16 0
1.895 -0.73900002 1.011 150 16 0
1.898 -0.74000001 1.0089999 150 16 0
1.9 -0.74000001 1.005 150 16 0
1.908 -0.74199998 1.005 150 16 0
1.91 -0.74299997 1.001 150 16 0
1.9170001 -0.745 1 150 16 0
1.923 -0.74699998 0.99900001 150 16 0
1.925 -0.74699998 0.995 150 16 0
1.937 -0.75099999 0.99599999 126 16 0
1.947 -0.75400001 0.99599999 95 16 0
1.951 -0.755 0.99400002 83 16 0
1.954 -0.755 0.99000001 116 16 0
1.956 -0.755 0.986 150 16 0
1.962 -0.75599998 0.98400003 150 16 0
1.967 -0.75700003 0.98100001 150 16 0
1.97 -0.75700003 0.97799999 150 16 0
1.979 -0.759 0.977 150 16 0
1.982 -0.759 0.97299999 150 16 0
1.9859999 -0.759 0.96899998 150 16 0
1.993 -0.75999999 0.96700001 150 16 0
2 -0.76099998 0.96600002 150 16 0
2.003 -0.76099998 0.96100003 150 16 0
2.0150001 -0.764 0.96100003 150 16 0
2.0190001 -0.764 0.958 150 16 0
2.026 -0.76499999 0.95599997 142 16 0
2.0339999 -0.76599997 0.954 146 16 0
2.036 -0.76499999 0.949 145 16 0
2.04 -0.76499999 0.94499999 150 16 0
2.05 -0.76599997 0.94400001 150 16 0
2.0569999 -0.76700002 0.94199997 150 16 0
2.0610001 -0.76599997 0.93699998 150 16 0
2.063 -0.76499999 0.93300003 150 16 0
2.062 -0.76200002 0.926 118 16 0
2.0639999 -0.76099998 0.921 102 16 0
2.069 -0.75999999 0.917 98 16 0
2.069 -0.75800002 0.91100001 86 16 0
2.0710001 -0.75700003 0.90700001 93 16 0
2.0739999 -0.755 0.90200001 91 16 0
2.076 -0.75300002 0.89700001 89 16 0
2.079 -0.75199997 0.89200002 93 16 0
2.0810001 -0.75 0.88700002 88 16 0
2.0840001 -0.74800003 0.88200003 87 16 0
2.086 -0.74699998 0.87699997 85 16 0
2.0899999 -0.745 0.87199998 93 16 0
2.092 -0.74299997 0.86699998 85 16 0
2.095 -0.741 0.86199999 94 16 0
2.0969999 -0.73900002 0.85699999 92 16 0
2.098 -0.73699999 0.85100001 93 16 0
2.1029999 -0.73500001 0.847 94 16 0
2.105 -0.73299998 0.84200001 91 16 0
2.1070001 -0.73100001 0.83600003 73 16 0
2.112 -0.72899997 0.83200002 92 16 0
2.1140001 -0.727 0.82700002 88 16 0
2.1170001 -0.72500002 0.82200003 88 16 0
2.119 -0.722 0.81599998 89 16 0
2.1229999 -0.72000003 0.81199998 92 16 0
2.125 -0.71799999 0.80599999 96 16 0
2.128 -0.71600002 0.801 97 16 0
2.131 -0.713 0.796 95 16 0
2.1329999 -0.70999998 0.79100001 94 16 0
2.142 -0.70999998 0.78799999 89 16 0
2.145 -0.70700002 0.78200001 95 16 0
2.148 -0.70499998 0.77700001 93 16 0
2.1530001 -0.70300001 0.773 97 16 0
2.1559999 -0.69999999 0.76800001 92 16 0
2.158 -0.69700003 0.76200002 89 16 0
2.161 -0.69499999 0.75700003 85 16 0
2.164 -0.69199997 0.75199997 95 16 0
2.1700001 -0.69 0.74800003 94 16 0
2.1689999 -0.68599999 0.741 94 16 0
2.1819999 -0.68599999 0.73900002 78 16 0
2.184 -0.68300003 0.73400003 69 16 0
2.1889999 -0.68000001 0.72899997 46 16 0
2.1919999 -0.67699999 0.72399998 48 16 0
2.197 -0.67500001 0.71899998 44 16 0
2.2030001 -0.67199999 0.71399999 42 16 0
2.2049999 -0.66900003 0.70899999 46 16 0
2.2079999 -0.66600001 0.704 43 16 0
2.2119999 -0.66299999 0.699 34 16 0
2.217 -0.66000003 0.69400001 36 16 0
2.2219999 -0.65700001 0.68900001 34 16 0
2.224 -0.65399998 0.68400002 33 16 0
2.234 -0.653 0.68000001 33 16 0
2.2360001 -0.64899999 0.67500001 33 16 0
2.24 -0.64600003 0.67000002 32 16 0
2.2420001 -0.64200002 0.66399997 32 16 0
2.25 -0.63999999 0.66000003 45 16 0
2.2550001 -0.63700002 0.65499997 48 16 0
2.267 -0.63599998 0.65200001 42 16 0
2.263 -0.63 0.64499998 42 16 0
2.273 -0.62900001 0.64200002 38 16 0
2.2780001 -0.625 0.63700002 39 16 0
2.2839999 -0.62199998 0.63200003 36 16 0
2.2909999 -0.62 0.62800002 44 16 0
2.2909999 -0.61500001 0.62099999 41 16 0
2.3 -0.61299998 0.61799997 48 16 0
2.306 -0.60900003 0.61299998 47 16 0
2.3080001 -0.60500002 0.60699999 47 16 0
2.3139999 -0.602 0.602 42 16 0
2.3199999 -0.59899998 0.59799999 44 16 0
2.3269999 -0.59600002 0.59299999 45 16 0
2.332 -0.59200001 0.588 35 16 0
2.339 -0.58899999 0.583 36 16 0
2.3499999 -0.58700001 0.57999998 38 16 0
2.3469999 -0.58099997 0.57300001 34 16 0
2.3570001 -0.579 0.56900001 34 16 0
2.3629999 -0.57499999 0.56400001 40 16 0
2.3659999 -0.57099998 0.55900002 36 16 0
2.375 -0.56800002 0.55500001 31 16 0
2.382 -0.565 0.55000001 35 16 0
2.3829999 -0.56 0.54400003 32 16 0
2.3929999 -0.55699998 0.54000002 33 16 0
2.3959999 -0.55199999 0.53399998 34 16 0
2.4070001 -0.55000001 0.53100002 31 16 0
2.4100001 -0.54500002 0.52499998 31 16 0
2.421 -0.542 0.52100003 32 16 0
2.4230001 -0.53799999 0.51499999 29 16 0
2.431 -0.53399998 0.51099998 28 16 0
2.4419999 -0.53100002 0.50700003 28 16 0
2.447 -0.52700001 0.50199997 28 16 0
2.4530001 -0.52200001 0.49700001 28 16 0
2.4560001 -0.51800001 0.491 29 16 0
2.4679999 -0.51499999 0.48699999 29 16 0
2.4760001 -0.51099998 0.48199999 29 16 0
2.4809999 -0.50599998 0.477 29 16 0
2.4879999 -0.50199997 0.472 28 16 0
2.497 -0.49900001 0.46799999 28 16 0
2.5020001 -0.49399999 0.46200001 28 16 0
2.506 -0.48899999 0.45699999 27 16 0
2.5179999 -0.486 0.45300001 28 16 0
2.527 -0.48199999 0.44800001 28 16 0
2.5320001 -0.477 0.44299999 28 16 0
2.54 -0.47299999 0.43799999 27 16 0
2.549 -0.46900001 0.433 28 16 0
2.556 -0.46399999 0.428 27 16 0
2.5639999 -0.46000001 0.42300001 27 16 0
2.572 -0.45500001 0.41800001 28 16 0
2.5799999 -0.45100001 0.41299999 28 16 0
2.5829999 -0.44499999 0.40700001 28 16 0
2.595 -0.442 0.403 29 16 0
2.6040001 -0.43700001 0.398 27 16 0
2.6099999 -0.43200001 0.39300001 28 16 0
2.6240001 -0.428 0.389 28 16 0
2.631 -0.42300001 0.38299999 23 16 0
2.6359999 -0.41800001 0.37799999 24 16 0
2.645 -0.41299999 0.373 25 16 0
2.6589999 -0.40900001 0.368 25 16 0
2.6689999 -0.405 0.36300001 26 16 0
2.677 -0.40000001 0.35800001 25 16 0
2.6789999 -0.39399999 0.352 24 16 0
2.6930001 -0.38999999 0.34799999 23 16 0
2.698 -0.384 0.34200001 23 16 0
2.7 -0.37799999 0.336 22 16 0
2.717 -0.37400001 0.33199999 23 16 0
2.727 -0.36899999 0.32699999 24 16 0
2.737 -0.36399999 0.322 23 16 0
2.744 -0.35800001 0.31600001 24 16 0
2.753 -0.35299999 0.31099999 24 16 0
2.763 -0.34799999 0.30599999 24 16 0
2.7750001 -0.34299999 0.301 24 16 0
2.783 -0.33700001 0.29499999 24 16 0
2.7920001 -0.331 0.28999999 24 16 0
2.802 -0.32600001 0.285 24 16 0
2.809 -0.31999999 0.27900001 24 16 0
2.8239999 -0.315 0.27399999 23 16 0
2.8310001 -0.30899999 0.26800001 24 16 0
2.842 -0.30399999 0.26300001 23 16 0
2.849 -0.29800001 0.257 23 16 0
2.862 -0.292 0.252 23 16 0
2.8740001 -0.28600001 0.24699999 24 16 0
2.882 -0.28 0.241 23 16 0
2.895 -0.27500001 0.236 23 16 0
2.9070001 -0.26899999 0.23 23 16 0
2.9200001 -0.26300001 0.22499999 24 16 0
2.934 -0.257 0.219 23 16 0
2.944 -0.25099999 0.214 23 16 0
2.954 -0.245 0.208 23 16 0
2.9649999 -0.23800001 0.20200001 23 16 0
2.9760001 -0.23199999 0.19599999 24 16 0
2.993 -0.226 0.191 24 16 0
3.0009999 -0.219 0.185 24 16 0
3.0139999 -0.213 0.17900001 23 16 0
3.0320001 -0.207 0.17399999 23 16 0
3.0439999 -0.2 0.168 22 16 0
3.0610001 -0.19400001 0.162 23 16 0
3.0699999 -0.18700001 0.156 23 16 0
3.0869999 -0.18000001 0.15099999 23 16 0
3.0929999 -0.17299999 0.14399999 23 16 0
3.112 -0.167 0.139 23 16 0
3.122 -0.15899999 0.132 23 16 0
3.1340001 -0.152 0.126 24 16 0
3.152 -0.145 0.12 23 16 0
3.164 -0.138 0.114 24 16 0
3.1789999 -0.131 0.108 24 16 0
3.191 -0.124 0.102 24 16 0
3.2079999 -0.116 0.094999999 24 16 0
3.2219999 -0.109 0.089000002 23 16 0
3.2309999 -0.101 0.082999997 23 16 0
3.247 -0.093000002 0.075999998 25 16 0
3.2690001 -0.086000003 0.07 25 16 0
3.279 -0.078000002 0.064000003 25 16 0
3.2880001 -0.07 0.057 45 16 0
3.2920001 -0.061999999 0.050000001 128 16 0
3.2820001 -0.052999999 0.043000001 77 16 0
3.2780001 -0.045000002 0.035999998 88 16 0
3.273 -0.037 0.029999999 89 16 0
3.257 -0.028999999 0.023 84 16 0
3.2520001 -0.02 0.016000001 42 16 0
3.2539999 -0.012 0.0099999998 19 16 0
3.2720001 -0.0040000002 0.003 16 16 0
3.286 0.003 -0.003 16 16 0
3.3039999 0.012 -0.0089999996 17 16 0
3.3199999 0.02 -0.016000001 23 16 0
3.323 0.028999999 -0.023 44 16 0
3.3110001 0.037 -0.028999999 49 16 0
3.3010001 0.045000002 -0.035999998 45 16 0
3.296 0.054000001 -0.041999999 37 16 0
3.29 0.061999999 -0.048999999 43 16 0
3.28 0.07 -0.055 50 16 0
3.279 0.078000002 -0.061999999 49 16 0
3.27 0.086999997 -0.068000004 51 16 0
3.2590001 0.094999999 -0.074000001 49 16 0
3.256 0.103 -0.081 50 16 0
3.2490001 0.111 -0.086999997 52 16 0
3.243 0.119 -0.093000002 53 16 0
3.2379999 0.127 -0.098999999 53 16 0
3.2320001 0.13600001 -0.105 53 16 0
3.2279999 0.14399999 -0.112 60 16 0
3.211 0.15099999 -0.117 54 16 0
3.21 0.16 -0.124 57 16 0
3.198 0.167 -0.12899999 55 16 0
3.191 0.175 -0.13500001 52 16 0
3.187 0.183 -0.141 54 16 0
3.1760001 0.191 -0.147 52 16 0
3.171 0.199 -0.152 54 16 0
3.164 0.207 -0.15800001 61 16 0
3.1589999 0.215 -0.164 51 16 0
3.154 0.223 -0.17 49 16 0
3.145 0.23 -0.175 56 16 0
3.1370001 0.23800001 -0.18099999 54 16 0
3.131 0.24600001 -0.18700001 59 16 0
3.1240001 0.25400001 -0.192 70 16 0
3.112 0.26100001 -0.197 55 16 0
3.108 0.26899999 -0.20299999 63 16 0
3.1070001 0.27700001 -0.20900001 56 16 0
3.096 0.28400001 -0.214 67 16 0
3.089 0.292 -0.219 60 16 0
3.082 0.30000001 -0.22400001 67 16 0
3.079 0.308 -0.23 62 16 0
3.0680001 0.315 -0.235 79 16 0
3.0610001 0.322 -0.23999999 65 16 0
3.0580001 0.33000001 -0.245 55 16 0
3.052 0.338 -0.25 83 16 0
3.0469999 0.345 -0.25600001 84 16 0
3.04 0.35299999 -0.26100001 77 16 0
3.0380001 0.361 -0.266 76 16 0
3.027 0.368 -0.271 84 16 0
3.0179999 0.375 -0.27500001 73 16 0
3.0150001 0.38299999 -0.28099999 91 16 0
3.0079999 0.38999999 -0.285 70 16 0
3.0050001 0.398 -0.29100001 82 16 0
3.0020001 0.40599999 -0.296 86 16 0
2.99 0.41299999 -0.30000001 88 16 0
2.9849999 0.41999999 -0.30500001 81 16 0
2.98 0.42699999 -0.31 86 16 0
2.974 0.435 -0.31400001 97 16 0
2.9630001 0.44100001 -0.31900001 86 16 0
2.96 0.449 -0.324 90 16 0
2.9549999 0.45699999 -0.32800001 90 16 0
2.948 0.46399999 -0.333 92 16 0
2.947 0.472 -0.338 101 16 0
2.934 0.47799999 -0.34200001 112 16 0
2.928 0.48500001 -0.34599999 96 16 0
2.9189999 0.49200001 -0.34999999 97 16 0
2.9170001 0.5 -0.35499999 112 16 0
2.9070001 0.50599998 -0.359 114 16 0
2.9000001 0.51300001 -0.36300001 104 16 0
2.8959999 0.52100003 -0.36700001 116 16 0
2.888 0.528 -0.37099999 97 16 0
2.8900001 0.53600001 -0.377 114 16 0
2.8840001 0.54299998 -0.38100001 112 16 0
2.8800001 0.551 -0.38499999 116 16 0
2.8740001 0.55800003 -0.389 101 16 0
2.862 0.56400001 -0.39300001 109 16 0
2.852 0.56999999 -0.396 100 16 0
2.852 0.57800001 -0.40099999 110 16 0
2.8499999 0.58600003 -0.405 139 16 0
2.842 0.59299999 -0.40900001 113 16 0
2.8340001 0.59899998 -0.41299999 132 16 0
2.8299999 0.60699999 -0.417 142 16 0
2.8280001 0.61400002 -0.421 133 16 0
2.819 0.62099999 -0.42500001 146 16 0
2.8139999 0.62800002 -0.428 128 16 0
2.8110001 0.63499999 -0.433 139 16 0
2.8 0.64099997 -0.43599999 133 16 0
2.799 0.64899999 -0.44 145 16 0
2.79 0.65499997 -0.44299999 150 16 0
2.783 0.662 -0.447 150 16 0
2.7809999 0.66900003 -0.45100001 150 16 0
2.7750001 0.676 -0.454 150 16 0
2.7690001 0.68300003 -0.458 150 16 0
2.763 0.69 -0.461 150 16 0
2.7609999 0.69800001 -0.465 150 16 0
2.7579999 0.70499998 -0.46900001 150 16 0
2.7490001 0.71100003 -0.472 150 16 0
2.7449999 0.71799999 -0.47499999 150 16 0
2.74 0.72500002 -0.479 150 16 0
2.7349999 0.73199999 -0.48199999 150 16 0
2.7260001 0.73799998 -0.48500001 150 16 0
2.723 0.745 -0.48800001 150 16 0
2.7190001 0.75199997 -0.49200001 150 16 0
2.7119999 0.759 -0.495 150 16 0
2.7060001 0.76499999 -0.498 150 16 0
2.704 0.773 -0.50099999 150 16 0
2.697 0.77899998 -0.50400001 150 16 0
2.6960001 0.787 -0.50800002 150 16 0
2.6900001 0.79299998 -0.51099998 150 16 0
2.681 0.79900002 -0.51300001 150 16 0
2.6800001 0.80699998 -0.51700002 150 16 0
2.6719999 0.81300002 -0.51899999 150 16 0
2.6719999 0.82099998 -0.523 150 16 0
2.665 0.82700002 -0.52499998 150 16 0
2.6619999 0.83399999 -0.528 150 16 0
2.652 0.83999997 -0.52999997 150 16 0
2.6489999 0.847 -0.53299999 150 16 0
2.6489999 0.85500002 -0.537 150 16 0
2.642 0.861 -0.53899997 150 16 0
2.6340001 0.86699998 -0.54100001 150 16 0
2.6289999 0.87300003 -0.54400003 150 16 0
2.625 0.88 -0.54699999 150 16 0
2.618 0.88599998 -0.54900002 150 16 0
2.615 0.89300001 -0.55199999 150 16 0
2.6099999 0.89999998 -0.55400002 150 16 0
2.6070001 0.90700001 -0.55699998 150 16 0
2.6040001 0.91399997 -0.56 150 16 0
2.6010001 0.921 -0.56199998 150 16 0
2.5940001 0.92699999 -0.56400001 150 16 0
2.5910001 0.93400002 -0.56699997 150 16 0
2.585 0.94 -0.56900001 150 16 0
2.582 0.94700003 -0.57099998 150 16 0
2.5810001 0.95499998 -0.574 113 16 0
2.5910001 0.96700001 -0.579 150 16 0
2.5769999 0.97000003 -0.57999998 150 16 0
2.5650001 0.97399998 -0.57999998 150 16 0
2.5539999 0.977 -0.57999998 150 16 0
2.5510001 0.98400003 -0.583 150 16 0
2.5469999 0.991 -0.58499998 150 16 0
2.5409999 0.99699998 -0.58600003 150 16 0
2.54 1.005 -0.58899999 150 16 0
2.5350001 1.011 -0.59100002 150 16 0
2.53 1.017 -0.59200001 150 16 0
2.526 1.023 -0.59399998 150 16 0
2.5250001 1.031 -0.597 150 16 0
2.5190001 1.036 -0.59799999 150 16 0
2.5150001 1.043 -0.59899998 150 16 0
2.5120001 1.05 -0.60100001 150 16 0
2.5090001 1.056 -0.60299999 150 16 0
2.5050001 1.063 -0.60500002 150 16 0
2.5020001 1.069 -0.60600001 150 16 0
2.497 1.076 -0.60799998 150 16 0
2.4960001 1.0829999 -0.61000001 150 16 0
2.4890001 1.0880001 -0.61000001 150 16 0
2.4890001 1.096 -0.61199999 150 16 0
2.4809999 1.1 -0.61299998 150 16 0
2.4779999 1.107 -0.61400002 150 16 0
2.474 1.113 -0.616 150 16 0
2.471 1.119 -0.61699998 150 16 0
2.4679999 1.126 -0.61799997 150 16 0
2.4649999 1.132 -0.61900002 150 16 0
2.4579999 1.137 -0.62 150 16 0
2.4549999 1.143 -0.62099999 150 16 0
2.4519999 1.149 -0.62199998 150 16 0
2.4460001 1.154 -0.62199998 150 16 0
2.4449999 1.1619999 -0.62400001 150 16 0
2.4419999 1.168 -0.625 150 16 0
2.4389999 1.174 -0.625 150 16 0
2.4360001 1.1799999 -0.62599999 150 16 0
2.427 1.183 -0.625 149 16 0
2.424 1.1900001 -0.62599999 77 16 0
2.4260001 1.198 -0.62800002 62 16 0
2.4230001 1.204 -0.62900001 49 16 0
2.4189999 1.21 -0.62900001 39 16 0
2.4159999 1.216 -0.63 37 16 0
2.414 1.222 -0.63099998 34 16 0
2.411 1.228 -0.63099998 31 16 0
2.404 1.2309999 -0.63 32 16 0
2.404 1.239 -0.63099998 68 16 0
2.3989999 1.244 -0.63099998 150 16 0
2.3959999 1.249 -0.63099998 150 16 0
2.3940001 1.255 -0.63200003 150 16 0
2.3889999 1.26 -0.63099998 150 16 0
2.3840001 1.2640001 -0.63099998 150 16 0
2.381 1.27 -0.63099998 150 16 0
2.382 1.277 -0.63200003 150 16 0
2.3789999 1.283 -0.63200003 150 16 0
2.3729999 1.2869999 -0.63099998 148 16 0
2.3699999 1.2920001 -0.63099998 131 16 0
2.3659999 1.296 -0.63 127 16 0
2.3710001 1.306 -0.63200003 88 16 0
2.3659999 1.3099999 -0.63099998 52 16 0
2.3640001 1.316 -0.63099998 53 16 0
2.3610001 1.3200001 -0.63 50 16 0
2.3610001 1.327 -0.63 37 16 0
2.355 1.33 -0.62900001 29 16 0
2.3499999 1.334 -0.62800002 37 16 0
2.352 1.341 -0.62800002 95 16 0
2.346 1.344 -0.62599999 150 16 0
2.3429999 1.349 -0.62599999 150 16 0
2.3429999 1.355 -0.625 150 16 0
2.342 1.36 -0.625 150 16 0
2.336 1.363 -0.62300003 150 16 0
2.336 1.369 -0.62300003 150 16 0
2.335 1.374 -0.62199998 150 16 0
2.3310001 1.378 -0.62099999 150 16 0
2.329 1.382 -0.62 150 16 0
2.3239999 1.385 -0.61799997 150 16 0
2.322 1.3890001 -0.61699998 150 16 0
2.323 1.396 -0.616 150 16 0
2.3199999 1.399 -0.61500001 150 16 0
2.319 1.404 -0.61299998 150 16 0
2.3169999 1.408 -0.61199999 150 16 0
2.3150001 1.4119999 -0.611 150 16 0
2.3110001 1.415 -0.60900003 150 16 0
2.3110001 1.42 -0.60699999 150 16 0
2.3110001 1.424 -0.60600001 150 16 0
2.306 1.427 -0.60399997 150 16 0
2.3069999 1.432 -0.60299999 150 16 0
2.3050001 1.4349999 -0.60100001 150 16 0
2.3 1.437 -0.59799999 150 16 0
2.302 1.442 -0.597 150 16 0
2.3010001 1.446 -0.59600002 150 16 0
2.2980001 1.449 -0.59399998 150 16 0
2.2980001 1.4529999 -0.59200001 150 16 0
2.3 1.459 -0.59100002 150 16 0
2.3010001 1.4630001 -0.58899999 135 16 0
2.3010001 1.467 -0.588 99 16 0
2.299 1.47 -0.58499998 84 16 0
2.2969999 1.472 -0.583 82 16 0
2.2980001 1.477 -0.58099997 91 16 0
2.296 1.479 -0.579 100 16 0
2.2939999 1.4809999 -0.57599998 98 16 0
2.293 1.483 -0.574 76 16 0
2.2950001 1.488 -0.57200003 78 16 0
2.29 1.488 -0.56900001 64 16 0
2.2920001 1.492 -0.56699997 64 16 0
2.2909999 1.495 -0.56400001 65 16 0
2.2950001 1.5 -0.56300002 54 16 0
2.29 1.5 -0.56 59 16 0
2.2909999 1.503 -0.55699998 64 16 0
2.2909999 1.505 -0.55500001 104 16 0
2.2909999 1.507 -0.55199999 107 16 0
2.293 1.511 -0.55000001 118 16 0
2.2920001 1.513 -0.54699999 131 16 0
2.293 1.515 -0.54500002 124 16 0
2.2920001 1.516 -0.542 138 16 0
2.2909999 1.517 -0.53899997 130 16 0
2.2920001 1.5190001 -0.53600001 141 16 0
2.2920001 1.521 -0.53299999 139 16 0
2.2939999 1.524 -0.53100002 147 16 0
2.2920001 1.524 -0.52700001 143 16 0
2.293 1.526 -0.52499998 140 16 0
2.2909999 1.525 -0.52100003 143 16 0
2.293 1.528 -0.51800001 150 16 0
2.2939999 1.529 -0.51499999 146 16 0
2.2950001 1.53 -0.51200002 139 16 0
2.296 1.5319999 -0.509 137 16 0
2.2950001 1.5319999 -0.50599998 146 16 0
2.2969999 1.533 -0.50300002 148 16 0
2.2969999 1.534 -0.5 145 16 0
2.2980001 1.534 -0.49599999 135 16 0
2.2980001 1.534 -0.493 131 16 0
2.3039999 1.538 -0.491 120 16 0
2.3080001 1.54 -0.48800001 130 16 0
2.3 1.535 -0.48300001 137 19 0
2.3110001 1.541 -0.48199999 141 16 0
2.312 1.541 -0.47799999 142 16 0
2.306 1.5369999 -0.47299999 137 16 0
2.3069999 1.536 -0.47 133 16 0
2.3139999 1.54 -0.46799999 141 16 0
2.309 1.536 -0.463 137 16 0
2.3180001 1.54 -0.461 150 16 0
2.3210001 1.541 -0.458 150 16 0
2.316 1.536 -0.45300001 150 16 0
2.325 1.541 -0.45100001 150 16 0
2.319 1.535 -0.44600001 150 16 0
2.323 1.536 -0.44299999 150 16 0
2.3299999 1.538 -0.44100001 150 16 0
2.3310001 1.5369999 -0.43700001 150 16 0
2.3280001 1.5319999 -0.433 150 16 0
2.3340001 1.534 -0.43000001 150 16 0
2.335 1.5319999 -0.426 150 16 0
2.3369999 1.5319999 -0.42300001 150 16 0
2.339 1.53 -0.419 150 16 0
2.3410001 1.528 -0.41499999 150 16 0
2.342 1.526 -0.412 150 16 0
2.3440001 1.525 -0.40799999 150 16 0
2.346 1.523 -0.40400001 150 16 0
2.348 1.521 -0.40099999 150 16 0
2.3570001 1.523 -0.398 150 16 0
2.3570001 1.52 -0.39399999 150 16 0
2.3540001 1.515 -0.38999999 150 16 0
2.3640001 1.517 -0.38699999 150 16 0
2.365 1.5140001 -0.384 150 16 0
2.3670001 1.512 -0.38 150 16 0
2.3699999 1.51 -0.37599999 150 16 0
2.375 1.5089999 -0.373 150 16 0
2.375 1.5039999 -0.36899999 150 16 0
2.3789999 1.503 -0.366 150 16 0
2.382 1.5 -0.36199999 150 16 0
2.3840001 1.497 -0.35800001 150 16 0
2.3889999 1.4960001 -0.35499999 150 16 0
2.388 1.4910001 -0.35100001 150 16 0
2.3940001 1.49 -0.34799999 150 16 0
2.3970001 1.4859999 -0.34400001 150 16 0
2.4000001 1.484 -0.34099999 150 16 0
2.405 1.482 -0.33700001 150 16 0
2.4059999 1.477 -0.333 150 16 0
2.408 1.473 -0.33000001 150 16 0
2.411 1.47 -0.32600001 150 16 0
2.4159999 1.467 -0.32300001 150 16 0
2.4230001 1.466 -0.31999999 150 16 0
2.4219999 1.46 -0.31600001 150 16 0
2.4289999 1.459 -0.31299999 150 16 0
2.4319999 1.455 -0.30899999 150 16 0
2.4319999 1.449 -0.30500001 150 16 0
2.4349999 1.4450001 -0.30199999 150 16 0
2.441 1.443 -0.29899999 150 16 0
2.4430001 1.438 -0.29499999 150 16 0
2.448 1.4349999 -0.292 150 16 0
2.451 1.4299999 -0.28799999 150 16 0
2.4530001 1.425 -0.285 150 16 0
2.457 1.421 -0.28099999 150 16 0
2.46 1.4170001 -0.278 150 16 0
2.4690001 1.415 -0.27500001 150 16 0
2.4660001 1.4069999 -0.271 150 16 0
2.4749999 1.406 -0.26800001 150 16 0
2.4719999 1.397 -0.264 150 16 0
2.4820001 1.396 -0.26199999 150 16 0
2.4860001 1.392 -0.25799999 150 16 0
2.4879999 1.386 -0.255 150 16 0
2.493 1.382 -0.252 150 16 0
2.494 1.376 -0.248 150 16 0
2.5 1.372 -0.245 150 16 0
2.506 1.368 -0.242 150 16 0
2.5090001 1.363 -0.23899999 150 16 0
2.513 1.358 -0.236 150 16 0
2.5179999 1.353 -0.233 150 16 0
2.5179999 1.346 -0.229 150 16 0
2.5220001 1.34 -0.226 150 16 0
2.5320001 1.3380001 -0.22400001 150 16 0
2.5339999 1.332 -0.22 150 16 0
2.5369999 1.326 -0.21699999 150 16 0
2.5409999 1.3200001 -0.214 150 16 0
2.5450001 1.3150001 -0.211 150 16 0
2.5480001 1.309 -0.208 150 16 0
2.553 1.304 -0.205 150 16 0
2.5569999 1.298 -0.20200001 150 16 0
2.563 1.293 -0.2 150 16 0
2.5669999 1.2869999 -0.197 150 16 0
2.5699999 1.281 -0.19400001 150 16 0
2.5739999 1.275 -0.191 150 16 0
2.5810001 1.27 -0.18799999 150 16 0
2.5880001 1.266 -0.186 150 16 0
2.5899999 1.258 -0.183 150 16 0
2.595 1.253 -0.18000001 150 16 0
2.6010001 1.248 -0.177 150 16 0
2.5999999 1.239 -0.17399999 150 16 0
2.609 1.235 -0.17200001 150 16 0
2.6110001 1.228 -0.169 150 16 0
2.615 1.221 -0.16599999 150 16 0
2.6210001 1.215 -0.164 150 16 0
2.622 1.2079999 -0.161 150 16 0
2.631 1.2029999 -0.15899999 150 16 0
2.638 1.198 -0.156 150 16 0
2.641 1.191 -0.153 150 16 0
2.6429999 1.183 -0.15099999 150 16 0
2.645 1.176 -0.148 150 16 0
2.651 1.17 -0.146 150 16 0
2.654 1.163 -0.14300001 150 16 0
2.6600001 1.1569999 -0.141 150 16 0
2.6659999 1.151 -0.139 150 16 0
2.6689999 1.143 -0.13600001 150 16 0
2.6730001 1.136 -0.134 150 16 0
2.6789999 1.13 -0.131 150 16 0
2.6819999 1.123 -0.12899999 150 16 0
2.691 1.117 -0.127 150 16 0
2.694 1.11 -0.124 150 16 0
2.697 1.102 -0.122 150 16 0
2.7019999 1.095 -0.12 150 16 0
2.7060001 1.0880001 -0.118 150 16 0
2.71 1.081 -0.115 150 16 0
2.7149999 1.074 -0.113 150 16 0
2.7179999 1.066 -0.111 150 16 0
2.721 1.058 -0.109 150 16 0
2.733 1.054 -0.107 150 16 0
2.7360001 1.046 -0.105 150 16 0
2.74 1.038 -0.103 150 16 0
2.743 1.03 -0.101 150 16 0
2.747 1.022 -0.098999999 150 16 0
2.7520001 1.016 -0.097000003 150 16 0
2.7579999 1.0089999 -0.094999999 150 16 0
2.7650001 1.002 -0.093000002 150 16 0
2.7650001 0.99299997 -0.090999998 150 16 0
2.7720001 0.986 -0.089000002 150 16 0
2.7809999 0.98000002 -0.086999997 150 16 0
2.7950001 0.97600001 -0.086000003 37 16 0
2.79 0.96499997 -0.083999999 81 16 0
2.793 0.95599997 -0.082000002 150 16 0
2.7939999 0.94700003 -0.079999998 150 16 0
2.803 0.94099998 -0.078000002 150 16 0
2.8050001 0.93300003 -0.075999998 150 16 0
2.813 0.926 -0.075000003 150 16 0
2.816 0.917 -0.072999999 150 16 0
2.819 0.90899998 -0.071000002 150 16 0
2.8210001 0.89999998 -0.07 150 16 0
2.8239999 0.89200002 -0.068000004 150 16 0
2.832 0.88499999 -0.066 150 16 0
2.835 0.87599999 -0.064999998 150 16 0
2.849 0.87099999 -0.063000001 150 16 0
2.852 0.86299998 -0.061999999 150 16 0
2.8510001 0.85299999 -0.059999999 150 16 0
2.858 0.84500003 -0.059 150 16 0
2.8659999 0.838 -0.057 150 16 0
2.868 0.829 -0.056000002 150 16 0
2.8800001 0.82300001 -0.054000001 150 16 0
2.882 0.81400001 -0.052999999 150 16 0
2.8870001 0.80599999 -0.050999999 150 16 0
2.8940001 0.79799998 -0.050000001 150 16 0
2.8989999 0.79000002 -0.048999999 150 16 0
2.902 0.78100002 -0.046999998 150 16 0
2.904 0.77200001 -0.046 150 16 0
2.9100001 0.764 -0.045000002 150 16 0
2.9119999 0.755 -0.043000001 150 16 0
2.9230001 0.74800003 -0.041999999 150 16 0
2.925 0.73900002 -0.041000001 150 16 0
2.928 0.73000002 -0.039999999 150 16 0
2.9389999 0.72299999 -0.037999999 150 16 0
2.9400001 0.713 -0.037 150 16 0
2.944 0.70499998 -0.035999998 150 16 0
2.95 0.69599998 -0.035 150 16 0
2.9590001 0.68900001 -0.034000002 150 16 0
2.9619999 0.68000001 -0.033 150 16 0
2.967 0.671 -0.030999999 150 16 0
2.9690001 0.662 -0.029999999 150 16 0
2.9760001 0.653 -0.028999999 133 16 0
2.9809999 0.64399999 -0.028000001 146 16 0
2.99 0.63599998 -0.027000001 135 16 0
2.9890001 0.62699997 -0.026000001 127 16 0
2.997 0.61799997 -0.025 126 16 0
2.9990001 0.60900003 -0.024 113 16 0
3.006 0.60000002 -0.023 116 16 0
3.013 0.59200001 -0.022 117 16 0
3.0220001 0.583 -0.022 118 16 0
3.0190001 0.57300001 -0.021 119 16 0
3.026 0.56400001 -0.02 122 16 0
3.0320001 0.55500001 -0.018999999 117 16 0
3.0369999 0.546 -0.017999999 121 16 0
3.0439999 0.53799999 -0.017000001 122 16 0
3.0469999 0.528 -0.016000001 124 16 0
3.049 0.51800001 -0.016000001 127 16 0
3.059 0.50999999 -0.015 127 16 0
3.0669999 0.50099999 -0.014 118 16 0
3.0699999 0.49200001 -0.013 116 16 0
3.0780001 0.48300001 -0.013 109 16 0
3.082 0.47400001 -0.012 115 16 0
3.0880001 0.46399999 -0.011 124 16 0
3.0969999 0.456 -0.011 105 16 0
3.0999999 0.44600001 -0.0099999998 111 16 0
3.1010001 0.43599999 -0.0089999996 103 16 0
3.1110001 0.42699999 -0.0089999996 99 16 0
3.1129999 0.417 -0.0080000004 94 16 0
3.115 0.40700001 -0.0080000004 92 16 0
3.1270001 0.39899999 -0.0070000002 97 16 0
3.135 0.389 -0.0070000002 95 16 0
3.135 0.37900001 -0.0060000001 83 16 0
3.142 0.37 -0.0060000001 117 16 0
3.1459999 0.36000001 -0.0049999999 106 16 0
3.155 0.35100001 -0.0049999999 97 16 0
3.1600001 0.34099999 -0.0040000002 99 16 0
3.164 0.331 -0.0040000002 107 16 0
3.168 0.32100001 -0.003 92 16 0
3.175 0.31099999 -0.003 98 16 0
3.1849999 0.30199999 -0.003 84 16 0
3.1860001 0.292 -0.0020000001 84 16 0
3.191 0.28200001 -0.0020000001 89 16 0
3.2 0.27200001 -0.0020000001 72 16 0
3.201 0.26199999 -0.001 75 16 0
3.211 0.252 -0.001 86 16 0
3.217 0.242 -0.001 89 16 0
3.223 0.23199999 0 88 16 0
3.2260001 0.222 0 90 16 0
3.237 0.212 0 83 16 0
3.237 0.20200001 0 84 16 0
3.247 0.192 0 86 16 0
3.2509999 0.182 0 84 16 0
3.2509999 0.171 0 82 16 0
3.2539999 0.161 0 78 16 0
3.266 0.15099999 0 80 16 0
3.2690001 0.14 0 76 16 0
3.2720001 0.13 0 65 16 0
3.28 0.12 0 84 16 0
3.283 0.109 0 69 16 0
3.289 0.098999999 0 74 16 0
3.296 0.088 0 74 16 0
3.3 0.078000002 0 74 16 0
3.306 0.067000002 0 54 16 0
3.3080001 0.056000002 0 42 16 0
3.3099999 0.046 0 55 16 0
3.319 0.035 0 65 16 0
3.3310001 0.024 0 33 16 0
3.302 0.013 0 19 16 0
3.2780001 0.003 0 18 16 0
3.257 -0.0070000002 0 19 16 0
3.243 -0.017000001 0 45 16 0
3.253 -0.028000001 0 150 16 0
3.253 -0.037999999 0 115 16 0
3.2620001 -0.048999999 0 150 16 0
3.2690001 -0.059999999 -0.001 150 16 0
3.2620001 -0.07 -0.001 62 16 0
3.24 -0.079999998 -0.001 30 16 0
3.22 -0.090000004 -0.0020000001 29 16 0
3.2030001 -0.1 -0.0020000001 29 16 0
3.1730001 -0.109 -0.0020000001 28 16 0
3.1600001 -0.119 -0.003 29 16 0
3.1340001 -0.12800001 -0.003 28 16 0
3.1129999 -0.138 -0.003 28 16 0
