# .PCD v0.7 - Point Cloud Data file format
VERSION 0.7
FIELDS x y z intensity tag line
SIZE 4 4 4 4 1 1
TYPE F F F F U U
COUNT 1 1 1 1 1 1
WIDTH 1368
HEIGHT 1
VIEWPOINT 0 0 0 1 0 0 0
POINTS 1368
DATA ascii
3.0480001 -0.16599999 -0.02 25 16 0
3.0699999 -0.15700001 -0.018999999 25 16 0
3.092 -0.148 -0.017999999 26 16 0
3.112 -0.139 -0.017000001 25 16 0
3.1329999 -0.13 -0.016000001 26 16 0
3.1570001 -0.121 -0.015 26 16 0
3.1760001 -0.111 -0.014 27 16 0
3.2 -0.102 -0.013 27 16 0
3.2249999 -0.092 -0.011 27 16 0
3.2409999 -0.082000002 -0.0099999998 27 16 0
3.2650001 -0.071999997 -0.0089999996 44 16 0
3.266 -0.061999999 -0.0080000004 150 16 0
3.263 -0.050999999 -0.0060000001 125 16 0
3.26 -0.041000001 -0.0049999999 123 16 0
3.2539999 -0.029999999 -0.0040000002 117 16 0
3.2460001 -0.02 -0.0020000001 48 16 0
3.257 -0.0089999996 -0.001 19 16 0
3.2839999 0 0 18 16 0
3.302 0.011 0.001 18 16 0
3.3280001 0.021 0.003 26 16 0
3.3310001 0.032000002 0.0040000002 53 16 0
3.3239999 0.043000001 0.0060000001 52 16 0
3.3210001 0.052999999 0.0070000002 41 16 0
3.3169999 0.064000003 0.0089999996 48 16 0
3.309 0.074000001 0.0099999998 54 16 0
3.3069999 0.085000001 0.012 55 16 0
3.3039999 0.094999999 0.013 62 16 0
3.293 0.106 0.015 58 16 0
3.2909999 0.116 0.017000001 71 16 0
3.2869999 0.127 0.017999999 62 16 0
3.2820001 0.13699999 0.02 52 16 0
3.2650001 0.147 0.021 35 16 0
3.2550001 0.15700001 0.023 28 16 0
3.25 0.167 0.025 27 16 0
3.247 0.177 0.026000001 28 16 0
3.2409999 0.18700001 0.028000001 28 16 0
3.24 0.197 0.029999999 28 16 0
3.2149999 0.206 0.030999999 26 16 0
3.1919999 0.215 0.033 38 16 0
3.187 0.22499999 0.035 48 16 0
3.2019999 0.236 0.037 31 16 0
3.217 0.24699999 0.039000001 26 16 0
3.2130001 0.257 0.039999999 26 16 0
3.2060001 0.26699999 0.041999999 26 16 0
3.2019999 0.27700001 0.044 27 16 0
3.2 0.287 0.046 28 16 0
3.197 0.29699999 0.048 29 16 0
3.194 0.30700001 0.050000001 29 16 0
3.1900001 0.317 0.050999999 28 16 0
3.1800001 0.32600001 0.052999999 29 16 0
3.1800001 0.336 0.055 30 16 0
3.1730001 0.34599999 0.057 29 16 0
3.171 0.35499999 0.059 28 16 0
3.1619999 0.36500001 0.061000001 25 16 0
3.1789999 0.377 0.063000001 60 16 0
3.177 0.38699999 0.064999998 97 16 0
3.174 0.396 0.067000002 87 16 0
3.1700001 0.40599999 0.068999998 92 16 0
3.161 0.41499999 0.071000002 90 16 0
3.1570001 0.42500001 0.072999999 87 16 0
3.1489999 0.43399999 0.075000003 94 16 0
3.151 0.44400001 0.078000002 92 16 0
3.1440001 0.45300001 0.079999998 104 16 0
3.1389999 0.463 0.082000002 96 16 0
3.1370001 0.472 0.083999999 93 16 0
3.1329999 0.48199999 0.086000003 102 16 0
3.131 0.491 0.088 77 16 0
3.1289999 0.50099999 0.090999998 85 16 0
3.1259999 0.51099998 0.093000002 90 16 0
3.1159999 0.51899999 0.094999999 90 16 0
3.1140001 0.52899998 0.097000003 89 16 0
3.1110001 0.53799999 0.098999999 96 16 0
3.1059999 0.54699999 0.102 88 16 0
3.1040001 0.55699998 0.104 90 16 0
3.0969999 0.56599998 0.106 96 16 0
3.0940001 0.57499999 0.108 87 16 0
3.092 0.58399999 0.111 97 16 0
3.0829999 0.59299999 0.113 103 16 0
3.076 0.60100001 0.115 99 16 0
3.079 0.611 0.118 104 16 0
3.072 0.62 0.12 109 16 0
3.0680001 0.62900001 0.123 111 16 0
3.0639999 0.63800001 0.125 105 16 0
3.0599999 0.64700001 0.127 104 16 0
3.0580001 0.65600002 0.13 93 16 0
3.056 0.66600001 0.133 107 16 0
3.053 0.67500001 0.13500001 102 16 0
3.0510001 0.68400002 0.138 99 16 0
3.046 0.69300002 0.14 105 16 0
3.046 0.70300001 0.14300001 103 16 0
3.0420001 0.71200001 0.145 102 16 0
3.036 0.72000003 0.148 138 16 0
3.03 0.72799999 0.15000001 137 16 0
3.0280001 0.73799998 0.153 127 16 0
3.03 0.74800003 0.156 132 16 0
3.0190001 0.755 0.15800001 128 16 0
3.017 0.764 0.161 127 16 0
3.0150001 0.773 0.164 131 16 0
3.0120001 0.78200001 0.167 123 16 0
3.0079999 0.79000002 0.169 143 16 0
3.007 0.80000001 0.17200001 123 16 0
3.0020001 0.80800003 0.175 120 16 0
2.997 0.81699997 0.178 109 16 0
2.994 0.82499999 0.18000001 95 16 0
2.9909999 0.83399999 0.183 83 16 0
2.987 0.84299999 0.186 72 16 0
2.9879999 0.85299999 0.189 64 16 0
2.983 0.86000001 0.192 68 16 0
2.9760001 0.86799997 0.19499999 60 16 0
2.9790001 0.87900001 0.198 49 16 0
2.9690001 0.88499999 0.20100001 57 16 0
2.9679999 0.89399999 0.204 70 16 0
2.9660001 0.903 0.207 87 16 0
2.961 0.91100001 0.20999999 125 16 0
2.9549999 0.91900003 0.213 142 16 0
2.9530001 0.92699999 0.21600001 139 16 0
2.944 0.93400002 0.219 142 16 0
2.944 0.94400001 0.222 137 16 0
2.944 0.95300001 0.22499999 133 16 0
2.9349999 0.95899999 0.228 143 16 0
2.9330001 0.96799999 0.23100001 137 16 0
2.937 0.97899997 0.235 134 16 0
2.934 0.98699999 0.23800001 150 16 0
2.9300001 0.995 0.242 143 16 0
2.9260001 1.003 0.245 150 16 0
2.9260001 1.012 0.248 146 16 0
2.921 1.02 0.25099999 134 16 0
2.915 1.027 0.255 104 16 0
2.9119999 1.035 0.25799999 61 16 0
2.904 1.0420001 0.26100001 41 16 0
2.904 1.051 0.264 38 16 0
2.8889999 1.0549999 0.26699999 35 16 0
2.8840001 1.062 0.27000001 33 16 0
2.8789999 1.069 0.273 31 16 0
2.8710001 1.075 0.27599999 31 16 0
2.8599999 1.08 0.27900001 31 16 0
2.8559999 1.0880001 0.28299999 30 16 0
2.8440001 1.092 0.285 36 16 0
2.8329999 1.096 0.28799999 34 16 0
2.8239999 1.102 0.29100001 35 16 0
2.825 1.1109999 0.29499999 37 16 0
2.816 1.1160001 0.29800001 36 16 0
2.8069999 1.1210001 0.301 36 16 0
2.7969999 1.126 0.30399999 38 16 0
2.7909999 1.132 0.30700001 42 16 0
2.7869999 1.1390001 0.31 66 16 0
2.78 1.145 0.31299999 106 16 0
2.7720001 1.15 0.317 150 16 0
2.7679999 1.1569999 0.31999999 150 16 0
2.7650001 1.164 0.324 150 16 0
2.7609999 1.171 0.32800001 150 16 0
2.7639999 1.181 0.33199999 150 16 0
2.7609999 1.188 0.336 150 16 0
2.757 1.1950001 0.34 150 16 0
2.757 1.2029999 0.34400001 150 16 0
2.7550001 1.21 0.34799999 150 16 0
2.7490001 1.216 0.35100001 150 16 0
2.7479999 1.224 0.35499999 150 16 0
2.7449999 1.2309999 0.359 150 16 0
2.7409999 1.237 0.36300001 150 16 0
2.744 1.247 0.368 150 16 0
2.7409999 1.253 0.37200001 150 16 0
2.7390001 1.26 0.37599999 150 16 0
2.7360001 1.267 0.38 150 16 0
2.7349999 1.275 0.384 150 16 0
2.7349999 1.283 0.389 150 16 0
2.7349999 1.291 0.39300001 150 16 0
2.7309999 1.2970001 0.39700001 150 16 0
2.7279999 1.303 0.40099999 150 16 0
2.7249999 1.309 0.405 150 16 0
2.724 1.317 0.41 150 16 0
2.723 1.324 0.414 150 16 0
2.72 1.33 0.41800001 150 16 0
2.7160001 1.336 0.42199999 150 16 0
2.7130001 1.342 0.42699999 150 16 0
2.7179999 1.352 0.43200001 150 16 0
2.717 1.359 0.43700001 150 16 0
2.711 1.364 0.44 150 16 0
2.707 1.369 0.44499999 150 16 0
2.711 1.378 0.44999999 150 16 0
2.711 1.386 0.45500001 150 16 0
2.707 1.391 0.45899999 150 16 0
2.707 1.398 0.46399999 150 16 0
2.7030001 1.403 0.46799999 150 16 0
2.701 1.41 0.47299999 150 16 0
2.7 1.416 0.47799999 150 16 0
2.698 1.4220001 0.48199999 150 16 0
2.6960001 1.428 0.48699999 150 16 0
2.6989999 1.436 0.49200001 150 16 0
2.6930001 1.4400001 0.49599999 150 16 0
2.697 1.449 0.50199997 150 16 0
2.6960001 1.455 0.50700003 150 16 0
2.6919999 1.459 0.51099998 150 16 0
2.6919999 1.466 0.51599997 150 16 0
2.6949999 1.474 0.52200001 150 16 0
2.6919999 1.479 0.52600002 150 16 0
2.6919999 1.485 0.53100002 150 16 0
2.694 1.493 0.537 150 16 0
2.687 1.495 0.54100001 150 16 0
2.6900001 1.503 0.54699999 150 16 0
2.6889999 1.508 0.551 150 16 0
2.6860001 1.513 0.55599999 146 16 0
2.684 1.517 0.56099999 149 16 0
2.6830001 1.522 0.56599998 147 16 0
2.6849999 1.529 0.57099998 148 16 0
2.6889999 1.5369999 0.57700002 150 16 0
2.687 1.5420001 0.58200002 149 16 0
2.684 1.546 0.58700001 135 16 0
2.6830001 1.551 0.59200001 133 16 0
2.687 1.558 0.59799999 129 16 0
2.6819999 1.561 0.602 122 16 0
2.6849999 1.568 0.60799998 127 16 0
2.684 1.572 0.61299998 150 16 0
2.681 1.575 0.61799997 143 16 0
2.6849999 1.582 0.62400001 92 16 0
2.674 1.58 0.62599999 44 16 0
2.6630001 1.579 0.62900001 35 16 0
2.6559999 1.579 0.63300002 33 16 0
2.652 1.581 0.63700002 33 16 0
2.641 1.579 0.639 33 16 0
2.6300001 1.577 0.64200002 32 16 0
2.6270001 1.579 0.64600003 32 16 0
2.6210001 1.579 0.64999998 32 16 0
2.6129999 1.5779999 0.653 32 16 0
2.608 1.579 0.65700001 32 16 0
2.5929999 1.574 0.65799999 31 19 0
2.589 1.575 0.662 31 16 0
2.5799999 1.573 0.66500002 31 16 0
2.576 1.574 0.66799998 35 16 0
2.5680001 1.572 0.671 35 16 0
2.5650001 1.573 0.67500001 37 16 0
2.5550001 1.5700001 0.67799997 35 16 0
2.553 1.571 0.68199998 37 16 0
2.54 1.566 0.68300003 35 16 0
2.5309999 1.564 0.68599999 36 16 0
2.5280001 1.564 0.68900001 35 16 0
2.527 1.566 0.69400001 36 16 0
2.5020001 1.552 0.69099998 35 17 0
2.507 1.557 0.69700003 36 16 0
2.5050001 1.558 0.70099998 36 16 0
2.4909999 1.551 0.70200002 36 19 0
2.4890001 1.552 0.70599997 35 16 0
2.48 1.548 0.708 35 16 0
2.4749999 1.5470001 0.71100003 35 16 0
2.4719999 1.546 0.71399999 34 16 0
2.467 1.544 0.71700001 36 16 0
2.4579999 1.54 0.71899998 36 16 0
2.45 1.536 0.72000003 35 16 0
2.4430001 1.5319999 0.722 36 16 0
2.441 1.5319999 0.72600001 37 16 0
2.434 1.528 0.72799999 36 16 0
2.434 1.529 0.73199999 37 16 0
2.428 1.525 0.73400003 35 16 0
2.425 1.523 0.73699999 36 16 0
2.4189999 1.5190001 0.73900002 36 16 0
2.408 1.513 0.73900002 36 16 0
2.411 1.515 0.74400002 38 16 0
2.402 1.5089999 0.745 38 16 0
2.3940001 1.5039999 0.74599999 37 16 0
2.392 1.502 0.74900001 37 16 0
2.3900001 1.5 0.75199997 38 16 0
2.381 1.493 0.75199997 35 19 0
2.3789999 1.492 0.755 37 16 0
2.3770001 1.489 0.75800002 37 16 0
2.3710001 1.484 0.759 37 16 0
2.369 1.482 0.76200002 37 16 0
2.3610001 1.476 0.76200002 38 16 0
2.3559999 1.472 0.764 36 16 0
2.352 1.4680001 0.76499999 36 16 0
2.352 1.466 0.76800001 38 16 0
2.3440001 1.459 0.76800001 38 19 0
2.3440001 1.457 0.77100003 38 16 0
2.3429999 1.455 0.77399999 38 16 0
2.3380001 1.45 0.77499998 38 16 0
2.335 1.4450001 0.77600002 37 16 0
2.3329999 1.442 0.778 39 16 0
2.3299999 1.438 0.77999997 36 16 0
2.3210001 1.4299999 0.77899998 38 19 0
2.325 1.429 0.78299999 40 16 0
2.3150001 1.421 0.78100002 40 18 0
2.3150001 1.418 0.78299999 39 16 0
2.3139999 1.414 0.78500003 39 16 0
2.309 1.408 0.78600001 40 16 0
2.309 1.405 0.787 39 16 0
2.3069999 1.401 0.78899997 43 16 0
2.306 1.397 0.79000002 42 16 0
2.302 1.391 0.79100001 41 16 0
2.3 1.386 0.79100001 49 16 0
2.2969999 1.381 0.792 43 16 0
2.2950001 1.376 0.79299998 46 16 0
2.296 1.373 0.79400003 48 16 0
2.2909999 1.3660001 0.79400003 47 16 0
2.2920001 1.363 0.796 48 16 0
2.2920001 1.359 0.79699999 51 16 0
2.29 1.353 0.79799998 55 16 0
2.29 1.349 0.79900002 51 16 0
2.289 1.344 0.79900002 59 16 0
2.2850001 1.337 0.79900002 58 16 0
2.2809999 1.331 0.79900002 62 16 0
2.283 1.327 0.80000001 66 16 0
2.2820001 1.322 0.80000001 56 16 0
2.2809999 1.317 0.801 59 16 0
2.2809999 1.312 0.801 64 16 0
2.279 1.306 0.801 60 16 0
2.2839999 1.304 0.80299997 58 16 0
2.2839999 1.299 0.80299997 67 16 0
2.2809999 1.2920001 0.80299997 66 16 0
2.283 1.288 0.80400002 72 16 0
2.2850001 1.284 0.80500001 68 16 0
2.2850001 1.279 0.80500001 73 16 0
2.2869999 1.274 0.80500001 71 16 0
2.2850001 1.268 0.80500001 72 16 0
2.286 1.263 0.80500001 71 16 0
2.2839999 1.256 0.80400002 73 16 0
2.286 1.252 0.80500001 80 16 0
2.2880001 1.247 0.80500001 94 16 0
2.29 1.243 0.80500001 90 16 0
2.2909999 1.237 0.80500001 91 16 0
2.2850001 1.228 0.80199999 88 16 0
2.29 1.225 0.80299997 86 16 0
2.29 1.219 0.80299997 82 16 0
2.2909999 1.214 0.80199999 75 16 0
2.2939999 1.21 0.80299997 79 16 0
2.2939999 1.204 0.80199999 79 16 0
2.296 1.198 0.80199999 77 16 0
2.299 1.193 0.801 79 16 0
2.296 1.186 0.79900002 78 16 0
2.3010001 1.182 0.80000001 82 16 0
2.3010001 1.176 0.79900002 80 16 0
2.3039999 1.171 0.79900002 95 16 0
2.3069999 1.166 0.79799998 93 16 0
2.3099999 1.161 0.79799998 72 16 0
2.3150001 1.1569999 0.79799998 74 16 0
2.313 1.15 0.796 80 16 0
2.316 1.145 0.79500002 74 16 0
2.3180001 1.1390001 0.79500002 76 16 0
2.3169999 1.132 0.79299998 69 16 0
2.325 1.1289999 0.79299998 84 16 0
2.325 1.122 0.792 97 16 0
2.3299999 1.118 0.79100001 101 16 0
2.3329999 1.113 0.79100001 86 16 0
2.336 1.107 0.79000002 96 16 0
2.3380001 1.101 0.78799999 79 16 0
2.339 1.095 0.78600001 74 16 0
2.342 1.09 0.78500003 85 16 0
2.3469999 1.085 0.78500003 88 16 0
2.348 1.0779999 0.78299999 93 16 0
2.346 1.071 0.77999997 92 16 0
2.3540001 1.067 0.77999997 88 16 0
2.3510001 1.059 0.77700001 84 16 0
2.3610001 1.056 0.77700001 95 16 0
2.3629999 1.05 0.77499998 92 16 0
2.369 1.046 0.77499998 95 16 0
2.3699999 1.039 0.77200001 93 16 0
2.375 1.034 0.77200001 91 16 0
2.381 1.03 0.77100003 98 16 0
2.382 1.023 0.76800001 96 16 0
2.3870001 1.018 0.76700002 100 16 0
2.3900001 1.012 0.76499999 91 16 0
2.395 1.007 0.764 93 16 0
2.398 1.001 0.76200002 97 16 0
2.402 0.995 0.75999999 93 16 0
2.4089999 0.991 0.759 95 16 0
2.4089999 0.98299998 0.75599998 88 16 0
2.4119999 0.977 0.75300002 91 16 0
2.4189999 0.97299999 0.75199997 79 16 0
2.424 0.96700001 0.75 81 16 0
2.427 0.96100003 0.74800003 85 16 0
2.4330001 0.95700002 0.74699998 82 16 0
2.437 0.95099998 0.74400002 68 16 0
2.441 0.94499999 0.74199998 74 16 0
2.4460001 0.94 0.74000001 84 16 0
2.4489999 0.93300003 0.73699999 73 16 0
2.4549999 0.92799997 0.73500001 82 16 0
2.4619999 0.92299998 0.73400003 76 16 0
2.4649999 0.917 0.73100001 80 16 0
2.473 0.91299999 0.73000002 80 16 0
2.4749999 0.90600002 0.727 79 16 0
2.4809999 0.90100002 0.72500002 89 16 0
2.49 0.89600003 0.72299999 88 16 0
2.4960001 0.89099997 0.72100002 93 16 0
2.494 0.88300002 0.71700001 80 16 0
2.506 0.88 0.71600002 83 16 0
2.5090001 0.87300003 0.713 86 16 0
2.5139999 0.86699998 0.70999998 79 16 0
2.5190001 0.86199999 0.70700002 71 16 0
2.526 0.85699999 0.70499998 80 16 0
2.533 0.852 0.70300001 81 16 0
2.536 0.84500003 0.699 71 16 0
2.5409999 0.83899999 0.69700003 80 16 0
2.546 0.833 0.69400001 82 16 0
2.552 0.82800001 0.69099998 74 16 0
2.5569999 0.82200003 0.68800002 87 16 0
2.562 0.81599998 0.685 81 16 0
2.575 0.81300002 0.68400002 75 16 0
2.5840001 0.80800003 0.68099999 82 16 0
2.5869999 0.801 0.67799997 76 16 0
2.595 0.796 0.67500001 72 16 0
2.596 0.78899997 0.671 75 16 0
2.6040001 0.78399998 0.66799998 69 16 0
2.6110001 0.778 0.66500002 69 16 0
2.622 0.77399999 0.66299999 79 16 0
2.625 0.76700002 0.65899998 54 16 0
2.6359999 0.76300001 0.65700001 51 16 0
2.6389999 0.75700003 0.653 57 16 0
2.6489999 0.75199997 0.65100002 50 16 0
2.658 0.74699998 0.648 51 16 0
2.6630001 0.74000001 0.64399999 57 16 0
2.6689999 0.73400003 0.64099997 47 16 0
2.675 0.72899997 0.63700002 49 16 0
2.681 0.72299999 0.63300002 50 16 0
2.6900001 0.71700001 0.63 40 16 0
2.698 0.71200001 0.62699997 38 16 0
2.71 0.70700002 0.625 39 16 0
2.7149999 0.70099998 0.62099999 37 16 0
2.7260001 0.69599998 0.61799997 38 16 0
2.733 0.69099998 0.61400002 40 16 0
2.737 0.68400002 0.61000001 38 16 0
2.7479999 0.67900002 0.60699999 36 16 0
2.7579999 0.67400002 0.60299999 39 16 0
2.766 0.66799998 0.60000002 37 16 0
2.7720001 0.662 0.59600002 39 16 0
2.786 0.65799999 0.59299999 38 16 0
2.7939999 0.65200001 0.58899999 38 16 0
2.8010001 0.64600003 0.58499998 37 16 0
2.806 0.639 0.58099997 38 16 0
2.819 0.63499999 0.57700002 36 16 0
2.826 0.62900001 0.57300001 36 16 0
2.8380001 0.62400001 0.56999999 37 16 0
2.845 0.61699998 0.56599998 35 16 0
2.8559999 0.61199999 0.56199998 37 16 0
2.8670001 0.60699999 0.55900002 35 16 0
2.8759999 0.60100001 0.55400002 35 16 0
2.882 0.59500003 0.55000001 37 16 0
2.8889999 0.588 0.54500002 35 16 0
2.905 0.58399999 0.542 35 16 0
2.9100001 0.57700002 0.537 35 16 0
2.924 0.57200003 0.53399998 37 16 0
2.931 0.56599998 0.52899998 34 16 0
2.9449999 0.56099999 0.52499998 34 16 0
2.9560001 0.55500001 0.52100003 35 16 0
2.9679999 0.55000001 0.51700002 34 16 0
2.9760001 0.54400003 0.51200002 34 16 0
2.9909999 0.53799999 0.50800002 34 16 0
2.9960001 0.53200001 0.50300002 35 16 0
3.01 0.52600002 0.49900001 34 16 0
3.023 0.52100003 0.495 35 16 0
3.0309999 0.514 0.49000001 34 16 0
3.0450001 0.509 0.48500001 34 16 0
3.0569999 0.50300002 0.48100001 34 16 0
3.0650001 0.49599999 0.47499999 34 16 0
3.0769999 0.49000001 0.47099999 34 16 0
3.0869999 0.484 0.46599999 35 16 0
3.105 0.479 0.46200001 36 16 0
3.1170001 0.47299999 0.45699999 35 16 0
3.128 0.46700001 0.45199999 35 16 0
3.1400001 0.461 0.447 35 16 0
3.1530001 0.45500001 0.442 37 16 0
3.1600001 0.44800001 0.43599999 35 16 0
3.174 0.442 0.43099999 39 16 0
3.1889999 0.43599999 0.426 56 16 0
3.1960001 0.42899999 0.41999999 150 16 0
3.198 0.421 0.41299999 150 16 0
3.201 0.414 0.40700001 150 16 0
3.1989999 0.40599999 0.39899999 150 16 0
3.201 0.398 0.39300001 144 16 0
3.2030001 0.38999999 0.38600001 150 16 0
3.204 0.38299999 0.37900001 150 16 0
3.2 0.37400001 0.37099999 150 16 0
3.2060001 0.36700001 0.36500001 146 16 0
3.2090001 0.36000001 0.35800001 150 16 0
3.21 0.352 0.35100001 150 16 0
3.207 0.34400001 0.34400001 150 16 0
3.207 0.336 0.33700001 150 16 0
3.2090001 0.329 0.33000001 132 16 0
3.2130001 0.32100001 0.32300001 138 16 0
3.2119999 0.31299999 0.31600001 123 16 0
3.214 0.30599999 0.30899999 143 16 0
3.2149999 0.29800001 0.301 135 16 0
3.2160001 0.29100001 0.294 143 16 0
3.2149999 0.28299999 0.287 124 16 0
3.2179999 0.27599999 0.28 132 16 0
3.2179999 0.26800001 0.273 128 16 0
3.2179999 0.26100001 0.266 128 16 0
3.22 0.25299999 0.259 133 16 0
3.221 0.24600001 0.25099999 135 16 0
3.2219999 0.23800001 0.244 125 16 0
3.223 0.23100001 0.237 141 16 0
3.2219999 0.223 0.229 138 16 0
3.2190001 0.215 0.222 125 16 0
3.1470001 0.20299999 0.20999999 90 17 0
3.1099999 0.19400001 0.2 39 16 0
3.1199999 0.18700001 0.19400001 27 16 0
3.0929999 0.178 0.185 21 16 0
3.187 0.176 0.183 50 16 0
3.221 0.171 0.178 111 16 0
3.2320001 0.164 0.171 139 16 0
3.223 0.156 0.163 119 16 0
3.227 0.149 0.156 123 16 0
3.224 0.141 0.148 124 16 0
3.2320001 0.134 0.141 90 16 0
3.2379999 0.127 0.134 39 16 0
3.2550001 0.121 0.127 29 16 0
3.2709999 0.114 0.12 27 16 0
3.2869999 0.107 0.113 27 16 0
3.303 0.1 0.106 29 16 0
3.325 0.093000002 0.098999999 33 16 0
3.3329999 0.086000003 0.090999998 52 16 0
3.346 0.079000004 0.083999999 17 16 0
3.2980001 0.07 0.075000003 1 18 0
3.2880001 0.063000001 0.067000002 6 16 0
3.2950001 0.056000002 0.059 8 16 0
3.3369999 0.048999999 0.052000001 10 18 0
3.3369999 0.041000001 0.044 40 16 0
3.3410001 0.034000002 0.037 55 16 0
3.3499999 0.027000001 0.028999999 44 16 0
3.3299999 0.018999999 0.021 21 16 0
3.3080001 0.012 0.013 18 16 0
3.289 0.0049999999 0.0049999999 17 16 0
3.27 -0.0020000001 -0.0020000001 16 16 0
3.2479999 -0.0089999996 -0.0099999998 17 16 0
3.2360001 -0.016000001 -0.017000001 27 16 0
3.234 -0.023 -0.025 70 16 0
3.2390001 -0.029999999 -0.033 117 16 0
3.24 -0.037 -0.041000001 110 16 0
3.234 -0.044 -0.048 120 16 0
3.24 -0.050999999 -0.056000002 128 16 0
3.234 -0.057999998 -0.064000003 137 16 0
3.237 -0.064999998 -0.071999997 150 16 0
3.233 -0.071999997 -0.079999998 50 16 0
3.2149999 -0.079000004 -0.086999997 27 16 0
3.1960001 -0.085000001 -0.093999997 26 16 0
3.181 -0.090999998 -0.101 25 16 0
3.161 -0.097999997 -0.109 25 16 0
3.1429999 -0.104 -0.116 25 16 0
3.1289999 -0.11 -0.123 24 16 0
3.112 -0.116 -0.13 24 16 0
3.092 -0.122 -0.13600001 24 16 0
3.079 -0.12800001 -0.14300001 24 16 0
3.062 -0.133 -0.15000001 25 16 0
3.0439999 -0.139 -0.15700001 25 16 0
3.0339999 -0.145 -0.164 24 16 0
3.013 -0.15000001 -0.17 25 16 0
2.9979999 -0.156 -0.177 24 16 0
2.9820001 -0.161 -0.183 24 16 0
2.97 -0.167 -0.19 25 16 0
2.9579999 -0.17200001 -0.19599999 24 16 0
2.9400001 -0.177 -0.20200001 24 16 0
2.9260001 -0.183 -0.20900001 26 16 0
2.904 -0.18700001 -0.214 26 16 0
2.888 -0.192 -0.221 24 16 0
2.8829999 -0.198 -0.227 26 16 0
2.8640001 -0.20299999 -0.233 26 16 0
2.855 -0.208 -0.23999999 25 16 0
2.8380001 -0.212 -0.245 26 16 0
2.829 -0.21799999 -0.252 26 16 0
2.8080001 -0.222 -0.257 26 16 0
2.803 -0.227 -0.264 27 16 0
2.7850001 -0.23100001 -0.26899999 25 16 0
2.7739999 -0.236 -0.27500001 26 16 0
2.7639999 -0.241 -0.28099999 27 16 0
2.7520001 -0.245 -0.287 27 16 0
2.7360001 -0.25 -0.292 27 16 0
2.724 -0.25400001 -0.29800001 26 16 0
2.7179999 -0.259 -0.30500001 26 16 0
2.707 -0.26300001 -0.31 27 16 0
2.697 -0.26800001 -0.31600001 27 16 0
2.6819999 -0.27200001 -0.32100001 28 16 0
2.674 -0.27599999 -0.32699999 28 16 0
2.6630001 -0.28 -0.333 27 16 0
2.6470001 -0.28400001 -0.338 28 16 0
2.6389999 -0.28799999 -0.34400001 27 16 0
2.6259999 -0.292 -0.34900001 28 16 0
2.6140001 -0.296 -0.354 27 16 0
2.605 -0.30000001 -0.36000001 27 16 0
2.5969999 -0.30399999 -0.366 27 16 0
2.582 -0.308 -0.37 26 16 0
2.5699999 -0.31099999 -0.375 28 16 0
2.5610001 -0.315 -0.38100001 28 16 0
2.553 -0.31900001 -0.38699999 27 16 0
2.539 -0.32300001 -0.391 26 16 0
2.53 -0.32600001 -0.39700001 27 16 0
2.523 -0.33000001 -0.40200001 27 16 0
2.513 -0.33399999 -0.40700001 27 16 0
2.5009999 -0.33700001 -0.412 29 16 0
2.494 -0.34099999 -0.41800001 25 16 0
2.48 -0.34400001 -0.42199999 28 16 0
2.4749999 -0.34799999 -0.428 28 16 0
2.4630001 -0.35100001 -0.433 28 16 0
2.4549999 -0.354 -0.43799999 28 16 0
2.4449999 -0.35800001 -0.44299999 28 16 0
2.431 -0.36000001 -0.447 28 16 0
2.4289999 -0.36500001 -0.45300001 26 16 0
2.4200001 -0.368 -0.458 28 16 0
2.4070001 -0.37 -0.46200001 31 16 0
2.401 -0.37400001 -0.46799999 30 16 0
2.3900001 -0.377 -0.472 34 16 0
2.3840001 -0.38 -0.47799999 35 16 0
2.372 -0.38299999 -0.48199999 30 16 0
2.3659999 -0.38600001 -0.48699999 30 16 0
2.352 -0.38800001 -0.491 32 16 0
2.3469999 -0.39199999 -0.49599999 30 16 0
2.339 -0.39500001 -0.50099999 29 16 0
2.3299999 -0.398 -0.50599998 27 16 0
2.322 -0.40099999 -0.51099998 29 16 0
2.3139999 -0.403 -0.51599997 30 16 0
2.306 -0.40599999 -0.51999998 29 16 0
2.289 -0.40700001 -0.523 31 16 0
2.2880001 -0.41100001 -0.52899998 32 16 0
2.28 -0.414 -0.53399998 28 16 0
2.273 -0.417 -0.53899997 31 16 0
2.2609999 -0.419 -0.542 33 16 0
2.2520001 -0.421 -0.54699999 34 16 0
2.2449999 -0.42399999 -0.55199999 35 16 0
2.243 -0.42699999 -0.55800003 34 16 0
2.234 -0.42899999 -0.56199998 36 16 0
2.224 -0.43099999 -0.56599998 37 16 0
2.217 -0.43399999 -0.56999999 54 16 0
2.2090001 -0.43599999 -0.57499999 58 16 0
2.2030001 -0.43900001 -0.57999998 52 16 0
2.1989999 -0.442 -0.58499998 58 16 0
2.191 -0.44400001 -0.58899999 55 16 0
2.1800001 -0.44499999 -0.59200001 57 16 0
2.177 -0.449 -0.59799999 54 16 0
2.1700001 -0.45100001 -0.60299999 50 16 0
2.164 -0.45300001 -0.60799998 51 16 0
2.151 -0.454 -0.61000001 53 16 0
2.145 -0.456 -0.61500001 52 16 0
2.1370001 -0.458 -0.61900002 62 16 0
2.1329999 -0.461 -0.62400001 58 16 0
2.1259999 -0.463 -0.62800002 56 16 0
2.1240001 -0.46599999 -0.634 56 16 0
2.1159999 -0.46799999 -0.63800001 64 16 0
2.1140001 -0.47099999 -0.64399999 59 16 0
2.1029999 -0.472 -0.64700001 68 16 0
2.0899999 -0.472 -0.64899999 66 16 0
2.0799999 -0.47299999 -0.65200001 65 16 0
2.0769999 -0.47600001 -0.65799999 76 16 0
2.0739999 -0.47799999 -0.66299999 72 16 0
2.0669999 -0.47999999 -0.667 66 16 0
2.0650001 -0.48199999 -0.67199999 94 16 0
2.056 -0.48300001 -0.676 99 16 0
2.053 -0.486 -0.68099999 95 16 0
2.0450001 -0.48699999 -0.685 101 16 0
2.0369999 -0.48800001 -0.68800002 96 16 0
2.0309999 -0.49000001 -0.69199997 94 16 0
2.029 -0.49200001 -0.69800001 94 16 0
2.0250001 -0.49399999 -0.70300001 104 16 0
2.0179999 -0.49599999 -0.70700002 90 16 0
2.0139999 -0.498 -0.71100003 99 16 0
2.007 -0.49900001 -0.71499997 97 16 0
1.999 -0.5 -0.71799999 91 16 0
1.997 -0.50199997 -0.72399998 104 16 0
1.989 -0.50300002 -0.727 103 16 0
1.9859999 -0.505 -0.73199999 107 16 0
1.9809999 -0.50599998 -0.736 102 16 0
1.976 -0.50800002 -0.741 98 16 0
1.974 -0.50999999 -0.74599999 101 16 0
1.971 -0.51200002 -0.75099999 104 16 0
1.964 -0.51200002 -0.75400001 101 16 0
1.961 -0.514 -0.75999999 102 16 0
1.955 -0.51499999 -0.76300001 110 16 0
1.949 -0.51599997 -0.76700002 111 16 0
1.942 -0.51700002 -0.76999998 103 16 0
1.9400001 -0.51899999 -0.77499998 109 16 0
1.936 -0.51999998 -0.77999997 109 16 0
1.928 -0.51999998 -0.78299999 103 16 0
1.923 -0.52100003 -0.787 103 16 0
1.919 -0.52200001 -0.79100001 113 16 0
1.916 -0.52399999 -0.796 109 16 0
1.911 -0.52499998 -0.80000001 108 16 0
1.911 -0.52700001 -0.80500001 108 16 0
1.906 -0.528 -0.81 104 16 0
1.9 -0.528 -0.81300002 109 16 0
1.898 -0.52899998 -0.81800002 105 16 0
1.8940001 -0.53100002 -0.82200003 107 16 0
1.8890001 -0.53100002 -0.82599998 104 16 0
1.888 -0.53299999 -0.83099997 106 16 0
1.885 -0.53399998 -0.83600003 107 16 0
1.882 -0.53500003 -0.83999997 108 16 0
1.872 -0.53399998 -0.84100002 110 16 0
1.874 -0.53600001 -0.84799999 99 16 0
1.867 -0.53600001 -0.85100001 112 16 0
1.864 -0.537 -0.85600001 103 16 0
1.862 -0.53799999 -0.86000001 110 16 0
1.858 -0.53799999 -0.86400002 129 16 0
1.855 -0.53899997 -0.86900002 138 16 0
1.848 -0.53899997 -0.87099999 135 16 0
1.845 -0.53899997 -0.875 150 16 0
1.844 -0.54000002 -0.88 150 16 0
1.841 -0.54100001 -0.884 150 16 0
1.836 -0.54100001 -0.88700002 150 16 0
1.841 -0.54400003 -0.89600003 150 16 0
1.831 -0.542 -0.89600003 150 16 0
1.829 -0.54299998 -0.89999998 150 16 0
1.826 -0.54299998 -0.90499997 150 16 0
1.824 -0.54400003 -0.90899998 150 16 0
1.822 -0.54400003 -0.91299999 150 16 0
1.819 -0.54400003 -0.917 150 16 0
1.817 -0.54500002 -0.92199999 150 16 0
1.812 -0.54400003 -0.92500001 150 16 0
1.813 -0.546 -0.93000001 150 16 0
1.8099999 -0.546 -0.93400002 150 16 0
1.808 -0.546 -0.93900001 150 16 0
1.8049999 -0.546 -0.94199997 150 16 0
1.801 -0.54500002 -0.94499999 150 16 0
1.802 -0.546 -0.95099998 150 16 0
1.799 -0.546 -0.954 150 16 0
1.798 -0.546 -0.95899999 150 16 0
1.795 -0.546 -0.963 150 16 0
1.793 -0.546 -0.96600002 150 16 0
1.791 -0.546 -0.97000003 150 16 0
1.789 -0.546 -0.97399998 150 16 0
1.7869999 -0.546 -0.97799999 150 16 0
1.785 -0.546 -0.98199999 150 16 0
1.783 -0.54500002 -0.98500001 150 16 0
1.781 -0.54500002 -0.98900002 150 16 0
1.7869999 -0.54699999 -0.99699998 150 16 0
1.785 -0.54699999 -1.001 150 16 0
1.783 -0.546 -1.0039999 150 16 0
1.783 -0.546 -1.0089999 150 16 0
1.781 -0.546 -1.012 150 16 0
1.78 -0.54500002 -1.016 150 16 0
1.778 -0.54400003 -1.0190001 149 16 0
1.776 -0.54400003 -1.022 150 16 0
1.779 -0.54500002 -1.029 146 16 0
1.778 -0.54400003 -1.0319999 147 16 0
1.776 -0.54299998 -1.035 150 16 0
1.774 -0.542 -1.038 143 16 0
1.773 -0.54100001 -1.0420001 141 16 0
1.775 -0.542 -1.0470001 149 16 0
1.776 -0.54100001 -1.051 143 16 0
1.774 -0.54000002 -1.054 142 16 0
1.773 -0.53899997 -1.057 140 16 0
1.773 -0.53899997 -1.061 150 16 0
1.77 -0.537 -1.063 140 16 0
1.77 -0.537 -1.067 140 16 0
1.772 -0.53600001 -1.072 143 16 0
1.771 -0.53500003 -1.075 148 16 0
1.774 -0.53500003 -1.08 146 16 0
1.775 -0.53500003 -1.084 146 16 0
1.774 -0.53299999 -1.087 136 16 0
1.772 -0.53200001 -1.089 140 16 0
1.774 -0.53100002 -1.0930001 142 16 0
1.779 -0.53200001 -1.1 134 19 0
1.776 -0.52999997 -1.101 132 16 0
1.777 -0.52899998 -1.105 139 16 0
1.776 -0.52700001 -1.107 139 16 0
1.779 -0.52700001 -1.112 135 16 0
1.7819999 -0.52600002 -1.1160001 131 16 0
1.784 -0.52499998 -1.12 130 16 0
1.785 -0.52399999 -1.123 124 16 0
1.784 -0.52200001 -1.125 133 16 0
1.7869999 -0.52100003 -1.13 139 16 0
1.7869999 -0.51999998 -1.132 133 16 0
1.7869999 -0.51800001 -1.135 129 16 0
1.79 -0.51800001 -1.1390001 124 16 0
1.793 -0.51700002 -1.143 124 16 0
1.793 -0.51499999 -1.145 129 16 0
1.793 -0.51300001 -1.147 120 16 0
1.8 -0.51300001 -1.153 144 19 0
1.798 -0.50999999 -1.154 141 16 0
1.804 -0.50999999 -1.159 132 19 0
1.804 -0.50800002 -1.161 135 16 0
1.807 -0.50700003 -1.164 133 16 0
1.809 -0.505 -1.1670001 136 16 0
1.811 -0.50400001 -1.17 127 16 0
1.8150001 -0.50199997 -1.174 130 16 0
1.816 -0.5 -1.175 142 16 0
1.822 -0.5 -1.181 136 19 0
1.821 -0.49700001 -1.181 133 16 0
1.8279999 -0.49700001 -1.186 128 19 0
1.824 -0.493 -1.1849999 129 16 0
1.8279999 -0.49200001 -1.188 133 16 0
1.83 -0.49000001 -1.1900001 122 16 0
1.834 -0.48800001 -1.193 129 16 0
1.836 -0.486 -1.194 133 16 0
1.8430001 -0.48500001 -1.2 118 19 0
1.848 -0.484 -1.204 132 16 0
1.854 -0.48300001 -1.207 126 16 0
1.855 -0.47999999 -1.2079999 120 16 0
1.859 -0.47799999 -1.21 122 16 0
1.8660001 -0.477 -1.215 116 19 0
1.864 -0.47400001 -1.214 114 16 0
1.867 -0.472 -1.215 123 16 0
1.872 -0.47 -1.2180001 111 16 0
1.877 -0.46799999 -1.221 114 16 0
1.8839999 -0.46700001 -1.225 110 16 0
1.886 -0.465 -1.225 116 16 0
1.887 -0.46200001 -1.225 110 16 0
1.892 -0.46000001 -1.228 113 16 0
1.898 -0.458 -1.2309999 112 16 0
1.902 -0.456 -1.232 107 16 0
1.908 -0.454 -1.234 122 16 0
1.909 -0.45100001 -1.234 120 16 0
1.915 -0.449 -1.2359999 115 16 0
1.916 -0.44600001 -1.2359999 119 16 0
1.921 -0.44400001 -1.238 122 16 0
1.924 -0.442 -1.238 122 16 0
1.933 -0.44 -1.242 121 16 0
1.942 -0.43900001 -1.245 128 16 0
1.946 -0.43599999 -1.2460001 120 16 0
1.948 -0.433 -1.245 117 16 0
1.954 -0.43099999 -1.247 114 16 0
1.961 -0.42899999 -1.249 110 16 0
1.9630001 -0.426 -1.248 110 16 0
1.965 -0.42300001 -1.247 111 16 0
1.973 -0.421 -1.25 113 16 0
1.978 -0.419 -1.25 113 16 0
1.98 -0.41600001 -1.249 109 16 0
1.992 -0.41499999 -1.253 111 19 0
1.997 -0.412 -1.253 107 16 0
2 -0.40900001 -1.253 110 16 0
2.0090001 -0.40700001 -1.255 111 16 0
2.0150001 -0.405 -1.256 117 16 0
2.0179999 -0.40200001 -1.2539999 112 16 0
2.0239999 -0.39899999 -1.255 111 16 0
2.0309999 -0.39700001 -1.255 110 16 0
2.0339999 -0.39399999 -1.2539999 106 16 0
2.0420001 -0.39199999 -1.255 104 16 0
2.0480001 -0.389 -1.255 117 16 0
2.0580001 -0.38699999 -1.257 114 16 0
2.0599999 -0.384 -1.255 117 16 0
2.0699999 -0.382 -1.257 121 16 0
2.073 -0.37900001 -1.255 122 16 0
2.0780001 -0.37599999 -1.2539999 119 16 0
2.085 -0.37400001 -1.2539999 119 16 0
2.0940001 -0.37099999 -1.255 127 16 0
2.096 -0.368 -1.252 119 16 0
2.1029999 -0.366 -1.251 118 16 0
2.1110001 -0.36300001 -1.252 118 16 0
2.1159999 -0.36000001 -1.25 86 16 0
2.122 -0.35699999 -1.249 87 16 0
2.1300001 -0.35499999 -1.248 88 16 0
2.132 -0.352 -1.245 80 16 0
2.142 -0.34999999 -1.2460001 88 16 0
2.1500001 -0.347 -1.2460001 89 16 0
2.154 -0.34400001 -1.242 97 16 0
2.1619999 -0.34099999 -1.242 89 16 0
2.1670001 -0.33899999 -1.24 92 16 0
2.1689999 -0.33500001 -1.235 78 16 0
2.181 -0.333 -1.237 85 16 0
2.1889999 -0.331 -1.2359999 91 16 0
2.1960001 -0.32800001 -1.234 88 16 0
2.1989999 -0.32499999 -1.23 85 16 0
2.211 -0.32300001 -1.2309999 93 16 0
2.2160001 -0.31999999 -1.228 89 16 0
2.2190001 -0.317 -1.224 86 16 0
2.23 -0.31400001 -1.224 96 16 0
2.2379999 -0.31200001 -1.223 86 16 0
2.2390001 -0.308 -1.2180001 90 16 0
2.25 -0.30599999 -1.217 87 16 0
2.2550001 -0.303 -1.214 85 16 0
2.26 -0.30000001 -1.21 92 16 0
2.27 -0.29800001 -1.21 84 16 0
2.276 -0.29499999 -1.206 81 16 0
2.2780001 -0.292 -1.201 79 16 0
2.2909999 -0.28999999 -1.202 87 16 0
2.296 -0.287 -1.198 86 16 0
2.309 -0.285 -1.198 87 16 0
2.312 -0.28200001 -1.193 88 16 0
2.3180001 -0.27900001 -1.189 90 16 0
2.325 -0.27599999 -1.186 83 16 0
2.332 -0.273 -1.183 83 16 0
2.3410001 -0.271 -1.181 79 16 0
2.349 -0.26800001 -1.178 92 16 0
2.3559999 -0.266 -1.174 83 16 0
2.3610001 -0.26300001 -1.17 85 16 0
2.372 -0.26100001 -1.168 79 16 0
2.375 -0.257 -1.163 76 16 0
2.3859999 -0.255 -1.161 70 16 0
2.391 -0.252 -1.156 76 16 0
2.402 -0.25 -1.154 80 16 0
2.4059999 -0.24699999 -1.149 69 16 0
2.421 -0.245 -1.148 78 16 0
2.4260001 -0.243 -1.1440001 65 16 0
2.4289999 -0.23999999 -1.138 68 16 0
2.437 -0.237 -1.1339999 69 16 0
2.447 -0.235 -1.131 72 16 0
2.448 -0.23100001 -1.123 72 16 0
2.461 -0.23 -1.122 76 16 0
2.4690001 -0.227 -1.118 75 16 0
2.4790001 -0.22499999 -1.115 73 16 0
2.4860001 -0.222 -1.11 69 16 0
2.493 -0.22 -1.105 67 16 0
2.497 -0.21699999 -1.099 64 16 0
2.5020001 -0.214 -1.094 59 16 0
2.51 -0.212 -1.089 68 16 0
2.5179999 -0.20900001 -1.084 64 16 0
2.5220001 -0.206 -1.0779999 61 16 0
2.5280001 -0.204 -1.073 57 16 0
2.5350001 -0.20200001 -1.068 66 16 0
2.55 -0.2 -1.066 64 16 0
2.5569999 -0.197 -1.061 63 16 0
2.562 -0.19499999 -1.0549999 60 16 0
2.566 -0.192 -1.048 63 16 0
2.5739999 -0.19 -1.043 63 16 0
2.5829999 -0.18700001 -1.038 63 16 0
2.592 -0.185 -1.033 60 16 0
2.596 -0.183 -1.027 59 16 0
2.602 -0.18000001 -1.021 57 16 0
2.6129999 -0.178 -1.016 55 16 0
2.619 -0.176 -1.01 58 16 0
2.625 -0.17299999 -1.0039999 37 16 0
2.6340001 -0.171 -0.99900001 39 16 0
2.638 -0.168 -0.99199998 38 16 0
2.6470001 -0.16599999 -0.98699999 37 16 0
2.658 -0.164 -0.98199999 38 16 0
2.6670001 -0.162 -0.977 39 16 0
2.6700001 -0.16 -0.96899998 37 16 0
2.6819999 -0.15800001 -0.96499997 38 16 0
2.687 -0.155 -0.958 39 16 0
2.6919999 -0.153 -0.95099998 37 16 0
2.6960001 -0.15099999 -0.94400001 37 16 0
2.71 -0.149 -0.94 33 16 0
2.7130001 -0.146 -0.93199998 32 16 0
2.723 -0.14399999 -0.926 33 16 0
2.7279999 -0.142 -0.91900003 34 16 0
2.7349999 -0.14 -0.912 34 16 0
2.7449999 -0.138 -0.90700001 34 16 0
2.7539999 -0.13600001 -0.90100002 34 16 0
2.757 -0.134 -0.89300001 34 16 0
2.766 -0.132 -0.88700002 34 16 0
2.7720001 -0.13 -0.88 34 16 0
2.7780001 -0.12800001 -0.87199998 34 16 0
2.789 -0.126 -0.86699998 34 16 0
2.793 -0.124 -0.85900003 33 16 0
2.8010001 -0.122 -0.852 34 16 0
2.8099999 -0.12 -0.84500003 34 16 0
2.819 -0.118 -0.83899999 35 16 0
2.826 -0.116 -0.83200002 33 16 0
2.8340001 -0.114 -0.82499999 33 16 0
2.839 -0.112 -0.81699997 34 16 0
2.849 -0.11 -0.81 34 16 0
2.8529999 -0.108 -0.80199999 32 16 0
2.8640001 -0.107 -0.796 34 16 0
2.869 -0.105 -0.78799999 34 16 0
2.875 -0.103 -0.77999997 33 16 0
2.881 -0.101 -0.77200001 34 16 0
2.8889999 -0.098999999 -0.76499999 33 16 0
2.898 -0.097000003 -0.75800002 33 16 0
2.9059999 -0.096000001 -0.75 33 16 0
2.9119999 -0.093999997 -0.74199998 32 16 0
2.915 -0.092 -0.73400003 35 16 0
2.9189999 -0.090000004 -0.72500002 35 16 0
2.9219999 -0.088 -0.71600002 36 16 0
2.9389999 -0.086999997 -0.71100003 39 16 0
2.9489999 -0.085000001 -0.70300001 45 16 0
2.9579999 -0.082999997 -0.69599998 57 16 0
2.9630001 -0.082000002 -0.68699998 101 16 0
2.9719999 -0.079999998 -0.67900002 150 16 0
2.971 -0.078000002 -0.67000002 150 16 0
2.9749999 -0.075999998 -0.66100001 150 16 0
2.98 -0.075000003 -0.65200001 150 16 0
2.983 -0.072999999 -0.64300001 150 16 0
2.9849999 -0.071000002 -0.634 150 16 0
2.9890001 -0.07 -0.625 150 16 0
2.9949999 -0.068000004 -0.616 150 16 0
2.9990001 -0.067000002 -0.60699999 150 16 0
3.003 -0.064999998 -0.59799999 150 16 0
3.0020001 -0.063000001 -0.588 150 16 0
3.006 -0.061999999 -0.57999998 150 16 0
3.0079999 -0.059999999 -0.56999999 150 16 0
3.01 -0.059 -0.56099999 150 16 0
3.016 -0.057 -0.55199999 150 16 0
3.02 -0.056000002 -0.54299998 150 16 0
3.02 -0.054000001 -0.53299999 150 16 0
3.023 -0.052999999 -0.52399999 150 16 0
3.0280001 -0.050999999 -0.51499999 150 16 0
3.0280001 -0.050000001 -0.505 150 16 0
3.036 -0.048999999 -0.49599999 150 16 0
3.0409999 -0.046999998 -0.48699999 150 16 0
3.043 -0.046 -0.477 150 16 0
3.046 -0.044 -0.46799999 150 16 0
3.053 -0.043000001 -0.45899999 150 16 0
3.052 -0.041999999 -0.449 150 16 0
3.059 -0.041000001 -0.44 150 16 0
3.0639999 -0.039000001 -0.43099999 150 16 0
3.0610001 -0.037999999 -0.421 150 16 0
3.0699999 -0.037 -0.412 150 16 0
3.072 -0.035999998 -0.40200001 150 16 0
3.075 -0.034000002 -0.39300001 150 16 0
3.0769999 -0.033 -0.38299999 150 16 0
3.0810001 -0.032000002 -0.373 150 16 0
3.0829999 -0.030999999 -0.36399999 150 16 0
3.0910001 -0.029999999 -0.354 150 16 0
3.092 -0.028000001 -0.345 150 16 0
3.098 -0.027000001 -0.33500001 150 16 0
3.1040001 -0.026000001 -0.32600001 150 16 0
3.1110001 -0.025 -0.31600001 149 16 0
3.108 -0.024 -0.30599999 107 16 0
3.1159999 -0.023 -0.29699999 89 16 0
3.1199999 -0.022 -0.287 72 16 0
3.1210001 -0.021 -0.27700001 49 16 0
3.122 -0.02 -0.26699999 42 16 0
3.132 -0.018999999 -0.25799999 40 16 0
3.141 -0.017999999 -0.248 34 16 0
3.142 -0.017000001 -0.23800001 32 16 0
3.148 -0.016000001 -0.228 30 16 0
3.1530001 -0.015 -0.219 28 16 0
3.1589999 -0.014 -0.20900001 24 16 0
3.1659999 -0.014 -0.199 25 16 0
3.1670001 -0.013 -0.189 24 16 0
3.174 -0.012 -0.17900001 23 16 0
3.1789999 -0.011 -0.169 22 16 0
3.1900001 -0.0099999998 -0.15899999 21 16 0
3.197 -0.0089999996 -0.149 20 16 0
3.197 -0.0089999996 -0.139 20 16 0
3.204 -0.0080000004 -0.12899999 19 16 0
3.2130001 -0.0070000002 -0.119 18 16 0
3.214 -0.0060000001 -0.109 19 16 0
3.2190001 -0.0060000001 -0.098999999 18 16 0
3.2279999 -0.0049999999 -0.088 18 16 0
3.2349999 -0.0040000002 -0.078000002 19 16 0
3.24 -0.0040000002 -0.068000004 18 16 0
3.2479999 -0.003 -0.057 18 16 0
3.2490001 -0.0020000001 -0.046999998 18 16 0
3.256 -0.0020000001 -0.035999998 18 16 0
3.2609999 -0.001 -0.026000001 19 16 0
3.267 0 -0.015 19 16 0
3.276 0 -0.0049999999 18 16 0
3.2720001 0 0.0049999999 18 16 0
3.289 0 0.015 19 16 0
3.2920001 0.001 0.026000001 19 16 0
3.296 0.001 0.037 19 16 0
3.303 0.0020000001 0.046999998 19 16 0
3.3099999 0.0020000001 0.057999998 20 16 0
3.313 0.003 0.068999998 19 16 0
3.316 0.003 0.079999998 20 16 0
3.319 0.0040000002 0.090999998 26 16 0
3.3050001 0.0040000002 0.101 39 16 0
3.2939999 0.0040000002 0.111 81 16 0
3.2909999 0.0049999999 0.122 150 16 0
3.2939999 0.0049999999 0.133 150 16 0
3.293 0.0060000001 0.14300001 150 16 0
3.2980001 0.0060000001 0.154 150 16 0
3.3039999 0.0060000001 0.16500001 150 16 0
3.312 0.0060000001 0.176 150 16 0
3.3169999 0.0070000002 0.18700001 150 16 0
3.323 0.0070000002 0.199 150 16 0
3.322 0.0070000002 0.20900001 150 16 0
3.326 0.0070000002 0.22 150 16 0
3.3380001 0.0080000004 0.23199999 150 16 0
3.339 0.0080000004 0.243 150 16 0
3.3380001 0.0080000004 0.25400001 150 16 0
3.345 0.0080000004 0.26499999 150 16 0
3.359 0.0080000004 0.27700001 150 16 0
3.359 0.0080000004 0.28799999 150 16 0
3.3610001 0.0080000004 0.29899999 150 16 0
3.3659999 0.0080000004 0.31 150 16 0
3.3670001 0.0089999996 0.32100001 150 16 0
3.3789999 0.0089999996 0.33399999 150 16 0
3.375 0.0089999996 0.34400001 150 16 0
3.362 0.0080000004 0.354 46 16 0
3.339 0.0080000004 0.36199999 42 16 0
3.3199999 0.0080000004 0.37099999 41 16 0
3.2969999 0.0080000004 0.37900001 42 16 0
3.277 0.0080000004 0.38800001 42 16 0
3.26 0.0080000004 0.396 43 16 0
3.24 0.0080000004 0.40400001 43 16 0
3.2219999 0.0070000002 0.41299999 43 16 0
3.2060001 0.0070000002 0.421 46 16 0
3.1819999 0.0070000002 0.428 44 16 0
3.168 0.0070000002 0.43700001 47 16 0
3.148 0.0060000001 0.44400001 41 16 0
3.128 0.0060000001 0.45199999 44 16 0
3.1110001 0.0060000001 0.46000001 44 16 0
3.0880001 0.0049999999 0.46599999 46 16 0
3.0699999 0.0049999999 0.47400001 44 16 0
3.059 0.0049999999 0.48199999 43 16 0
3.04 0.0040000002 0.48899999 44 16 0
3.0280001 0.0040000002 0.49700001 42 16 0
3.0109999 0.0040000002 0.50400001 41 16 0
2.9979999 0.003 0.51200002 40 16 0
2.9809999 0.003 0.51899999 40 16 0
2.9649999 0.0020000001 0.52600002 42 16 0
2.9430001 0.0020000001 0.53100002 43 16 0
2.9330001 0.001 0.53899997 40 16 0
2.9200001 0.001 0.54699999 42 16 0
2.8970001 0 0.55199999 43 16 0
2.875 0 0.55699998 42 16 0
2.8640001 0 0.565 57 16 0
2.849 0 0.57099998 72 16 0
2.8410001 -0.001 0.579 47 16 0
2.832 -0.0020000001 0.58600003 48 16 0
2.816 -0.0020000001 0.59200001 51 16 0
2.7969999 -0.003 0.59799999 53 16 0
2.7850001 -0.003 0.60399997 51 16 0
2.7720001 -0.0040000002 0.611 54 16 0
2.7609999 -0.0049999999 0.61699998 50 16 0
2.7479999 -0.0049999999 0.62300003 49 16 0
2.73 -0.0060000001 0.62800002 55 16 0
2.721 -0.0070000002 0.63499999 61 16 0
2.7 -0.0070000002 0.639 64 16 0
2.6900001 -0.0080000004 0.64600003 66 16 0
2.6819999 -0.0089999996 0.653 61 16 0
2.6730001 -0.0099999998 0.66000003 72 16 0
2.655 -0.011 0.66399997 95 16 0
2.645 -0.011 0.67000002 81 16 0
2.632 -0.012 0.676 79 16 0
2.6259999 -0.013 0.68300003 87 16 0
2.6029999 -0.014 0.68599999 103 16 0
2.5910001 -0.015 0.69099998 97 16 0
2.582 -0.016000001 0.69700003 114 16 0
2.5699999 -0.016000001 0.70300001 105 16 0
2.553 -0.017000001 0.70700002 110 16 0
2.5420001 -0.017999999 0.71200001 114 16 0
2.529 -0.018999999 0.71700001 118 16 0
2.52 -0.02 0.72299999 113 16 0
2.51 -0.021 0.72799999 121 16 0
2.4920001 -0.022 0.73199999 116 16 0
2.48 -0.023 0.736 123 16 0
2.4749999 -0.024 0.74299997 128 16 0
2.4630001 -0.025 0.74800003 118 16 0
2.45 -0.026000001 0.75199997 118 16 0
2.438 -0.027000001 0.75599998 122 16 0
2.4300001 -0.028000001 0.76200002 110 16 0
2.4200001 -0.028999999 0.76700002 150 16 0
2.411 -0.029999999 0.77200001 150 16 0
2.4030001 -0.030999999 0.778 150 16 0
2.392 -0.032000002 0.78200001 150 16 0
2.382 -0.033 0.787 150 16 0
2.372 -0.034000002 0.79100001 150 16 0
2.3640001 -0.035999998 0.79699999 150 16 0
2.3570001 -0.037 0.80199999 150 16 0
2.3429999 -0.037999999 0.80599999 150 16 0
2.335 -0.039000001 0.81099999 150 16 0
2.3269999 -0.039999999 0.81599998 150 16 0
2.313 -0.041999999 0.81900001 150 16 0
2.3010001 -0.043000001 0.82200003 150 16 0
2.2939999 -0.044 0.82700002 150 16 0
2.2850001 -0.045000002 0.83200002 150 16 0
2.273 -0.046 0.83499998 150 16 0
2.2639999 -0.048 0.83899999 150 16 0
2.257 -0.048999999 0.84399998 150 16 0
2.2479999 -0.050000001 0.84799999 150 16 0
2.2390001 -0.052000001 0.852 150 16 0
2.23 -0.052999999 0.85600001 150 16 0
2.223 -0.054000001 0.861 150 16 0
2.2160001 -0.056000002 0.86500001 150 16 0
2.2019999 -0.057 0.86699998 150 16 0
2.1930001 -0.057999998 0.87099999 150 16 0
2.1830001 -0.059999999 0.87400001 150 16 0
2.1719999 -0.061000001 0.87699997 150 16 0
2.1700001 -0.063000001 0.88300002 150 16 0
2.1600001 -0.064000003 0.88700002 150 16 0
2.1489999 -0.064999998 0.889 150 16 0
2.1440001 -0.067000002 0.89399999 150 16 0
2.1329999 -0.068000004 0.89700001 150 16 0
2.1300001 -0.07 0.903 150 16 0
2.122 -0.071999997 0.90600002 150 16 0
2.1070001 -0.072999999 0.90700001 150 16 0
2.102 -0.074000001 0.912 150 16 0
2.095 -0.075999998 0.91500002 150 16 0
2.0880001 -0.078000002 0.91900003 150 16 0
2.079 -0.079000004 0.92199999 150 16 0
2.0739999 -0.081 0.92699999 150 16 0
2.0650001 -0.082000002 0.92900002 150 16 0
2.056 -0.083999999 0.93199998 150 16 0
2.0510001 -0.086000003 0.93599999 150 16 0
2.043 -0.086999997 0.93900001 150 16 0
2.0309999 -0.089000002 0.94099998 150 16 0
2.0239999 -0.090000004 0.94400001 150 16 0
2.02 -0.092 0.94800001 150 16 0
2.0090001 -0.093999997 0.94999999 150 16 0
2.006 -0.096000001 0.95499998 150 16 0
1.9910001 -0.097000003 0.954 150 16 0
1.985 -0.098999999 0.95700002 150 16 0
1.9809999 -0.101 0.96200001 150 16 0
1.974 -0.102 0.96499997 150 16 0
1.966 -0.104 0.96700001 150 16 0
1.961 -0.106 0.97000003 150 16 0
1.948 -0.107 0.97000003 150 16 0
1.946 -0.109 0.97500002 150 16 0
1.939 -0.111 0.97799999 150 16 0
1.9299999 -0.113 0.97899997 150 16 0
1.928 -0.115 0.98500001 150 16 0
1.921 -0.117 0.98699999 150 16 0
1.911 -0.118 0.98699999 150 16 0
1.9069999 -0.12 0.991 150 16 0
1.9 -0.122 0.99299997 150 16 0
1.896 -0.124 0.99699998 150 16 0
1.888 -0.126 0.99800003 150 16 0
1.885 -0.12800001 1.003 150 16 0
1.881 -0.13 1.006 150 16 0
1.869 -0.132 1.005 150 16 0
1.863 -0.134 1.007 150 16 0
1.855 -0.13600001 1.0089999 150 16 0
1.851 -0.138 1.012 150 16 0
1.847 -0.14 1.015 150 16 0
1.84 -0.142 1.016 150 16 0
1.837 -0.14399999 1.02 150 16 0
1.8329999 -0.146 1.023 150 16 0
1.824 -0.148 1.023 150 16 0
1.8200001 -0.15000001 1.026 150 16 0
1.817 -0.152 1.03 150 16 0
1.813 -0.154 1.0319999 150 16 0
1.803 -0.156 1.031 150 16 0
1.801 -0.15800001 1.035 150 16 0
1.794 -0.16 1.036 150 16 0
1.791 -0.163 1.039 150 16 0
1.785 -0.16500001 1.04 150 16 0
1.784 -0.167 1.044 150 16 0
1.767 -0.168 1.039 150 19 0
1.762 -0.17 1.04 150 16 0
1.758 -0.17299999 1.043 150 16 0
1.756 -0.175 1.046 150 16 0
1.751 -0.177 1.0470001 150 16 0
1.749 -0.17900001 1.05 150 16 0
1.745 -0.182 1.052 150 16 0
1.743 -0.184 1.0549999 150 16 0
1.7410001 -0.186 1.058 150 16 0
1.7359999 -0.189 1.059 150 16 0
1.735 -0.191 1.062 150 16 0
1.73 -0.193 1.063 150 16 0
1.726 -0.19599999 1.0650001 150 16 0
1.724 -0.198 1.067 150 16 0
1.72 -0.2 1.069 150 16 0
1.716 -0.20299999 1.0700001 150 16 0
1.7130001 -0.205 1.072 150 16 0
1.709 -0.207 1.072 150 16 0
1.706 -0.20999999 1.074 150 16 0
1.702 -0.212 1.075 150 16 0
1.7 -0.214 1.077 150 16 0
1.7 -0.21699999 1.08 150 16 0
1.7 -0.22 1.084 150 16 0
1.6950001 -0.222 1.084 150 16 0
1.6900001 -0.22400001 1.084 150 16 0
1.679 -0.22499999 1.079 150 19 0
1.677 -0.228 1.081 150 16 0
1.676 -0.23 1.0829999 150 16 0
1.674 -0.233 1.085 150 16 0
1.673 -0.235 1.086 150 16 0
1.669 -0.23800001 1.086 150 16 0
1.663 -0.23899999 1.085 150 16 0
1.665 -0.242 1.089 150 16 0
1.665 -0.245 1.091 150 16 0
1.6569999 -0.24699999 1.089 150 16 0
1.656 -0.249 1.09 150 16 0
1.655 -0.252 1.091 150 16 0
1.654 -0.25400001 1.0930001 150 16 0
1.653 -0.257 1.094 150 16 0
1.651 -0.259 1.095 150 16 0
1.649 -0.26199999 1.095 150 16 0
1.648 -0.264 1.096 150 16 0
1.648 -0.26699999 1.098 150 16 0
1.647 -0.27000001 1.099 150 16 0
1.646 -0.27200001 1.1 150 16 0
1.6440001 -0.27399999 1.1 150 16 0
1.643 -0.27700001 1.1 150 16 0
1.642 -0.27900001 1.101 150 16 0
1.6390001 -0.28099999 1.1 150 16 0
1.64 -0.28400001 1.102 150 16 0
1.6390001 -0.287 1.102 150 16 0
1.637 -0.289 1.102 150 16 0
1.64 -0.292 1.104 150 16 0
1.636 -0.294 1.102 150 16 0
1.635 -0.296 1.102 150 16 0
1.636 -0.29899999 1.104 150 16 0
1.6339999 -0.301 1.103 150 16 0
1.636 -0.30399999 1.104 150 16 0
1.635 -0.30599999 1.104 150 16 0
1.637 -0.30899999 1.1059999 150 16 0
1.637 -0.31099999 1.105 150 16 0
1.638 -0.31400001 1.1059999 150 16 0
1.635 -0.31600001 1.104 150 16 0
1.6390001 -0.31900001 1.107 150 16 0
1.64 -0.32100001 1.108 150 16 0
1.643 -0.324 1.109 150 16 0
1.6440001 -0.32699999 1.109 150 16 0
1.645 -0.329 1.109 150 16 0
1.647 -0.33199999 1.11 149 16 0
1.647 -0.33399999 1.11 129 16 0
1.65 -0.33700001 1.1109999 133 16 0
1.651 -0.33899999 1.11 119 16 0
1.651 -0.34099999 1.11 115 16 0
1.652 -0.34400001 1.109 123 16 0
1.654 -0.34599999 1.109 120 16 0
1.654 -0.34799999 1.108 121 16 0
1.654 -0.35100001 1.107 128 16 0
1.655 -0.35299999 1.107 137 16 0
1.654 -0.354 1.104 130 16 0
1.656 -0.35699999 1.104 141 16 0
1.658 -0.359 1.104 150 16 0
1.659 -0.361 1.103 150 16 0
1.658 -0.36300001 1.101 150 16 0
1.66 -0.36500001 1.1 150 16 0
1.66 -0.36700001 1.097 150 16 0
1.664 -0.37 1.098 150 16 0
1.664 -0.37099999 1.096 150 16 0
1.665 -0.373 1.095 150 16 0
1.669 -0.37599999 1.095 150 16 0
1.6720001 -0.37799999 1.095 150 16 0
1.6720001 -0.38 1.092 150 16 0
1.675 -0.382 1.091 150 16 0
1.676 -0.384 1.089 150 16 0
1.6799999 -0.38600001 1.089 150 16 0
1.681 -0.38800001 1.087 150 16 0
1.682 -0.389 1.085 150 16 0
1.686 -0.39199999 1.085 150 16 0
1.688 -0.39300001 1.0829999 150 16 0
1.689 -0.39500001 1.08 150 16 0
1.692 -0.39700001 1.079 150 16 0
1.693 -0.398 1.077 150 16 0
1.698 -0.40099999 1.077 150 16 0
1.699 -0.40200001 1.074 150 16 0
1.702 -0.40400001 1.072 150 16 0
1.7029999 -0.405 1.069 150 16 0
1.704 -0.40599999 1.067 150 16 0
1.709 -0.40799999 1.066 150 16 0
1.725 -0.41299999 1.072 150 18 0
1.726 -0.414 1.069 150 16 0
1.732 -0.41600001 1.069 150 16 0
1.734 -0.41800001 1.066 150 16 0
1.738 -0.41999999 1.0650001 150 16 0
1.742 -0.421 1.063 150 16 0
1.747 -0.42300001 1.062 150 16 0
1.752 -0.42500001 1.061 150 16 0
1.756 -0.426 1.059 150 16 0
1.761 -0.428 1.057 150 16 0
1.765 -0.43000001 1.056 150 16 0
1.7690001 -0.43099999 1.053 150 16 0
1.773 -0.433 1.051 150 16 0
1.777 -0.43399999 1.049 150 16 0
1.781 -0.435 1.0470001 150 16 0
1.793 -0.43799999 1.049 150 19 0
1.801 -0.44100001 1.049 136 16 0
1.804 -0.442 1.046 124 16 0
1.8049999 -0.442 1.0420001 136 16 0
1.811 -0.44400001 1.04 150 16 0
1.811 -0.44400001 1.035 150 16 0
1.8200001 -0.44600001 1.035 150 16 0
1.822 -0.44600001 1.031 150 16 0
1.831 -0.44800001 1.031 150 16 0
1.835 -0.44999999 1.028 150 16 0
1.839 -0.44999999 1.025 150 16 0
1.848 -0.45199999 1.025 150 16 0
1.848 -0.45199999 1.0190001 150 16 0
1.854 -0.45300001 1.018 150 16 0
1.8660001 -0.456 1.018 150 16 0
1.8660001 -0.456 1.013 150 16 0
1.872 -0.45699999 1.01 150 16 0
1.881 -0.458 1.01 150 16 0
1.887 -0.45899999 1.008 150 16 0
1.89 -0.46000001 1.003 150 16 0
1.897 -0.461 1.001 150 16 0
1.9069999 -0.46200001 1.001 150 16 0
1.91 -0.463 0.99599999 150 16 0
1.915 -0.463 0.99299997 150 16 0
1.9220001 -0.46399999 0.991 150 16 0
1.926 -0.46399999 0.98699999 150 16 0
1.931 -0.465 0.98400003 150 16 0
1.936 -0.465 0.98000002 150 16 0
1.952 -0.46799999 0.98199999 150 16 0
1.957 -0.46799999 0.97799999 150 16 0
1.967 -0.47 0.977 150 16 0
1.971 -0.46900001 0.97299999 150 16 0
1.98 -0.47099999 0.97100002 150 16 0
1.9859999 -0.47099999 0.96799999 150 16 0
1.993 -0.47099999 0.96499997 150 16 0
1.999 -0.472 0.96200001 150 16 0
2.0079999 -0.472 0.95999998 150 16 0
2.017 -0.47299999 0.95700002 150 16 0
2.0209999 -0.47299999 0.95200002 150 16 0
2.0309999 -0.47400001 0.95099998 150 16 0
2.039 -0.47400001 0.94800001 150 16 0
2.043 -0.47400001 0.94300002 150 16 0
2.0510001 -0.47400001 0.94 150 16 0
