# .PCD v0.7 - Point Cloud Data file format
VERSION 0.7
FIELDS x y z intensity tag line
SIZE 4 4 4 4 1 1
TYPE F F F F U U
COUNT 1 1 1 1 1 1
WIDTH 1337
HEIGHT 1
VIEWPOINT 0 0 0 1 0 0 0
POINTS 1337
DATA ascii
1.76 -0.41800001 1.0549999 150 16 0
1.76 -0.42199999 1.057 150 16 0
1.75 -0.42300001 1.054 150 16 0
1.756 -0.42699999 1.0599999 150 16 0
1.748 -0.42899999 1.058 150 16 0
1.745 -0.43200001 1.059 150 16 0
1.742 -0.43399999 1.059 150 16 0
1.742 -0.43700001 1.062 150 16 0
1.74 -0.44 1.063 150 16 0
1.7359999 -0.44299999 1.063 150 16 0
1.735 -0.44600001 1.064 150 16 0
1.734 -0.449 1.066 150 16 0
1.732 -0.45199999 1.067 150 16 0
1.7309999 -0.454 1.068 150 16 0
1.729 -0.45699999 1.069 150 16 0
1.728 -0.46000001 1.0700001 150 16 0
1.726 -0.463 1.071 150 16 0
1.725 -0.46599999 1.071 150 16 0
1.724 -0.46900001 1.073 150 16 0
1.723 -0.472 1.073 150 16 0
1.7180001 -0.47299999 1.072 150 16 0
1.72 -0.477 1.074 150 16 0
1.72 -0.47999999 1.075 150 16 0
1.7180001 -0.48199999 1.075 150 16 0
1.721 -0.486 1.0779999 150 16 0
1.7180001 -0.48899999 1.0779999 150 16 0
1.723 -0.493 1.081 150 16 0
1.721 -0.495 1.081 150 16 0
1.722 -0.49900001 1.082 132 16 0
1.727 -0.50300002 1.086 99 16 0
1.73 -0.50700003 1.089 84 16 0
1.7309999 -0.50999999 1.09 75 16 0
1.739 -0.51499999 1.095 73 18 0
1.7410001 -0.51800001 1.097 61 16 0
1.747 -0.523 1.101 64 16 0
1.747 -0.52600002 1.101 63 16 0
1.751 -0.52999997 1.103 63 16 0
1.7539999 -0.53299999 1.1059999 59 16 0
1.756 -0.537 1.107 58 16 0
1.757 -0.54000002 1.107 58 16 0
1.76 -0.54299998 1.109 60 16 0
1.762 -0.54699999 1.11 56 16 0
1.763 -0.54900002 1.11 55 16 0
1.765 -0.55199999 1.11 56 16 0
1.7690001 -0.55599999 1.112 59 16 0
1.771 -0.55900002 1.113 62 16 0
1.774 -0.56199998 1.114 61 16 0
1.774 -0.565 1.113 59 16 0
1.777 -0.56800002 1.114 54 16 0
1.777 -0.56999999 1.113 55 16 0
1.779 -0.57300001 1.113 53 16 0
1.7819999 -0.57599998 1.113 55 16 0
1.78 -0.57800001 1.1109999 51 16 0
1.783 -0.58099997 1.1109999 51 16 0
1.7819999 -0.583 1.109 55 16 0
1.7819999 -0.58499998 1.107 50 16 0
1.783 -0.58700001 1.1059999 49 16 0
1.784 -0.58899999 1.105 51 16 0
1.783 -0.59100002 1.103 51 16 0
1.784 -0.59299999 1.101 50 16 0
1.784 -0.59399998 1.099 51 16 0
1.785 -0.59600002 1.097 55 16 0
1.783 -0.59799999 1.094 52 16 0
1.784 -0.59899998 1.0930001 54 16 0
1.7819999 -0.60000002 1.089 51 16 0
1.78 -0.60100001 1.085 50 16 0
1.784 -0.60399997 1.085 57 16 0
1.779 -0.60299999 1.079 60 16 0
1.779 -0.60500002 1.077 64 16 0
1.779 -0.60600001 1.074 64 16 0
1.775 -0.60600001 1.069 78 16 0
1.776 -0.60799998 1.067 93 16 0
1.772 -0.60699999 1.061 120 16 0
1.777 -0.61000001 1.061 150 16 0
1.779 -0.61199999 1.059 150 16 0
1.78 -0.61299998 1.056 150 16 0
1.777 -0.61299998 1.052 150 16 0
1.786 -0.61699998 1.053 150 16 0
1.785 -0.61699998 1.05 150 16 0
1.7869999 -0.61799997 1.0470001 150 16 0
1.79 -0.62 1.045 150 16 0
1.7970001 -0.62300003 1.046 150 16 0
1.8 -0.625 1.044 150 16 0
1.804 -0.62699997 1.043 150 16 0
1.806 -0.62800002 1.04 150 16 0
1.807 -0.62900001 1.0369999 150 16 0
1.816 -0.63200003 1.038 150 16 0
1.819 -0.634 1.036 150 16 0
1.825 -0.63599998 1.035 150 16 0
1.826 -0.63599998 1.031 150 16 0
1.832 -0.639 1.031 150 16 0
1.8380001 -0.64099997 1.03 150 16 0
1.8430001 -0.64200002 1.028 150 16 0
1.845 -0.64300001 1.025 150 16 0
1.847 -0.64300001 1.021 150 16 0
1.851 -0.64499998 1.0190001 150 16 0
1.855 -0.64600003 1.017 150 16 0
1.87 -0.65100002 1.02 150 19 0
1.87 -0.64999998 1.015 150 16 0
1.875 -0.65200001 1.013 150 16 0
1.88 -0.653 1.011 150 16 0
1.892 -0.65700001 1.013 150 19 0
1.898 -0.65799999 1.011 118 16 0
1.908 -0.66100001 1.011 95 16 0
1.9069999 -0.66000003 1.006 119 16 0
1.913 -0.66100001 1.0039999 150 16 0
1.919 -0.66299999 1.002 150 16 0
1.921 -0.66299999 0.99800003 150 16 0
1.927 -0.66399997 0.995 150 16 0
1.929 -0.66399997 0.991 150 16 0
1.936 -0.66500002 0.98900002 150 16 0
1.944 -0.667 0.98799998 150 16 0
1.95 -0.66799998 0.986 150 16 0
1.957 -0.66900003 0.98400003 150 16 0
1.961 -0.66900003 0.98000002 150 16 0
1.969 -0.67000002 0.97799999 150 16 0
1.974 -0.67000002 0.97500002 150 16 0
1.979 -0.671 0.97299999 150 16 0
1.987 -0.67199999 0.97100002 150 16 0
1.994 -0.67299998 0.96799999 150 16 0
1.998 -0.67299998 0.96399999 150 16 0
2.0079999 -0.67500001 0.963 150 16 0
2.0120001 -0.67400002 0.95999998 150 16 0
2.0179999 -0.67500001 0.95700002 150 16 0
2.0239999 -0.67500001 0.95300001 150 16 0
2.0280001 -0.67400002 0.949 138 16 0
2.0339999 -0.67400002 0.94599998 148 16 0
2.0450001 -0.676 0.94499999 143 16 0
2.0539999 -0.67699999 0.94300002 139 16 0
2.0569999 -0.676 0.93800002 140 16 0
2.0680001 -0.67799997 0.93699998 137 16 0
2.073 -0.67699999 0.93300003 135 16 0
2.082 -0.67799997 0.93099999 134 16 0
2.089 -0.67799997 0.92799997 140 16 0
2.092 -0.676 0.92299998 127 16 0
2.1010001 -0.67699999 0.921 123 16 0
2.112 -0.67799997 0.91900003 130 16 0
2.115 -0.67699999 0.91399997 121 16 0
2.128 -0.67799997 0.91299999 132 16 0
2.1359999 -0.67799997 0.91000003 144 16 0
2.141 -0.67699999 0.90600002 130 16 0
2.148 -0.67699999 0.90200001 128 16 0
2.1589999 -0.67799997 0.89999998 127 16 0
2.165 -0.67699999 0.89600003 123 16 0
2.1700001 -0.67500001 0.89200002 125 16 0
2.181 -0.676 0.88999999 120 16 0
2.184 -0.67400002 0.88499999 117 16 0
2.197 -0.67500001 0.88300002 94 16 0
2.2030001 -0.67400002 0.87900001 97 16 0
2.2160001 -0.67500001 0.87699997 100 16 0
2.2260001 -0.67500001 0.875 112 16 0
2.2320001 -0.67400002 0.87 123 16 0
2.2390001 -0.67299998 0.866 150 16 0
2.244 -0.671 0.861 150 16 0
2.2550001 -0.671 0.85900003 150 16 0
2.2590001 -0.66900003 0.85299999 150 16 0
2.2609999 -0.66600001 0.847 111 16 0
2.2639999 -0.66399997 0.84200001 96 16 0
2.2690001 -0.662 0.83600003 70 16 0
2.2720001 -0.65899998 0.83099997 66 16 0
2.277 -0.65700001 0.82599998 62 16 0
2.28 -0.65399998 0.81999999 63 16 0
2.2820001 -0.65100002 0.81400001 58 16 0
2.286 -0.64899999 0.80900002 60 16 0
2.2920001 -0.64700001 0.80400002 60 16 0
2.2920001 -0.64300001 0.79699999 62 16 0
2.3 -0.64200002 0.79299998 57 16 0
2.3050001 -0.639 0.787 60 16 0
2.3080001 -0.63599998 0.78200001 60 16 0
2.3110001 -0.63300002 0.77600002 64 16 0
2.313 -0.63 0.76999998 37 16 0
2.3169999 -0.62699997 0.764 32 16 0
2.3210001 -0.62400001 0.75800002 37 16 0
2.326 -0.62199998 0.75300002 39 16 0
2.3340001 -0.62 0.74900001 34 16 0
2.3380001 -0.61699998 0.74299997 41 16 0
2.3380001 -0.61299998 0.736 38 16 0
2.345 -0.611 0.73199999 39 16 0
2.3510001 -0.60799998 0.727 37 16 0
2.3540001 -0.60500002 0.72100002 39 16 0
2.3570001 -0.60100001 0.71499997 33 16 0
2.365 -0.59899998 0.71100003 38 16 0
2.3640001 -0.59500003 0.70300001 33 16 0
2.3699999 -0.59200001 0.69800001 32 16 0
2.3740001 -0.58899999 0.69300002 33 16 0
2.382 -0.58600003 0.68800002 31 16 0
2.3870001 -0.583 0.68300003 32 16 0
2.3929999 -0.57999998 0.67799997 31 16 0
2.3959999 -0.57599998 0.67199999 32 16 0
2.3989999 -0.57300001 0.66600001 32 16 0
2.4030001 -0.56900001 0.66000003 32 16 0
2.4070001 -0.56599998 0.65399998 31 16 0
2.4189999 -0.56400001 0.64999998 33 16 0
2.4260001 -0.56099999 0.64600003 34 16 0
2.4260001 -0.55599999 0.639 31 16 0
2.4319999 -0.55299997 0.63300002 32 16 0
2.4419999 -0.551 0.62900001 33 16 0
2.4449999 -0.54699999 0.62300003 32 16 0
2.4519999 -0.54299998 0.61799997 31 16 0
2.457 -0.54000002 0.61199999 31 16 0
2.4630001 -0.53600001 0.60699999 31 16 0
2.467 -0.53200001 0.60100001 30 16 0
2.473 -0.52899998 0.59600002 30 16 0
2.4779999 -0.52499998 0.58999997 30 16 0
2.4890001 -0.523 0.58600003 32 16 0
2.493 -0.51800001 0.57999998 31 16 0
2.5 -0.51499999 0.57499999 32 16 0
2.5050001 -0.51099998 0.56900001 30 16 0
2.5139999 -0.50800002 0.56400001 32 16 0
2.5179999 -0.50300002 0.55800003 30 16 0
2.5250001 -0.5 0.55299997 31 16 0
2.5339999 -0.49599999 0.54799998 32 16 0
2.539 -0.49200001 0.542 30 16 0
2.5439999 -0.48800001 0.53600001 30 16 0
2.553 -0.48500001 0.53200001 30 16 0
2.5550001 -0.47999999 0.52499998 31 16 0
2.5599999 -0.47600001 0.51899999 29 16 0
2.5739999 -0.47299999 0.51499999 30 16 0
2.572 -0.46700001 0.50800002 24 16 0
2.585 -0.46399999 0.50400001 25 16 0
2.592 -0.46000001 0.498 25 16 0
2.602 -0.45699999 0.493 24 16 0
2.609 -0.45199999 0.48800001 24 16 0
2.6140001 -0.44800001 0.48199999 25 16 0
2.6210001 -0.44400001 0.47600001 25 16 0
2.6259999 -0.43900001 0.47 24 16 0
2.6359999 -0.435 0.465 25 16 0
2.6470001 -0.43099999 0.46000001 25 16 0
2.655 -0.42699999 0.45500001 24 16 0
2.6659999 -0.42300001 0.44999999 26 16 0
2.6689999 -0.41800001 0.44299999 24 16 0
2.6730001 -0.41299999 0.43700001 24 16 0
2.678 -0.40799999 0.43099999 23 16 0
2.6830001 -0.403 0.42500001 24 16 0
2.691 -0.39899999 0.419 24 16 0
2.7019999 -0.39500001 0.414 24 16 0
2.7130001 -0.391 0.40900001 24 16 0
2.7149999 -0.38499999 0.40200001 24 16 0
2.7249999 -0.38100001 0.39700001 24 16 0
2.7320001 -0.37599999 0.391 23 16 0
2.7420001 -0.37099999 0.38600001 24 16 0
2.7509999 -0.366 0.38 24 16 0
2.7590001 -0.36199999 0.37400001 23 16 0
2.766 -0.35600001 0.368 24 16 0
2.777 -0.352 0.36300001 24 16 0
2.7809999 -0.34599999 0.35699999 24 16 0
2.7909999 -0.34099999 0.35100001 24 16 0
2.806 -0.33700001 0.34599999 24 16 0
2.8110001 -0.33199999 0.34 24 16 0
2.8199999 -0.32699999 0.33399999 24 16 0
2.829 -0.32100001 0.32800001 24 16 0
2.8380001 -0.31600001 0.322 24 16 0
2.852 -0.31200001 0.317 23 16 0
2.8570001 -0.30599999 0.31 24 16 0
2.865 -0.30000001 0.30399999 24 16 0
2.8770001 -0.29499999 0.29800001 24 16 0
2.885 -0.28999999 0.292 25 16 0
2.892 -0.28400001 0.28600001 24 16 0
2.902 -0.278 0.28 24 16 0
2.915 -0.273 0.27399999 24 16 0
2.9200001 -0.26699999 0.26800001 23 16 0
2.9360001 -0.26199999 0.26199999 24 16 0
2.9430001 -0.25600001 0.25600001 23 16 0
2.957 -0.25099999 0.25 23 16 0
2.9679999 -0.245 0.244 23 16 0
2.9779999 -0.23899999 0.237 23 16 0
2.9860001 -0.233 0.23100001 23 16 0
2.994 -0.227 0.22499999 23 16 0
3.01 -0.222 0.219 24 16 0
3.0209999 -0.21600001 0.212 23 16 0
3.0369999 -0.20999999 0.206 24 16 0
3.0480001 -0.204 0.2 23 16 0
3.0580001 -0.198 0.19400001 24 16 0
3.0769999 -0.192 0.18799999 23 16 0
3.085 -0.185 0.18099999 23 16 0
3.089 -0.178 0.17399999 23 16 0
3.1059999 -0.17200001 0.168 23 16 0
3.1199999 -0.16599999 0.161 24 16 0
3.1329999 -0.16 0.155 24 16 0
3.1489999 -0.153 0.148 23 16 0
3.1630001 -0.147 0.142 24 16 0
3.1719999 -0.14 0.13500001 23 16 0
3.1860001 -0.133 0.12800001 24 16 0
3.1949999 -0.126 0.121 24 16 0
3.207 -0.119 0.114 24 16 0
3.2179999 -0.112 0.107 23 16 0
3.2349999 -0.105 0.101 25 16 0
3.244 -0.097999997 0.093000002 25 16 0
3.2579999 -0.090999998 0.086999997 25 16 0
3.2750001 -0.083999999 0.079999998 25 16 0
3.2909999 -0.075999998 0.072999999 25 16 0
3.2980001 -0.068999998 0.064999998 51 16 0
3.2950001 -0.061000001 0.057999998 101 16 0
3.283 -0.052999999 0.050000001 71 16 0
3.2780001 -0.045000002 0.043000001 73 16 0
3.267 -0.037999999 0.035 70 16 0
3.263 -0.029999999 0.028000001 69 16 0
3.2520001 -0.022 0.021 45 16 0
3.2520001 -0.014 0.014 22 16 0
3.267 -0.0070000002 0.0060000001 14 16 0
3.2820001 0 0 15 16 0
3.299 0.0080000004 -0.0070000002 16 16 0
3.313 0.016000001 -0.014 17 16 0
3.323 0.024 -0.022 29 16 0
3.3110001 0.030999999 -0.028999999 42 16 0
3.302 0.039000001 -0.035999998 42 16 0
3.296 0.046999998 -0.043000001 38 16 0
3.2950001 0.055 -0.050999999 36 16 0
3.286 0.063000001 -0.057999998 46 16 0
3.279 0.07 -0.064999998 51 16 0
3.273 0.078000002 -0.071999997 49 16 0
3.266 0.086000003 -0.078000002 53 16 0
3.26 0.093000002 -0.085000001 51 16 0
3.2509999 0.101 -0.092 52 16 0
3.243 0.109 -0.098999999 52 16 0
3.2390001 0.116 -0.106 52 16 0
3.2320001 0.124 -0.112 54 16 0
3.223 0.131 -0.119 56 16 0
3.214 0.139 -0.126 58 16 0
3.211 0.147 -0.132 54 16 0
3.2019999 0.154 -0.139 60 16 0
3.197 0.162 -0.145 58 16 0
3.191 0.169 -0.152 57 16 0
3.177 0.176 -0.15800001 51 16 0
3.174 0.184 -0.16500001 58 16 0
3.1659999 0.191 -0.171 56 16 0
3.1589999 0.199 -0.177 52 16 0
3.152 0.206 -0.183 50 16 0
3.1459999 0.213 -0.19 50 16 0
3.141 0.221 -0.19599999 49 16 0
3.1340001 0.228 -0.20200001 59 16 0
3.125 0.235 -0.208 66 16 0
3.1159999 0.242 -0.214 63 16 0
3.112 0.25 -0.22 55 16 0
3.109 0.257 -0.226 70 16 0
3.095 0.264 -0.23199999 60 16 0
3.092 0.27200001 -0.23800001 66 16 0
3.089 0.27900001 -0.244 77 16 0
3.0810001 0.28600001 -0.25 73 16 0
3.0739999 0.29300001 -0.25600001 71 16 0
3.0680001 0.301 -0.26100001 78 16 0
3.0580001 0.308 -0.26699999 74 16 0
3.052 0.315 -0.273 75 16 0
3.0480001 0.322 -0.278 78 16 0
3.04 0.329 -0.28400001 68 16 0
3.0309999 0.336 -0.289 80 16 0
3.0280001 0.34299999 -0.29499999 73 16 0
3.0179999 0.34999999 -0.30000001 65 16 0
3.016 0.35699999 -0.30599999 78 16 0
3.0109999 0.36500001 -0.31200001 92 16 0
3.006 0.37200001 -0.317 69 16 0
2.9990001 0.37900001 -0.32300001 69 16 0
2.9920001 0.38600001 -0.32800001 67 16 0
2.9860001 0.39300001 -0.333 80 16 0
2.9790001 0.40000001 -0.338 95 16 0
2.971 0.40599999 -0.34400001 87 16 0
2.9679999 0.414 -0.34900001 93 16 0
2.961 0.41999999 -0.354 83 16 0
2.9549999 0.428 -0.359 101 16 0
2.9460001 0.43399999 -0.36399999 90 16 0
2.9430001 0.44100001 -0.36899999 113 16 0
2.9389999 0.449 -0.375 113 16 0
2.9289999 0.45500001 -0.37900001 127 16 0
2.9189999 0.461 -0.384 122 16 0
2.9130001 0.46799999 -0.389 127 16 0
2.908 0.47499999 -0.39399999 116 16 0
2.9030001 0.48199999 -0.39899999 136 16 0
2.901 0.48899999 -0.40400001 136 16 0
2.895 0.49599999 -0.40900001 148 16 0
2.8870001 0.50199997 -0.41299999 120 16 0
2.8840001 0.50999999 -0.41800001 130 16 0
2.872 0.51499999 -0.42199999 128 16 0
2.872 0.523 -0.428 137 16 0
2.8659999 0.52999997 -0.43200001 137 16 0
2.855 0.53600001 -0.43599999 133 16 0
2.849 0.542 -0.44 134 16 0
2.8469999 0.55000001 -0.44600001 138 16 0
2.839 0.55599999 -0.44999999 134 16 0
2.8329999 0.56300002 -0.454 143 16 0
2.8329999 0.57099998 -0.46000001 137 16 0
2.8210001 0.57599998 -0.463 139 16 0
2.8199999 0.58399999 -0.46799999 147 16 0
2.8150001 0.59100002 -0.47299999 139 16 0
2.806 0.597 -0.47600001 138 16 0
2.8050001 0.60399997 -0.48100001 150 16 0
2.8 0.611 -0.48500001 150 16 0
2.7869999 0.616 -0.48800001 149 16 0
2.7839999 0.62300003 -0.493 150 16 0
2.78 0.63 -0.49700001 141 16 0
2.7709999 0.63599998 -0.50099999 131 16 0
2.7679999 0.64300001 -0.505 150 16 0
2.7650001 0.64999998 -0.50999999 137 16 0
2.7590001 0.65700001 -0.514 150 16 0
2.7520001 0.66299999 -0.51700002 150 16 0
2.7490001 0.67000002 -0.52200001 150 16 0
2.7420001 0.676 -0.52499998 150 16 0
2.7390001 0.68300003 -0.52999997 150 16 0
2.7320001 0.68900001 -0.53299999 150 16 0
2.723 0.69499999 -0.53600001 150 16 0
2.721 0.70200002 -0.54100001 150 16 0
2.7160001 0.70899999 -0.54400003 150 16 0
2.7130001 0.71600002 -0.54900002 150 16 0
2.7079999 0.72299999 -0.55199999 150 16 0
2.6989999 0.72799999 -0.55500001 150 16 0
2.694 0.73500001 -0.55900002 150 16 0
2.691 0.74199998 -0.56300002 150 16 0
2.688 0.74900001 -0.56699997 150 16 0
2.681 0.755 -0.56999999 150 16 0
2.675 0.76099998 -0.57300001 150 16 0
2.6700001 0.76800001 -0.57599998 150 16 0
2.6689999 0.77499998 -0.58099997 150 16 0
2.661 0.78100002 -0.583 150 16 0
2.6589999 0.78799999 -0.58700001 150 16 0
2.654 0.79400003 -0.58999997 150 16 0
2.6489999 0.801 -0.59399998 150 16 0
2.6389999 0.80599999 -0.59600002 150 16 0
2.635 0.81199998 -0.59899998 150 16 0
2.632 0.81900001 -0.60299999 150 16 0
2.6289999 0.82599998 -0.60600001 150 16 0
2.6210001 0.83200002 -0.60900003 150 16 0
2.6210001 0.83999997 -0.61299998 150 16 0
2.612 0.84500003 -0.61500001 150 16 0
2.608 0.85100001 -0.61799997 150 16 0
2.6059999 0.85900003 -0.62099999 150 16 0
2.599 0.86400002 -0.62400001 150 16 0
2.599 0.87199998 -0.62800002 150 16 0
2.596 0.87900001 -0.63099998 150 16 0
2.5869999 0.884 -0.63300002 150 16 0
2.582 0.88999999 -0.63499999 150 16 0
2.5710001 0.89399999 -0.63599998 150 16 0
2.5669999 0.90100002 -0.639 150 16 0
2.562 0.90700001 -0.64200002 150 16 0
2.5610001 0.91399997 -0.64499998 150 16 0
2.556 0.92000002 -0.64700001 150 16 0
2.552 0.92699999 -0.64999998 150 16 0
2.549 0.93400002 -0.653 150 16 0
2.543 0.93900001 -0.65499997 150 16 0
2.536 0.94499999 -0.65700001 150 16 0
2.552 0.95899999 -0.66399997 150 16 0
2.55 0.96600002 -0.667 150 16 0
2.5380001 0.96899998 -0.66799998 150 16 0
2.523 0.97100002 -0.667 150 16 0
2.52 0.97799999 -0.67000002 150 16 0
2.5139999 0.98299998 -0.671 150 16 0
2.516 0.99199998 -0.67500001 150 16 0
2.5079999 0.99599999 -0.676 150 16 0
2.5050001 1.003 -0.67799997 150 16 0
2.5020001 1.0089999 -0.68099999 150 16 0
2.4949999 1.0140001 -0.68199998 150 16 0
2.4909999 1.021 -0.68400002 150 16 0
2.4879999 1.027 -0.68599999 150 16 0
2.483 1.033 -0.68699998 150 16 0
2.4779999 1.039 -0.68900001 150 16 0
2.4760001 1.045 -0.69099998 150 16 0
2.4719999 1.051 -0.69300002 150 16 0
2.4690001 1.058 -0.69499999 150 16 0
2.4660001 1.064 -0.69599998 150 16 0
2.4619999 1.0700001 -0.69800001 150 16 0
2.46 1.077 -0.69999999 150 16 0
2.4549999 1.082 -0.70099998 150 16 0
2.4489999 1.087 -0.70200002 150 16 0
2.4460001 1.0930001 -0.704 150 16 0
2.4430001 1.1 -0.70499998 150 16 0
2.4400001 1.1059999 -0.70700002 150 16 0
2.437 1.112 -0.708 150 16 0
2.4330001 1.118 -0.70899999 150 16 0
2.428 1.123 -0.70999998 150 16 0
2.418 1.126 -0.70899999 150 16 0
2.418 1.133 -0.71100003 150 16 0
2.415 1.1390001 -0.71200001 150 16 0
2.411 1.1440001 -0.713 150 16 0
2.4130001 1.153 -0.71600002 150 16 0
2.4100001 1.159 -0.71700001 150 16 0
2.404 1.163 -0.71700001 150 16 0
2.4030001 1.17 -0.71799999 150 16 0
2.398 1.175 -0.71899998 150 16 0
2.391 1.178 -0.71799999 150 16 0
2.392 1.186 -0.72000003 150 16 0
2.388 1.191 -0.72000003 150 16 0
2.3840001 1.196 -0.72100002 150 16 0
2.3800001 1.201 -0.72100002 150 16 0
2.3800001 1.2079999 -0.722 150 16 0
2.3729999 1.212 -0.722 150 16 0
2.368 1.216 -0.72100002 150 16 0
2.3670001 1.222 -0.722 150 16 0
2.3629999 1.227 -0.722 150 16 0
2.362 1.233 -0.72299999 150 16 0
2.3629999 1.2410001 -0.72399998 150 16 0
2.3599999 1.2460001 -0.72399998 150 16 0
2.3529999 1.249 -0.72299999 150 16 0
2.3499999 1.2539999 -0.72299999 150 16 0
2.352 1.261 -0.72399998 150 16 0
2.349 1.266 -0.72399998 150 16 0
2.346 1.271 -0.72399998 150 16 0
2.3440001 1.276 -0.72399998 150 16 0
2.3380001 1.279 -0.72299999 150 16 0
2.335 1.284 -0.722 150 16 0
2.336 1.291 -0.72299999 150 16 0
2.3299999 1.294 -0.72100002 150 16 0
2.3280001 1.299 -0.72100002 150 16 0
2.325 1.303 -0.72000003 150 16 0
2.323 1.308 -0.72000003 150 16 0
2.3239999 1.314 -0.72000003 150 16 0
2.3210001 1.319 -0.71899998 150 16 0
2.316 1.321 -0.71799999 150 16 0
2.319 1.329 -0.71899998 150 16 0
2.3150001 1.332 -0.71700001 150 16 0
2.312 1.336 -0.71600002 150 16 0
2.312 1.342 -0.71600002 150 16 0
2.3080001 1.345 -0.71399999 150 16 0
2.306 1.349 -0.713 150 16 0
2.3069999 1.355 -0.713 150 16 0
2.302 1.357 -0.71100003 150 16 0
2.3010001 1.362 -0.70999998 150 16 0
2.2980001 1.365 -0.708 150 16 0
2.296 1.369 -0.70700002 150 16 0
2.2980001 1.375 -0.70599997 133 16 0
2.293 1.377 -0.704 48 16 0
2.2939999 1.382 -0.70300001 24 16 0
2.293 1.386 -0.70200002 20 16 0
2.293 1.391 -0.70099998 20 16 0
2.2920001 1.3940001 -0.699 21 16 0
2.293 1.399 -0.699 26 16 0
2.29 1.402 -0.69700003 39 16 0
2.2820001 1.401 -0.69300002 106 16 0
2.283 1.406 -0.69199997 150 16 0
2.283 1.41 -0.69 150 16 0
2.279 1.411 -0.68699998 126 16 0
2.279 1.415 -0.68599999 139 16 0
2.28 1.419 -0.68400002 150 16 0
2.2780001 1.4220001 -0.68199998 150 16 0
2.277 1.425 -0.68000001 150 16 0
2.276 1.428 -0.67799997 150 16 0
2.2739999 1.429 -0.67500001 135 16 0
2.273 1.432 -0.67299998 135 16 0
2.276 1.437 -0.67199999 150 16 0
2.276 1.4400001 -0.67000002 150 16 0
2.2750001 1.442 -0.667 150 16 0
2.2739999 1.444 -0.66500002 150 16 0
2.2720001 1.446 -0.662 150 16 0
2.27 1.447 -0.65899998 150 16 0
2.2739999 1.452 -0.65799999 150 16 0
2.2690001 1.451 -0.65399998 150 16 0
2.27 1.454 -0.65200001 150 16 0
2.273 1.4579999 -0.64999998 143 16 0
2.276 1.462 -0.648 111 16 0
2.2750001 1.464 -0.64499998 80 16 0
2.2750001 1.465 -0.64200002 66 16 0
2.2750001 1.467 -0.63999999 86 16 0
2.2780001 1.47 -0.63800001 96 16 0
2.2750001 1.47 -0.634 117 16 0
2.2780001 1.473 -0.63200003 124 16 0
2.279 1.475 -0.62900001 122 16 0
2.277 1.475 -0.62599999 108 16 0
2.277 1.476 -0.62300003 68 16 0
2.279 1.478 -0.62 35 16 0
2.279 1.478 -0.616 25 16 0
2.2809999 1.4809999 -0.61400002 22 16 0
2.2809999 1.4809999 -0.611 28 16 0
2.2820001 1.482 -0.60799998 34 16 0
2.2839999 1.484 -0.60500002 37 16 0
2.286 1.485 -0.602 44 16 0
2.2809999 1.482 -0.597 38 16 0
2.2869999 1.4859999 -0.59500003 37 16 0
2.289 1.487 -0.59200001 37 16 0
2.2909999 1.488 -0.58899999 43 16 0
2.2880001 1.485 -0.58499998 63 16 0
2.29 1.4859999 -0.58200002 76 16 0
2.2950001 1.489 -0.579 78 16 0
2.2939999 1.487 -0.57499999 76 16 0
2.2969999 1.488 -0.57200003 83 16 0
2.2969999 1.487 -0.56800002 85 16 0
2.2950001 1.485 -0.56400001 72 16 0
2.3010001 1.487 -0.56199998 70 16 0
2.3 1.485 -0.55800003 97 16 0
2.3010001 1.485 -0.55400002 104 16 0
2.306 1.4859999 -0.551 113 16 0
2.3069999 1.485 -0.54799998 125 16 0
2.3080001 1.484 -0.54400003 133 16 0
2.312 1.484 -0.54100001 130 16 0
2.3110001 1.482 -0.537 143 16 0
2.3139999 1.4809999 -0.53299999 133 16 0
2.3139999 1.479 -0.52899998 142 16 0
2.3180001 1.48 -0.52600002 129 16 0
2.319 1.478 -0.52200001 56 16 0
2.3239999 1.478 -0.51899999 26 16 0
2.3329999 1.4809999 -0.51700002 22 16 0
2.329 1.476 -0.51200002 33 16 0
2.3299999 1.473 -0.50800002 68 16 0
2.332 1.472 -0.50400001 74 16 0
2.3369999 1.471 -0.50099999 54 16 0
2.339 1.47 -0.49700001 37 16 0
2.342 1.4680001 -0.493 31 16 0
2.345 1.467 -0.49000001 19 16 0
2.3510001 1.467 -0.48699999 15 16 0
2.349 1.462 -0.48199999 19 16 0
2.3499999 1.459 -0.47799999 40 16 0
2.3529999 1.456 -0.47400001 139 16 0
2.3610001 1.4579999 -0.47099999 150 16 0
2.3610001 1.4529999 -0.46700001 150 16 0
2.3659999 1.4529999 -0.46399999 150 16 0
2.3670001 1.449 -0.46000001 150 16 0
2.3699999 1.446 -0.456 150 16 0
2.3740001 1.444 -0.45300001 150 16 0
2.3759999 1.441 -0.449 150 16 0
2.3770001 1.437 -0.44400001 150 16 0
2.3829999 1.436 -0.44100001 150 16 0
2.3840001 1.432 -0.43700001 150 16 0
2.388 1.4299999 -0.43399999 150 16 0
2.391 1.426 -0.43000001 150 16 0
2.3940001 1.423 -0.426 150 16 0
2.3970001 1.42 -0.42199999 150 16 0
2.3989999 1.416 -0.41800001 150 16 0
2.4030001 1.413 -0.41499999 150 16 0
2.405 1.409 -0.41100001 150 16 0
2.4100001 1.406 -0.40700001 150 16 0
2.4130001 1.402 -0.40400001 150 16 0
2.4159999 1.399 -0.40000001 150 16 0
2.4230001 1.397 -0.39700001 150 16 0
2.424 1.391 -0.39300001 150 16 0
2.4300001 1.3890001 -0.389 150 16 0
2.4289999 1.383 -0.38499999 150 16 0
2.4349999 1.38 -0.382 150 16 0
2.438 1.376 -0.37799999 150 16 0
2.448 1.375 -0.375 150 16 0
2.4489999 1.37 -0.37099999 150 16 0
2.454 1.3660001 -0.368 150 16 0
2.457 1.3609999 -0.36399999 150 16 0
2.46 1.357 -0.36000001 150 16 0
2.4630001 1.352 -0.35699999 150 16 0
2.4679999 1.348 -0.35299999 150 16 0
2.4719999 1.344 -0.34999999 150 16 0
2.4749999 1.339 -0.34599999 150 16 0
2.4760001 1.3329999 -0.34200001 150 16 0
2.4820001 1.329 -0.33899999 150 16 0
2.4879999 1.326 -0.336 150 16 0
2.4909999 1.321 -0.33199999 150 16 0
2.4949999 1.3150001 -0.329 150 16 0
2.4990001 1.311 -0.32499999 150 16 0
2.5020001 1.3049999 -0.322 150 16 0
2.5090001 1.302 -0.31900001 150 16 0
2.5109999 1.296 -0.315 150 16 0
2.5179999 1.2920001 -0.31200001 150 16 0
2.5190001 1.285 -0.308 150 16 0
2.5250001 1.281 -0.30500001 150 16 0
2.5280001 1.275 -0.30199999 150 16 0
2.5339999 1.271 -0.29800001 150 16 0
2.5339999 1.263 -0.29499999 150 16 0
2.54 1.2589999 -0.29100001 150 16 0
2.5439999 1.253 -0.28799999 150 16 0
2.5510001 1.249 -0.285 150 16 0
2.5539999 1.243 -0.28200001 150 16 0
2.5569999 1.237 -0.278 150 16 0
2.562 1.232 -0.27500001 150 16 0
2.566 1.225 -0.27200001 150 16 0
2.569 1.219 -0.26899999 150 16 0
2.572 1.2130001 -0.266 150 16 0
2.576 1.207 -0.26199999 150 16 0
2.582 1.201 -0.259 150 16 0
2.589 1.197 -0.257 150 16 0
2.592 1.1900001 -0.25299999 150 16 0
2.595 1.184 -0.25 150 16 0
2.599 1.177 -0.24699999 150 16 0
2.605 1.1720001 -0.244 150 16 0
2.6110001 1.1670001 -0.241 150 16 0
2.612 1.159 -0.23800001 150 16 0
2.615 1.152 -0.235 150 16 0
2.622 1.147 -0.23199999 150 16 0
2.6300001 1.142 -0.23 150 16 0
2.6329999 1.135 -0.227 150 16 0
2.638 1.1289999 -0.22400001 150 16 0
2.642 1.122 -0.221 150 16 0
2.645 1.115 -0.21799999 150 16 0
2.651 1.109 -0.215 150 16 0
2.651 1.101 -0.212 150 16 0
2.664 1.097 -0.20999999 150 16 0
2.6659999 1.09 -0.207 150 16 0
2.6719999 1.0829999 -0.204 150 16 0
2.675 1.076 -0.20100001 150 16 0
2.678 1.069 -0.199 150 16 0
2.688 1.064 -0.19599999 150 16 0
2.6930001 1.057 -0.19400001 150 16 0
2.6960001 1.05 -0.191 150 16 0
2.7019999 1.043 -0.18799999 150 16 0
2.704 1.035 -0.185 150 16 0
2.7090001 1.029 -0.183 150 16 0
2.711 1.021 -0.18000001 150 16 0
2.72 1.015 -0.178 150 16 0
2.7249999 1.008 -0.175 150 16 0
2.7290001 1.001 -0.17299999 150 16 0
2.7320001 0.99299997 -0.17 150 16 0
2.74 0.98699999 -0.168 150 16 0
2.744 0.98000002 -0.16500001 150 16 0
2.767 0.97899997 -0.164 49 16 0
2.763 0.96799999 -0.161 63 16 0
2.756 0.95700002 -0.15800001 150 16 0
2.76 0.94999999 -0.156 150 16 0
2.7709999 0.94400001 -0.153 150 16 0
2.7720001 0.935 -0.15099999 150 16 0
2.7809999 0.92900002 -0.149 150 16 0
2.78 0.92000002 -0.146 150 16 0
2.7869999 0.91299999 -0.14399999 150 16 0
2.7920001 0.90600002 -0.142 150 16 0
2.793 0.89700001 -0.139 150 16 0
2.7969999 0.889 -0.13699999 150 16 0
2.8069999 0.88300002 -0.13500001 150 16 0
2.8169999 0.87699997 -0.133 150 16 0
2.813 0.866 -0.13 150 16 0
2.8210001 0.85900003 -0.12800001 150 16 0
2.8269999 0.852 -0.126 150 16 0
2.832 0.84399998 -0.124 150 16 0
2.8340001 0.83600003 -0.122 150 16 0
2.8399999 0.82800001 -0.12 150 16 0
2.8440001 0.81999999 -0.118 150 16 0
2.848 0.81199998 -0.116 150 16 0
2.8499999 0.80299997 -0.114 150 16 0
2.862 0.79699999 -0.112 150 16 0
2.8659999 0.78899997 -0.11 150 16 0
2.8699999 0.77999997 -0.108 150 16 0
2.8770001 0.773 -0.106 150 16 0
2.885 0.76599997 -0.104 150 16 0
2.891 0.75800002 -0.102 150 16 0
2.8940001 0.74900001 -0.1 141 16 0
2.902 0.74199998 -0.097999997 150 16 0
2.9070001 0.73299998 -0.097000003 150 16 0
2.9070001 0.72399998 -0.094999999 144 16 0
2.9159999 0.71700001 -0.093000002 150 16 0
2.921 0.708 -0.090999998 150 16 0
2.925 0.699 -0.089000002 131 16 0
2.9349999 0.69199997 -0.086999997 150 16 0
2.941 0.68400002 -0.086000003 150 16 0
2.9400001 0.67400002 -0.083999999 141 16 0
2.9419999 0.66500002 -0.082000002 137 16 0
2.954 0.65799999 -0.079999998 147 16 0
2.9560001 0.64899999 -0.079000004 138 16 0
2.9619999 0.64099997 -0.077 146 16 0
2.9690001 0.63200003 -0.075000003 150 16 0
2.9749999 0.62400001 -0.074000001 147 16 0
2.977 0.61500001 -0.071999997 144 16 0
2.9809999 0.60600001 -0.07 132 16 0
2.983 0.59600002 -0.068999998 129 16 0
2.993 0.58899999 -0.067000002 138 16 0
3.0009999 0.57999998 -0.066 125 16 0
3.003 0.57099998 -0.064000003 127 16 0
3.0079999 0.56199998 -0.061999999 128 16 0
3.016 0.55400002 -0.061000001 111 16 0
3.02 0.54500002 -0.059 133 16 0
3.026 0.53600001 -0.057999998 125 16 0
3.0309999 0.52700001 -0.057 129 16 0
3.0339999 0.51800001 -0.055 119 16 0
3.043 0.509 -0.054000001 136 16 0
3.0480001 0.5 -0.052000001 134 16 0
3.053 0.491 -0.050999999 129 16 0
3.056 0.48199999 -0.048999999 128 16 0
3.0650001 0.47299999 -0.048 143 16 0
3.0669999 0.46399999 -0.046999998 135 16 0
3.076 0.45500001 -0.045000002 115 16 0
3.0840001 0.44600001 -0.044 120 16 0
3.0899999 0.43700001 -0.043000001 115 16 0
3.0929999 0.42699999 -0.041000001 126 16 0
3.0999999 0.41800001 -0.039999999 112 16 0
3.1040001 0.40900001 -0.039000001 103 16 0
3.1129999 0.40000001 -0.037 109 16 0
3.1170001 0.38999999 -0.035999998 96 16 0
3.1170001 0.38 -0.035 100 16 0
3.1210001 0.37 -0.034000002 86 16 0
3.131 0.361 -0.033 87 16 0
3.138 0.352 -0.030999999 82 16 0
3.145 0.34299999 -0.029999999 96 16 0
3.154 0.333 -0.028999999 112 16 0
3.155 0.32300001 -0.028000001 97 16 0
3.168 0.31400001 -0.027000001 89 16 0
3.1700001 0.30399999 -0.026000001 94 16 0
3.178 0.29499999 -0.025 96 16 0
3.1860001 0.285 -0.024 88 16 0
3.191 0.27500001 -0.022 96 16 0
3.1900001 0.26499999 -0.021 84 16 0
3.201 0.255 -0.02 87 16 0
3.211 0.24600001 -0.018999999 88 16 0
3.21 0.235 -0.017999999 77 16 0
3.2190001 0.226 -0.017000001 91 16 0
3.227 0.21600001 -0.016000001 86 16 0
3.234 0.206 -0.015 89 16 0
3.2349999 0.19499999 -0.014 84 16 0
3.2420001 0.185 -0.013 71 16 0
3.2479999 0.175 -0.013 76 16 0
3.2509999 0.16500001 -0.012 85 16 0
3.2539999 0.155 -0.011 76 16 0
3.2650001 0.14399999 -0.0099999998 79 16 0
3.2720001 0.134 -0.0089999996 73 16 0
3.277 0.124 -0.0080000004 91 16 0
3.283 0.113 -0.0070000002 86 16 0
3.289 0.103 -0.0070000002 80 16 0
3.289 0.093000002 -0.0060000001 86 16 0
3.2920001 0.082000002 -0.0049999999 87 16 0
3.299 0.071000002 -0.0040000002 86 16 0
3.309 0.061000001 -0.003 48 16 0
3.3110001 0.050000001 -0.003 56 16 0
3.3180001 0.039999999 -0.0020000001 90 16 0
3.325 0.028999999 -0.001 50 16 0
3.3110001 0.017999999 -0.001 22 16 0
3.2869999 0.0070000002 0 19 16 0
3.27 -0.0020000001 0 18 16 0
3.2409999 -0.013 0 29 16 0
3.2449999 -0.023 0.001 149 16 0
3.253 -0.034000002 0.001 150 16 0
3.2579999 -0.044 0.0020000001 150 16 0
3.266 -0.055 0.003 150 16 0
3.266 -0.064999998 0.003 150 16 0
3.2539999 -0.075999998 0.0040000002 33 16 0
3.233 -0.086000003 0.0040000002 30 16 0
3.2119999 -0.096000001 0.0040000002 29 16 0
3.1919999 -0.105 0.0049999999 28 16 0
3.1689999 -0.115 0.0049999999 28 16 0
3.1440001 -0.124 0.0060000001 29 16 0
3.1289999 -0.134 0.0060000001 28 16 0
3.1029999 -0.14300001 0.0060000001 28 16 0
3.0910001 -0.152 0.0070000002 28 16 0
3.063 -0.161 0.0070000002 28 16 0
3.0450001 -0.17 0.0070000002 28 16 0
3.026 -0.178 0.0070000002 28 16 0
3.0020001 -0.18700001 0.0080000004 27 16 0
2.9849999 -0.19499999 0.0080000004 27 16 0
2.9679999 -0.204 0.0080000004 27 16 0
2.9460001 -0.212 0.0080000004 28 16 0
2.927 -0.22 0.0080000004 29 16 0
2.9089999 -0.228 0.0080000004 30 16 0
2.891 -0.236 0.0080000004 29 16 0
2.872 -0.244 0.0089999996 29 16 0
2.8529999 -0.252 0.0089999996 31 16 0
2.839 -0.259 0.0089999996 28 16 0
2.822 -0.26699999 0.0089999996 30 16 0
2.8050001 -0.27500001 0.0089999996 30 16 0
2.7850001 -0.28200001 0.0089999996 30 16 0
2.7720001 -0.28999999 0.0089999996 31 16 0
2.757 -0.29699999 0.0089999996 32 16 0
2.74 -0.30399999 0.0089999996 31 16 0
2.7249999 -0.31099999 0.0089999996 31 16 0
2.7160001 -0.31900001 0.0080000004 31 16 0
2.6960001 -0.32600001 0.0080000004 34 16 0
2.6830001 -0.333 0.0080000004 31 16 0
2.665 -0.33899999 0.0080000004 33 16 0
2.648 -0.34599999 0.0080000004 32 16 0
2.635 -0.35299999 0.0080000004 32 16 0
2.6210001 -0.359 0.0080000004 35 16 0
2.602 -0.36500001 0.0070000002 34 16 0
2.5880001 -0.37200001 0.0070000002 33 16 0
2.5799999 -0.37900001 0.0070000002 35 16 0
2.5599999 -0.384 0.0070000002 33 16 0
2.549 -0.391 0.0070000002 37 16 0
2.533 -0.39700001 0.0060000001 33 16 0
2.513 -0.40200001 0.0060000001 40 16 0
2.5079999 -0.41 0.0060000001 44 16 0
2.4909999 -0.41499999 0.0049999999 48 16 0
2.4760001 -0.421 0.0049999999 48 16 0
2.4679999 -0.42699999 0.0049999999 44 16 0
2.4560001 -0.43399999 0.0049999999 66 16 0
2.4419999 -0.43900001 0.0040000002 58 16 0
2.425 -0.44400001 0.0040000002 57 16 0
2.4130001 -0.44999999 0.003 61 16 0
2.404 -0.456 0.003 54 16 0
2.3889999 -0.461 0.003 55 16 0
2.3759999 -0.46599999 0.0020000001 78 16 0
2.3629999 -0.472 0.0020000001 63 16 0
2.3510001 -0.477 0.001 66 16 0
2.335 -0.48100001 0.001 71 16 0
2.326 -0.48699999 0 90 16 0
2.3150001 -0.493 0 76 16 0
2.306 -0.498 0 90 16 0
2.2839999 -0.50099999 0 78 16 0
2.28 -0.50800002 -0.001 82 16 0
2.2690001 -0.51300001 -0.001 74 16 0
2.2539999 -0.51700002 -0.0020000001 76 16 0
2.243 -0.52200001 -0.0020000001 84 16 0
2.2360001 -0.528 -0.003 91 16 0
2.221 -0.53200001 -0.003 88 16 0
2.2090001 -0.53600001 -0.0040000002 89 16 0
2.1989999 -0.54100001 -0.0040000002 101 16 0
2.194 -0.54699999 -0.0049999999 91 16 0
2.184 -0.55199999 -0.0060000001 90 16 0
2.1719999 -0.55599999 -0.0060000001 92 16 0
2.1530001 -0.55800003 -0.0070000002 95 16 0
2.1440001 -0.56300002 -0.0080000004 96 16 0
2.1359999 -0.56800002 -0.0080000004 105 16 0
2.1229999 -0.57200003 -0.0089999996 109 16 0
2.1110001 -0.57599998 -0.0099999998 101 16 0
2.1040001 -0.58099997 -0.0099999998 111 16 0
2.095 -0.58499998 -0.011 107 16 0
2.0829999 -0.58899999 -0.012 118 16 0
2.075 -0.59399998 -0.013 113 16 0
2.0610001 -0.59600002 -0.013 110 16 0
2.052 -0.60100001 -0.014 122 16 0
2.0420001 -0.60500002 -0.015 112 16 0
2.036 -0.61000001 -0.016000001 106 16 0
2.0250001 -0.61299998 -0.016000001 114 16 0
2.0139999 -0.61699998 -0.017000001 131 16 0
2.0109999 -0.62199998 -0.017999999 124 16 0
1.9960001 -0.62400001 -0.018999999 124 16 0
1.992 -0.63 -0.02 119 16 0
1.977 -0.63200003 -0.02 119 16 0
1.967 -0.63499999 -0.021 128 16 0
1.962 -0.63999999 -0.022 147 16 0
1.9450001 -0.64099997 -0.023 131 16 0
1.9400001 -0.64600003 -0.024 146 16 0
1.933 -0.64999998 -0.025 150 16 0
1.9220001 -0.653 -0.026000001 132 16 0
1.918 -0.65799999 -0.027000001 146 16 0
1.9119999 -0.662 -0.028000001 139 16 0
1.9 -0.66500002 -0.028999999 150 16 0
1.895 -0.66900003 -0.029999999 150 16 0
1.882 -0.671 -0.029999999 150 16 0
1.874 -0.67400002 -0.030999999 150 16 0
1.867 -0.67799997 -0.032000002 146 16 0
1.86 -0.68199998 -0.033 150 16 0
1.858 -0.68699998 -0.035 150 16 0
1.847 -0.68900001 -0.035 3 0 0
1.832 -0.69 -0.035999998 150 16 0
1.829 -0.69499999 -0.037999999 3 0 0
1.822 -0.69800001 -0.039000001 3 0 0
1.817 -0.70200002 -0.039999999 38 0 0
1.808 -0.70499998 -0.041000001 2 0 0
1.801 -0.708 -0.041999999 3 0 0
1.79 -0.70999998 -0.043000001 2 0 0
1.788 -0.71499997 -0.044 40 0 0
1.775 -0.71600002 -0.045000002 2 0 0
1.766 -0.71799999 -0.046 3 0 0
1.7640001 -0.72299999 -0.046999998 3 0 0
1.758 -0.727 -0.048999999 65 0 0
1.7539999 -0.73000002 -0.050000001 45 0 0
1.7460001 -0.73299998 -0.050999999 54 0 0
1.739 -0.736 -0.052000001 44 0 0
1.73 -0.73799998 -0.052999999 37 0 0
1.728 -0.74299997 -0.055 49 0 0
1.714 -0.74199998 -0.056000002 57 0 0
1.71 -0.74599999 -0.057 65 0 0
1.699 -0.74699998 -0.057999998 64 0 0
1.696 -0.75099999 -0.059 73 0 0
1.686 -0.75199997 -0.061000001 63 0 0
1.683 -0.75700003 -0.061999999 72 0 0
1.671 -0.75700003 -0.063000001 58 0 0
1.666 -0.75999999 -0.064000003 78 0 0
1.66 -0.76300001 -0.066 91 0 0
1.658 -0.76700002 -0.067000002 70 0 0
1.653 -0.76999998 -0.068999998 60 0 0
1.645 -0.77200001 -0.07 56 0 0
1.638 -0.77399999 -0.071000002 86 0 0
1.631 -0.77499998 -0.071999997 57 0 0
1.627 -0.77899998 -0.074000001 88 0 0
1.622 -0.78200001 -0.075000003 96 0 0
1.608 -0.77999997 -0.075999998 91 0 0
1.602 -0.78200001 -0.078000002 63 0 0
1.599 -0.78600001 -0.079000004 75 0 0
1.595 -0.78899997 -0.081 88 0 0
1.5930001 -0.79299998 -0.082000002 81 0 0
1.5880001 -0.79500002 -0.083999999 99 0 0
1.5829999 -0.79799998 -0.085000001 95 0 0
1.579 -0.801 -0.086999997 71 0 0
1.571 -0.80199999 -0.088 73 0 0
1.566 -0.80400002 -0.090000004 91 0 0
1.558 -0.80400002 -0.090999998 73 0 0
1.553 -0.80699998 -0.093000002 75 0 0
1.548 -0.80900002 -0.093999997 72 0 0
1.545 -0.81199998 -0.096000001 78 0 0
1.541 -0.81400001 -0.097000003 89 0 0
1.536 -0.81599998 -0.098999999 92 0 0
1.5319999 -0.81900001 -0.101 100 0 0
1.525 -0.81999999 -0.102 55 0 0
1.5140001 -0.81800002 -0.103 62 0 0
1.511 -0.82099998 -0.105 95 0 0
1.502 -0.81999999 -0.106 71 0 0
1.506 -0.82700002 -0.108 70 0 0
1.4960001 -0.82599998 -0.11 71 0 0
1.494 -0.829 -0.111 70 0 0
1.487 -0.829 -0.113 71 0 0
1.4859999 -0.833 -0.115 72 0 0
1.485 -0.83700001 -0.117 57 0 0
1.482 -0.83899999 -0.118 120 0 0
1.467 -0.83499998 -0.119 71 3 0
1.4680001 -0.83899999 -0.121 95 0 0
1.466 -0.84200001 -0.123 119 0 0
1.46 -0.84299999 -0.125 72 0 0
1.457 -0.84500003 -0.127 111 0 0
1.4529999 -0.84600002 -0.12800001 97 0 0
1.448 -0.84799999 -0.13 87 0 0
1.443 -0.84799999 -0.131 126 0 0
1.439 -0.85000002 -0.133 111 0 0
1.4349999 -0.85100001 -0.13500001 128 0 0
1.431 -0.852 -0.13699999 107 0 0
1.428 -0.85399997 -0.138 92 0 0
1.427 -0.85699999 -0.14 129 0 0
1.42 -0.85600001 -0.142 123 0 0
1.418 -0.85900003 -0.14399999 103 0 0
1.414 -0.85900003 -0.146 111 0 0
1.41 -0.86000001 -0.147 126 0 0
1.406 -0.861 -0.149 116 0 0
1.403 -0.86299998 -0.15099999 141 0 0
1.4 -0.86400002 -0.153 94 0 0
1.399 -0.866 -0.155 138 0 0
1.393 -0.86500001 -0.156 139 0 0
1.391 -0.86799997 -0.15800001 122 0 0
1.39 -0.87 -0.16 114 0 0
1.3839999 -0.86900002 -0.162 144 0 0
1.383 -0.87099999 -0.164 150 0 0
1.381 -0.87300003 -0.16599999 134 0 0
1.3789999 -0.87400001 -0.168 145 0 0
1.378 -0.87599999 -0.17 132 0 0
1.376 -0.87800002 -0.17200001 136 0 0
1.372 -0.87800002 -0.17399999 150 0 0
1.3710001 -0.87900001 -0.176 150 0 0
1.367 -0.87900001 -0.177 146 0 0
1.364 -0.88 -0.17900001 143 0 0
1.363 -0.88099998 -0.18099999 150 0 0
1.3559999 -0.87900001 -0.183 117 0 0
1.355 -0.88 -0.185 119 0 0
1.3559999 -0.88300002 -0.18700001 150 0 0
1.353 -0.884 -0.189 150 0 0
1.349 -0.88300002 -0.19 150 0 0
1.348 -0.884 -0.192 150 0 0
1.347 -0.88499999 -0.19400001 150 0 0
1.346 -0.88599998 -0.197 150 0 0
1.345 -0.88700002 -0.199 138 0 0
1.341 -0.88700002 -0.2 134 0 0
1.339 -0.88700002 -0.20200001 135 0 0
1.341 -0.88999999 -0.205 126 0 0
1.335 -0.88700002 -0.206 150 0 0
1.334 -0.88800001 -0.208 149 0 0
1.332 -0.88800001 -0.20999999 150 0 0
1.331 -0.889 -0.212 150 0 0
1.318 -0.88200003 -0.212 71 1 0
1.331 -0.89099997 -0.21600001 150 3 0
1.33 -0.89200002 -0.21799999 139 0 0
1.316 -0.884 -0.21799999 112 1 0
1.316 -0.884 -0.22 136 0 0
1.3150001 -0.88499999 -0.222 136 0 0
1.313 -0.884 -0.223 126 0 0
1.312 -0.884 -0.22499999 99 0 0
1.311 -0.884 -0.227 104 0 0
1.3099999 -0.884 -0.229 149 0 0
1.3099999 -0.884 -0.23100001 113 0 0
1.309 -0.88499999 -0.233 138 0 0
1.309 -0.88499999 -0.235 150 0 0
1.309 -0.88499999 -0.237 150 0 0
1.308 -0.88499999 -0.23899999 147 0 0
1.308 -0.88499999 -0.241 150 0 0
1.3049999 -0.88300002 -0.242 150 0 0
1.3049999 -0.88300002 -0.244 146 0 0
1.3049999 -0.88300002 -0.24600001 150 0 0
1.317 -0.89099997 -0.25 150 1 0
1.304 -0.88200003 -0.25 146 3 0
1.302 -0.88099998 -0.25099999 143 0 0
1.3049999 -0.88200003 -0.25299999 137 0 0
1.304 -0.88099998 -0.255 150 0 0
1.304 -0.88099998 -0.257 150 0 0
1.317 -0.889 -0.26100001 150 1 0
1.304 -0.88 -0.25999999 150 3 0
1.304 -0.87900001 -0.26199999 150 0 0
1.304 -0.87800002 -0.264 132 0 0
1.304 -0.87800002 -0.266 150 0 0
1.317 -0.88599998 -0.27000001 150 1 0
1.313 -0.88200003 -0.271 150 0 0
1.3150001 -0.88200003 -0.273 150 0 0
1.314 -0.88 -0.27399999 150 0 0
1.318 -0.88200003 -0.27700001 150 0 0
1.319 -0.88099998 -0.278 150 0 0
1.319 -0.88 -0.28 150 0 0
1.3200001 -0.88 -0.28200001 150 0 0
1.323 -0.88 -0.28400001 150 0 0
1.324 -0.87900001 -0.285 150 0 0
1.321 -0.87599999 -0.28600001 150 0 0
1.324 -0.87599999 -0.28799999 150 0 0
1.325 -0.875 -0.28999999 150 0 0
1.326 -0.87400001 -0.29100001 150 0 0
1.326 -0.87199998 -0.29300001 150 0 0
1.327 -0.87099999 -0.294 150 0 0
1.329 -0.87 -0.296 150 0 0
1.334 -0.87199998 -0.29800001 150 0 0
1.336 -0.87099999 -0.30000001 150 0 0
1.335 -0.86799997 -0.301 150 0 0
1.3380001 -0.86799997 -0.303 150 0 0
1.339 -0.866 -0.30399999 150 0 0
1.34 -0.86400002 -0.30500001 150 0 0
1.344 -0.86500001 -0.30700001 150 0 0
1.341 -0.861 -0.308 150 0 0
1.35 -0.86400002 -0.31099999 150 0 0
1.351 -0.86199999 -0.31200001 150 0 0
1.353 -0.86000001 -0.31299999 150 0 0
1.354 -0.85900003 -0.315 150 0 0
1.355 -0.85600001 -0.31600001 150 0 0
1.358 -0.85600001 -0.317 150 0 0
1.359 -0.85299999 -0.31799999 150 0 0
1.363 -0.85299999 -0.31999999 150 0 0
1.364 -0.85100001 -0.32100001 150 0 0
1.367 -0.84899998 -0.322 150 0 0
1.37 -0.84799999 -0.324 150 0 0
1.3710001 -0.84600002 -0.32499999 150 0 0
1.372 -0.84299999 -0.32600001 150 0 0
1.373 -0.84100002 -0.32699999 150 0 0
1.38 -0.84100002 -0.329 150 0 0
1.383 -0.83999997 -0.33000001 150 0 0
1.385 -0.838 -0.331 150 0 0
1.388 -0.83600003 -0.33199999 150 0 0
1.388 -0.833 -0.33199999 150 0 0
1.393 -0.833 -0.33399999 150 0 0
1.397 -0.83099997 -0.336 149 0 0
1.4 -0.82999998 -0.33700001 150 0 0
1.404 -0.82800001 -0.338 150 0 0
1.405 -0.82499999 -0.338 150 0 0
1.4069999 -0.82300001 -0.33899999 150 0 0
1.4119999 -0.82099998 -0.34 150 0 0
1.4170001 -0.82099998 -0.34200001 150 0 0
1.421 -0.81900001 -0.34299999 150 0 0
1.423 -0.81599998 -0.34400001 150 0 0
1.425 -0.81300002 -0.34400001 150 0 0
1.431 -0.81300002 -0.345 150 0 0
1.437 -0.81199998 -0.347 150 0 0
1.438 -0.80900002 -0.347 150 0 0
1.443 -0.80800003 -0.34799999 150 0 0
1.448 -0.80599999 -0.34900001 150 0 0
1.454 -0.80500001 -0.35100001 150 0 0
1.461 -0.80500001 -0.352 150 0 0
1.462 -0.801 -0.352 150 0 0
1.465 -0.79799998 -0.35299999 150 0 0
1.472 -0.79799998 -0.354 150 0 0
1.475 -0.79500002 -0.354 150 0 0
1.479 -0.79299998 -0.35499999 150 0 0
1.483 -0.79000002 -0.35600001 150 0 0
1.485 -0.787 -0.35600001 150 0 0
1.49 -0.78500003 -0.35600001 150 0 0
1.5 -0.78600001 -0.359 150 0 0
1.502 -0.78200001 -0.35800001 150 0 0
1.507 -0.77999997 -0.359 150 0 0
1.513 -0.77899998 -0.36000001 150 0 0
1.515 -0.77499998 -0.36000001 150 0 0
1.522 -0.77399999 -0.361 150 0 0
1.53 -0.773 -0.36199999 150 0 0
1.535 -0.77100003 -0.36199999 150 0 0
1.5369999 -0.76700002 -0.36199999 150 0 0
1.5420001 -0.76499999 -0.36300001 150 0 0
1.549 -0.76300001 -0.36300001 150 0 0
1.557 -0.76200002 -0.36399999 150 0 0
1.561 -0.759 -0.36500001 150 0 0
1.567 -0.75700003 -0.36500001 150 0 0
1.574 -0.75599998 -0.366 150 0 0
1.576 -0.75099999 -0.36500001 150 0 0
1.582 -0.74900001 -0.366 150 0 0
1.586 -0.74599999 -0.36500001 150 0 0
1.589 -0.74199998 -0.36500001 1 0 0
1.594 -0.73900002 -0.36500001 144 0 0
1.598 -0.736 -0.36500001 122 0 0
1.608 -0.736 -0.366 134 0 0
1.6160001 -0.73400003 -0.36700001 115 0 0
1.623 -0.73199999 -0.36700001 111 0 0
1.626 -0.72799999 -0.36700001 117 0 0
1.6339999 -0.72600001 -0.36700001 86 0 0
1.6390001 -0.72299999 -0.36700001 114 0 0
1.641 -0.71899998 -0.366 109 0 0
1.648 -0.71700001 -0.366 150 0 0
1.6569999 -0.71499997 -0.36700001 100 0 0
1.661 -0.71200001 -0.366 115 0 0
1.669 -0.70999998 -0.366 96 0 0
1.677 -0.708 -0.36700001 94 0 0
1.682 -0.704 -0.366 106 0 0
1.686 -0.70099998 -0.366 106 0 0
1.696 -0.699 -0.366 102 0 0
1.7 -0.69499999 -0.36500001 1 0 0
1.702 -0.69 -0.36399999 87 0 0
1.721 -0.69300002 -0.36700001 95 3 0
1.723 -0.68800002 -0.36500001 140 0 0
1.726 -0.68400002 -0.36399999 2 0 0
1.733 -0.68099999 -0.36399999 102 0 0
1.742 -0.67799997 -0.36399999 1 0 0
1.747 -0.67500001 -0.36300001 1 0 0
1.755 -0.67199999 -0.36300001 2 0 0
1.767 -0.671 -0.36399999 3 0 0
1.771 -0.667 -0.36300001 2 0 0
1.776 -0.66299999 -0.36199999 2 0 0
1.7869999 -0.66100001 -0.36199999 2 0 0
1.791 -0.65700001 -0.361 1 0 0
1.7970001 -0.65399998 -0.36000001 150 16 0
1.808 -0.65200001 -0.36000001 1 0 0
1.813 -0.648 -0.359 150 16 0
1.821 -0.64499998 -0.35800001 150 16 0
1.835 -0.64399999 -0.359 150 16 0
1.841 -0.63999999 -0.35800001 150 16 0
1.846 -0.63599998 -0.35699999 150 16 0
1.851 -0.63200003 -0.35499999 150 16 0
1.859 -0.62900001 -0.35499999 149 16 0
1.869 -0.62599999 -0.354 148 16 0
1.877 -0.62300003 -0.35299999 150 16 0
1.888 -0.62 -0.35299999 150 16 0
1.895 -0.61699998 -0.352 135 16 0
1.902 -0.61299998 -0.35100001 137 16 0
1.909 -0.60900003 -0.34999999 150 16 0
1.915 -0.60500002 -0.34799999 149 16 0
1.92 -0.60100001 -0.347 132 16 0
1.927 -0.597 -0.345 123 16 0
1.944 -0.59600002 -0.34599999 129 16 0
1.951 -0.59200001 -0.34400001 133 16 0
1.956 -0.588 -0.34299999 126 16 0
1.969 -0.58499998 -0.34200001 121 16 0
1.978 -0.58099997 -0.34099999 118 16 0
1.9809999 -0.57700002 -0.33899999 121 16 0
1.993 -0.574 -0.338 120 16 0
1.999 -0.56900001 -0.33700001 132 16 0
2.0120001 -0.56699997 -0.336 125 16 0
2.0220001 -0.56300002 -0.33500001 114 16 0
2.0320001 -0.56 -0.33399999 122 16 0
2.0369999 -0.55500001 -0.33199999 110 16 0
2.0439999 -0.551 -0.33000001 108 16 0
2.0610001 -0.54900002 -0.33000001 116 16 0
2.0669999 -0.54400003 -0.32800001 114 16 0
2.075 -0.54000002 -0.32600001 104 16 0
2.086 -0.53600001 -0.32499999 95 16 0
2.096 -0.53200001 -0.32300001 115 16 0
2.1040001 -0.528 -0.32100001 110 16 0
2.1110001 -0.523 -0.31900001 105 16 0
2.125 -0.51999998 -0.31799999 102 16 0
2.135 -0.51700002 -0.317 91 16 0
2.1370001 -0.51099998 -0.31400001 97 16 0
2.148 -0.50700003 -0.31200001 90 16 0
2.174 -0.50599998 -0.31299999 91 19 0
2.184 -0.50199997 -0.31099999 70 16 0
2.188 -0.49599999 -0.308 77 16 0
2.2 -0.493 -0.30599999 67 16 0
2.2130001 -0.48899999 -0.30500001 69 16 0
2.2249999 -0.48500001 -0.303 62 16 0
2.233 -0.47999999 -0.301 72 16 0
2.24 -0.47499999 -0.29800001 67 16 0
2.2550001 -0.47099999 -0.296 63 16 0
2.2650001 -0.46700001 -0.294 62 16 0
2.2750001 -0.46200001 -0.292 69 16 0
2.2839999 -0.45699999 -0.28999999 66 16 0
2.296 -0.45300001 -0.287 63 16 0
2.306 -0.44800001 -0.285 58 16 0
2.3199999 -0.44400001 -0.28299999 58 16 0
2.3280001 -0.43900001 -0.28 59 16 0
2.3440001 -0.435 -0.27900001 58 16 0
2.355 -0.43000001 -0.27599999 51 16 0
2.3699999 -0.426 -0.27399999 65 16 0
2.3759999 -0.41999999 -0.271 54 16 0
2.391 -0.41600001 -0.26899999 59 16 0
2.402 -0.41100001 -0.266 52 16 0
2.414 -0.40599999 -0.264 53 16 0
2.4300001 -0.40200001 -0.26100001 54 16 0
2.4449999 -0.39700001 -0.259 54 16 0
2.4530001 -0.391 -0.25600001 53 16 0
2.4660001 -0.38699999 -0.25299999 48 16 0
2.4779999 -0.38100001 -0.25 47 16 0
2.4920001 -0.37599999 -0.24699999 44 16 0
2.5 -0.37 -0.244 47 16 0
2.513 -0.36500001 -0.241 44 16 0
2.5250001 -0.36000001 -0.23800001 44 16 0
2.5409999 -0.35499999 -0.235 44 16 0
2.5539999 -0.34900001 -0.23199999 37 16 0
2.569 -0.34400001 -0.229 42 16 0
2.5810001 -0.33899999 -0.226 34 16 0
2.5940001 -0.333 -0.222 37 16 0
2.6070001 -0.32699999 -0.219 36 16 0
2.6199999 -0.322 -0.21600001 34 16 0
2.638 -0.317 -0.213 35 16 0
2.651 -0.31099999 -0.20900001 35 16 0
2.668 -0.30500001 -0.206 34 16 0
2.675 -0.29899999 -0.20200001 33 16 0
2.694 -0.29300001 -0.199 36 16 0
2.7119999 -0.28799999 -0.19499999 34 16 0
2.7190001 -0.28099999 -0.191 32 16 0
2.733 -0.27500001 -0.18700001 31 16 0
2.74 -0.26800001 -0.183 29 16 0
2.7650001 -0.26300001 -0.18000001 29 16 0
2.78 -0.257 -0.176 28 16 0
2.793 -0.25 -0.17200001 28 16 0
2.8080001 -0.244 -0.168 29 16 0
2.8269999 -0.23800001 -0.164 28 16 0
2.8440001 -0.23100001 -0.16 27 16 0
2.8529999 -0.22400001 -0.155 27 16 0
2.8740001 -0.21799999 -0.15099999 27 16 0
2.8900001 -0.211 -0.147 28 16 0
2.908 -0.205 -0.142 28 16 0
2.924 -0.198 -0.138 29 16 0
2.944 -0.192 -0.134 27 16 0
2.961 -0.185 -0.12899999 26 16 0
2.9749999 -0.177 -0.124 27 16 0
2.9960001 -0.171 -0.12 27 16 0
3.0050001 -0.163 -0.115 26 16 0
3.0350001 -0.15700001 -0.11 27 19 0
3.049 -0.149 -0.105 28 16 0
3.075 -0.142 -0.1 27 16 0
3.0910001 -0.13500001 -0.094999999 27 16 0
3.1070001 -0.127 -0.090000004 27 16 0
3.128 -0.12 -0.085000001 27 16 0
3.1470001 -0.112 -0.079999998 28 16 0
3.1689999 -0.104 -0.074000001 28 16 0
3.1889999 -0.097000003 -0.068999998 29 16 0
3.2079999 -0.089000002 -0.063000001 29 16 0
3.2249999 -0.079999998 -0.057999998 29 16 0
3.2449999 -0.071999997 -0.052000001 46 16 0
3.2539999 -0.064000003 -0.046 150 16 0
3.256 -0.055 -0.039999999 150 16 0
3.2509999 -0.046999998 -0.034000002 145 16 0
3.2479999 -0.037999999 -0.028000001 148 16 0
3.2479999 -0.029999999 -0.021 150 16 0
3.24 -0.021 -0.015 92 16 0
3.2460001 -0.013 -0.0089999996 27 16 0
3.2679999 -0.0040000002 -0.003 18 16 0
3.2869999 0.003 0.0020000001 19 16 0
3.306 0.012 0.0089999996 19 16 0
3.3299999 0.021 0.015 24 16 0
3.3469999 0.029999999 0.022 54 16 0
3.3399999 0.037999999 0.028000001 86 16 0
3.332 0.046999998 0.034000002 80 16 0
3.335 0.056000002 0.041000001 27 16 0
3.3180001 0.064000003 0.046999998 6 16 0
3.3169999 0.072999999 0.054000001 2 16 0
3.3369999 0.082000002 0.061000001 1 16 0
3.3280001 0.090000004 0.067000002 19 16 0
3.3199999 0.097999997 0.072999999 86 16 0
3.3239999 0.107 0.079999998 129 16 0
3.323 0.115 0.086000003 141 16 0
3.319 0.124 0.093000002 113 16 0
3.313 0.132 0.098999999 47 16 0
3.302 0.14 0.105 36 16 0
3.2880001 0.148 0.111 35 16 0
3.2750001 0.156 0.118 33 16 0
3.2579999 0.163 0.124 34 16 0
3.2420001 0.171 0.12899999 34 16 0
3.2249999 0.178 0.13500001 38 16 0
3.214 0.186 0.141 50 16 0
3.198 0.193 0.147 44 16 0
3.1589999 0.199 0.152 24 19 0
3.1489999 0.206 0.15700001 26 16 0
3.1919999 0.21699999 0.16599999 94 18 0
3.1500001 0.222 0.17 37 16 0
3.168 0.23100001 0.178 43 16 0
3.1989999 0.242 0.186 150 16 0
3.2 0.25 0.193 150 16 0
3.1960001 0.25799999 0.199 150 16 0
3.198 0.266 0.206 150 16 0
