# .PCD v0.7 - Point Cloud Data file format
VERSION 0.7
FIELDS x y z intensity tag line
SIZE 4 4 4 4 1 1
TYPE F F F F U U
COUNT 1 1 1 1 1 1
WIDTH 1367
HEIGHT 1
VIEWPOINT 0 0 0 1 0 0 0
POINTS 1367
DATA ascii
1.948 -0.56599998 -0.47799999 77 16 0
1.939 -0.56800002 -0.48100001 79 16 0
1.934 -0.57099998 -0.48500001 84 16 0
1.927 -0.574 -0.48800001 78 16 0
1.92 -0.57599998 -0.491 98 16 0
1.911 -0.57700002 -0.49399999 119 16 0
1.897 -0.57700002 -0.495 121 16 0
1.892 -0.57999998 -0.49900001 113 16 0
1.887 -0.583 -0.50199997 116 16 0
1.882 -0.58499998 -0.50599998 117 16 0
1.877 -0.588 -0.509 123 16 0
1.874 -0.59100002 -0.514 138 16 0
1.868 -0.59299999 -0.51700002 133 16 0
1.862 -0.59500003 -0.51999998 139 16 0
1.86 -0.59799999 -0.52399999 138 16 0
1.854 -0.60100001 -0.528 126 16 0
1.847 -0.602 -0.53100002 134 16 0
1.842 -0.60500002 -0.53399998 125 16 0
1.8329999 -0.60500002 -0.53600001 117 16 0
1.827 -0.60699999 -0.53899997 137 16 0
1.823 -0.61000001 -0.54299998 137 16 0
1.8200001 -0.61199999 -0.54699999 139 16 0
1.812 -0.61299998 -0.54900002 142 16 0
1.803 -0.61400002 -0.55199999 134 16 0
1.801 -0.61699998 -0.55599999 150 16 0
1.799 -0.62 -0.56 150 16 0
1.79 -0.62099999 -0.56199998 141 16 0
1.788 -0.62300003 -0.56599998 149 16 0
1.781 -0.62400001 -0.56900001 142 16 0
1.773 -0.625 -0.57099998 131 16 0
1.767 -0.62699997 -0.574 133 16 0
1.765 -0.62900001 -0.579 148 16 0
1.76 -0.63099998 -0.58200002 150 16 0
1.753 -0.63200003 -0.58399999 150 16 0
1.748 -0.63300002 -0.58700001 150 16 0
1.745 -0.63499999 -0.59100002 138 16 0
1.738 -0.63599998 -0.59299999 150 16 0
1.735 -0.63800001 -0.597 150 16 0
1.7309999 -0.63999999 -0.60100001 150 16 0
1.727 -0.64200002 -0.60399997 150 16 0
1.722 -0.64300001 -0.60699999 150 16 0
1.719 -0.64499998 -0.611 150 16 0
1.717 -0.64700001 -0.61500001 150 16 0
1.712 -0.648 -0.61799997 150 16 0
1.702 -0.64700001 -0.61900002 150 16 0
1.699 -0.64899999 -0.62300003 150 16 0
1.697 -0.65100002 -0.62699997 150 16 0
1.693 -0.65200001 -0.63 150 16 0
1.689 -0.653 -0.63300002 150 16 0
1.681 -0.653 -0.63499999 150 16 0
1.679 -0.65499997 -0.639 150 16 0
1.677 -0.65700001 -0.64300001 150 16 0
1.67 -0.65700001 -0.64399999 150 16 0
1.671 -0.66000003 -0.64899999 150 16 0
1.663 -0.65899998 -0.65100002 150 16 0
1.66 -0.66100001 -0.65499997 150 16 0
1.6569999 -0.662 -0.65799999 150 16 0
1.654 -0.66299999 -0.66100001 150 16 0
1.649 -0.66299999 -0.66399997 150 16 0
1.649 -0.66600001 -0.66900003 150 16 0
1.645 -0.66600001 -0.671 150 16 0
1.64 -0.667 -0.67400002 150 16 0
1.636 -0.667 -0.67699999 150 16 0
1.6339999 -0.66900003 -0.68000001 150 16 0
1.631 -0.66900003 -0.68400002 150 16 0
1.628 -0.67000002 -0.68699998 2 0 0
1.626 -0.671 -0.69 150 16 0
1.618 -0.67000002 -0.69199997 1 0 0
1.6210001 -0.67299998 -0.69700003 2 0 0
1.614 -0.67199999 -0.699 1 0 0
1.6160001 -0.67500001 -0.704 150 16 0
1.61 -0.67400002 -0.70499998 2 0 0
1.604 -0.67299998 -0.70700002 3 0 0
1.603 -0.67500001 -0.71100003 60 0 0
1.601 -0.676 -0.71399999 54 0 0
1.6 -0.676 -0.71799999 59 0 0
1.595 -0.676 -0.72000003 55 0 0
1.5930001 -0.67699999 -0.72299999 62 0 0
1.595 -0.67900002 -0.72799999 4 0 0
1.59 -0.67799997 -0.73000002 75 0 0
1.5880001 -0.67900002 -0.73299998 5 0 0
1.585 -0.67799997 -0.736 63 0 0
1.585 -0.68000001 -0.74000001 64 0 0
1.5829999 -0.68000001 -0.74299997 76 0 0
1.581 -0.68000001 -0.74599999 75 0 0
1.58 -0.68099999 -0.74900001 66 0 0
1.5779999 -0.68099999 -0.75199997 87 0 0
1.575 -0.68099999 -0.755 77 0 0
1.575 -0.68199998 -0.759 74 0 0
1.573 -0.68199998 -0.76200002 67 0 0
1.568 -0.68099999 -0.76300001 73 0 0
1.5700001 -0.68199998 -0.76800001 65 0 0
1.569 -0.68199998 -0.77100003 68 0 0
1.566 -0.68199998 -0.773 70 0 0
1.563 -0.68099999 -0.77499998 81 0 0
1.562 -0.68099999 -0.778 80 0 0
1.562 -0.68199998 -0.78200001 73 0 0
1.559 -0.68099999 -0.78399998 77 0 0
1.559 -0.68099999 -0.78799999 71 0 0
1.558 -0.68099999 -0.79000002 74 0 0
1.5549999 -0.68000001 -0.792 70 0 0
1.556 -0.68099999 -0.796 63 0 0
1.557 -0.68099999 -0.80000001 69 0 0
1.556 -0.68099999 -0.80299997 72 0 0
1.558 -0.68199998 -0.80699998 150 16 0
1.552 -0.67900002 -0.80699998 150 0 0
1.553 -0.68000001 -0.81099999 150 0 0
1.552 -0.67900002 -0.81300002 150 0 0
1.55 -0.67799997 -0.815 150 16 0
1.553 -0.67900002 -0.81900001 150 16 0
1.55 -0.67699999 -0.82099998 136 0 0
1.552 -0.67699999 -0.82499999 137 0 0
1.554 -0.67799997 -0.829 150 16 0
1.554 -0.67799997 -0.83200002 150 16 0
1.553 -0.67699999 -0.83399999 150 16 0
1.552 -0.676 -0.83600003 150 16 0
1.553 -0.67500001 -0.83899999 150 16 0
1.549 -0.67299998 -0.83899999 150 16 0
1.553 -0.67400002 -0.84399998 150 16 0
1.553 -0.67299998 -0.84600002 150 16 0
1.554 -0.67299998 -0.84899998 150 16 0
1.552 -0.671 -0.85000002 150 16 0
1.553 -0.67000002 -0.85299999 150 16 0
1.553 -0.66900003 -0.85500002 150 16 0
1.556 -0.66900003 -0.85900003 150 16 0
1.557 -0.66900003 -0.86199999 150 16 0
1.557 -0.667 -0.86400002 150 16 0
1.556 -0.66600001 -0.86500001 150 16 0
1.558 -0.66500002 -0.86799997 150 16 0
1.557 -0.66399997 -0.87 150 16 0
1.5599999 -0.66299999 -0.87300003 150 16 0
1.564 -0.66299999 -0.87599999 150 16 0
1.562 -0.66100001 -0.87699997 150 16 0
1.567 -0.66100001 -0.88099998 150 16 0
1.566 -0.66000003 -0.88300002 150 16 0
1.5700001 -0.66000003 -0.88599998 150 16 0
1.567 -0.65600002 -0.88599998 150 16 0
1.571 -0.65600002 -0.889 150 16 0
1.571 -0.65399998 -0.89099997 150 16 0
1.576 -0.65399998 -0.89399999 150 16 0
1.581 -0.65499997 -0.89899999 150 16 0
1.582 -0.653 -0.89999998 150 16 0
1.582 -0.65100002 -0.90100002 150 16 0
1.585 -0.64999998 -0.903 150 16 0
1.586 -0.648 -0.90499997 150 16 0
1.5880001 -0.64700001 -0.90600002 150 16 0
1.591 -0.64499998 -0.90899998 150 16 0
1.592 -0.64399999 -0.91000003 150 16 0
1.592 -0.64099997 -0.91100001 150 16 0
1.595 -0.63999999 -0.91299999 150 16 0
1.598 -0.639 -0.91500002 150 16 0
1.601 -0.63800001 -0.917 150 16 0
1.603 -0.63499999 -0.91799998 150 16 0
1.604 -0.634 -0.91900003 150 16 0
1.607 -0.63200003 -0.921 150 16 0
1.6160001 -0.63300002 -0.92500001 150 19 0
1.6160001 -0.63 -0.926 150 16 0
1.617 -0.62800002 -0.926 150 16 0
1.6289999 -0.62900001 -0.93199998 150 18 0
1.631 -0.62699997 -0.93300003 150 16 0
1.631 -0.62400001 -0.93300003 150 16 0
1.635 -0.62300003 -0.93400002 150 16 0
1.637 -0.62 -0.935 150 16 0
1.643 -0.62 -0.93800002 2 0 0
1.646 -0.61799997 -0.93900001 150 16 0
1.647 -0.61500001 -0.93900001 150 16 0
1.651 -0.61299998 -0.94 150 16 0
1.656 -0.61199999 -0.94199997 150 16 0
1.661 -0.61000001 -0.94400001 150 16 0
1.6619999 -0.60799998 -0.94300002 150 16 0
1.6720001 -0.60799998 -0.94800001 150 19 0
1.674 -0.60500002 -0.94800001 150 16 0
1.679 -0.60399997 -0.949 150 16 0
1.679 -0.60000002 -0.94800001 150 16 0
1.684 -0.59799999 -0.949 150 16 0
1.688 -0.59600002 -0.94999999 150 16 0
1.692 -0.59399998 -0.94999999 150 16 0
1.694 -0.59100002 -0.94999999 150 16 0
1.699 -0.58999997 -0.95099998 150 16 0
1.704 -0.588 -0.95200002 150 16 0
1.702 -0.583 -0.949 150 16 0
1.71 -0.58200002 -0.95099998 150 16 0
1.711 -0.579 -0.94999999 150 16 0
1.717 -0.57800001 -0.95099998 150 16 0
1.732 -0.579 -0.958 150 18 0
1.737 -0.57700002 -0.958 150 16 0
1.74 -0.574 -0.95700002 150 16 0
1.743 -0.57099998 -0.95700002 150 16 0
1.749 -0.56900001 -0.95700002 150 16 0
1.757 -0.56800002 -0.95899999 150 16 0
1.7589999 -0.565 -0.958 150 16 0
1.7640001 -0.56199998 -0.958 150 16 0
1.772 -0.56099999 -0.95899999 150 16 0
1.774 -0.55699998 -0.958 150 16 0
1.78 -0.55500001 -0.958 150 16 0
1.788 -0.55400002 -0.95899999 150 16 0
1.7920001 -0.551 -0.958 150 16 0
1.795 -0.54799998 -0.95700002 150 16 0
1.802 -0.546 -0.958 150 16 0
1.8049999 -0.54299998 -0.95599997 150 16 0
1.809 -0.54000002 -0.95499998 150 16 0
1.818 -0.53899997 -0.95599997 150 16 0
1.822 -0.53600001 -0.95499998 150 16 0
1.832 -0.53500003 -0.95700002 150 16 0
1.834 -0.53100002 -0.954 150 16 0
1.8430001 -0.52899998 -0.95499998 150 16 0
1.847 -0.52600002 -0.954 150 16 0
1.849 -0.523 -0.95099998 150 16 0
1.863 -0.523 -0.95499998 150 16 0
1.8660001 -0.51899999 -0.95200002 150 16 0
1.872 -0.51700002 -0.95200002 150 16 0
1.8789999 -0.514 -0.95099998 150 16 0
1.888 -0.51300001 -0.95200002 150 16 0
1.892 -0.509 -0.94999999 150 16 0
1.895 -0.50599998 -0.94700003 150 16 0
1.902 -0.50400001 -0.94700003 150 16 0
1.909 -0.50099999 -0.94599998 150 16 0
1.915 -0.49900001 -0.94499999 150 16 0
1.9220001 -0.49599999 -0.94400001 150 16 0
1.927 -0.493 -0.94099998 150 16 0
1.932 -0.49000001 -0.94 115 16 0
1.9400001 -0.48800001 -0.93900001 114 16 0
1.9450001 -0.48500001 -0.93699998 110 16 0
1.952 -0.48199999 -0.93599999 109 16 0
1.956 -0.479 -0.93300003 121 16 0
1.9680001 -0.47799999 -0.93400002 123 16 0
1.983 -0.477 -0.93599999 118 16 0
1.9859999 -0.47299999 -0.93300003 112 16 0
1.995 -0.47099999 -0.93199998 122 16 0
2 -0.46799999 -0.92900002 114 16 0
2.0079999 -0.46599999 -0.92799997 119 16 0
2.0139999 -0.463 -0.926 112 16 0
2.023 -0.46000001 -0.92500001 119 16 0
2.027 -0.45699999 -0.92199999 119 16 0
2.0339999 -0.454 -0.92000002 120 16 0
2.0409999 -0.45199999 -0.91799998 121 16 0
2.05 -0.449 -0.917 117 16 0
2.0569999 -0.447 -0.91399997 106 16 0
2.0639999 -0.44400001 -0.912 110 16 0
2.0710001 -0.44100001 -0.91000003 105 16 0
2.075 -0.43799999 -0.90600002 107 16 0
2.0829999 -0.435 -0.90399998 97 16 0
2.0899999 -0.43200001 -0.90200001 104 16 0
2.0999999 -0.43000001 -0.89999998 105 16 0
2.1070001 -0.42699999 -0.89700001 105 16 0
2.115 -0.42399999 -0.89499998 103 16 0
2.1199999 -0.421 -0.89200002 107 16 0
2.1240001 -0.417 -0.88700002 104 16 0
2.1340001 -0.41499999 -0.88599998 102 16 0
2.1440001 -0.41299999 -0.884 104 16 0
2.1530001 -0.41 -0.88200003 109 16 0
2.1619999 -0.40799999 -0.88 101 16 0
2.1700001 -0.405 -0.87699997 94 16 0
2.175 -0.40200001 -0.87300003 99 16 0
2.1819999 -0.39899999 -0.86900002 99 16 0
2.187 -0.39500001 -0.866 100 16 0
2.1960001 -0.39300001 -0.86299998 94 16 0
2.2049999 -0.38999999 -0.86000001 101 16 0
2.21 -0.38699999 -0.85600001 88 16 0
2.22 -0.384 -0.85299999 94 16 0
2.233 -0.382 -0.852 110 16 0
2.2379999 -0.37900001 -0.84799999 101 16 0
2.2460001 -0.37599999 -0.84399998 100 16 0
2.253 -0.373 -0.83999997 107 16 0
2.263 -0.37099999 -0.838 105 16 0
2.2679999 -0.36700001 -0.833 93 16 0
2.28 -0.36500001 -0.83099997 87 16 0
2.2880001 -0.36199999 -0.82700002 82 16 0
2.296 -0.359 -0.82300001 83 16 0
2.3050001 -0.35699999 -0.81999999 85 16 0
2.3099999 -0.35299999 -0.815 84 16 0
2.3210001 -0.35100001 -0.81199998 86 16 0
2.3280001 -0.34799999 -0.80800003 87 16 0
2.336 -0.345 -0.80400002 86 16 0
2.345 -0.34200001 -0.80000001 89 16 0
2.3529999 -0.33899999 -0.796 88 16 0
2.3559999 -0.33500001 -0.79000002 86 16 0
2.365 -0.333 -0.78600001 84 16 0
2.3759999 -0.33000001 -0.78299999 91 16 0
2.385 -0.32699999 -0.77899998 86 16 0
2.391 -0.324 -0.773 84 16 0
2.401 -0.32100001 -0.76999998 77 16 0
2.4059999 -0.31799999 -0.764 80 16 0
2.4130001 -0.315 -0.759 82 16 0
2.4230001 -0.31200001 -0.755 81 16 0
2.4319999 -0.30899999 -0.75099999 79 16 0
2.4400001 -0.30599999 -0.74599999 77 16 0
2.4489999 -0.303 -0.741 81 16 0
2.454 -0.30000001 -0.736 69 16 0
2.4649999 -0.29699999 -0.73199999 63 16 0
2.477 -0.29499999 -0.72799999 77 16 0
2.4879999 -0.292 -0.72399998 36 16 0
2.4909999 -0.289 -0.71700001 40 16 0
2.4979999 -0.285 -0.71200001 35 16 0
2.5079999 -0.28299999 -0.70700002 37 16 0
2.5179999 -0.28 -0.70200002 36 16 0
2.5239999 -0.27700001 -0.69599998 40 16 0
2.5350001 -0.27399999 -0.69199997 35 16 0
2.5439999 -0.271 -0.68699998 35 16 0
2.55 -0.26800001 -0.68000001 34 16 0
2.5599999 -0.26499999 -0.676 34 16 0
2.569 -0.26199999 -0.67000002 35 16 0
2.5769999 -0.259 -0.66399997 35 16 0
2.589 -0.25600001 -0.66000003 34 16 0
2.5969999 -0.25299999 -0.65399998 35 16 0
2.6070001 -0.25 -0.64899999 34 16 0
2.622 -0.248 -0.64499998 35 16 0
2.6270001 -0.244 -0.63800001 34 16 0
2.635 -0.241 -0.63200003 35 16 0
2.642 -0.23800001 -0.625 33 16 0
2.655 -0.236 -0.62 34 16 0
2.664 -0.233 -0.61500001 30 16 0
2.671 -0.23 -0.60799998 32 16 0
2.6760001 -0.226 -0.60100001 30 16 0
2.681 -0.223 -0.59399998 32 16 0
2.6930001 -0.22 -0.58899999 30 16 0
2.707 -0.21699999 -0.583 31 16 0
2.71 -0.214 -0.57599998 31 16 0
2.7179999 -0.211 -0.56900001 29 16 0
2.7290001 -0.208 -0.56300002 29 16 0
2.74 -0.205 -0.55699998 30 16 0
2.7449999 -0.20200001 -0.55000001 30 16 0
2.7579999 -0.199 -0.54400003 29 16 0
2.763 -0.19599999 -0.537 30 16 0
2.7720001 -0.193 -0.52999997 28 16 0
2.7880001 -0.19 -0.52499998 30 16 0
2.7920001 -0.18700001 -0.51700002 29 16 0
2.802 -0.184 -0.50999999 29 16 0
2.809 -0.18099999 -0.50300002 29 16 0
2.8210001 -0.178 -0.49700001 29 16 0
2.8280001 -0.175 -0.48899999 30 16 0
2.8410001 -0.17200001 -0.48300001 30 16 0
2.8540001 -0.169 -0.47600001 30 16 0
2.859 -0.16599999 -0.46799999 30 16 0
2.872 -0.163 -0.46200001 30 16 0
2.8770001 -0.16 -0.454 31 16 0
2.891 -0.15700001 -0.447 30 16 0
2.898 -0.154 -0.44 30 16 0
2.908 -0.15099999 -0.43200001 30 16 0
2.921 -0.148 -0.42500001 30 16 0
2.931 -0.145 -0.41800001 29 16 0
2.9400001 -0.142 -0.41 29 16 0
2.947 -0.138 -0.40200001 29 16 0
2.96 -0.13500001 -0.39500001 29 16 0
2.9679999 -0.132 -0.38699999 30 16 0
2.98 -0.12899999 -0.37900001 29 16 0
2.984 -0.126 -0.37099999 31 16 0
3.003 -0.123 -0.36399999 31 16 0
3.0139999 -0.12 -0.35600001 30 16 0
3.0250001 -0.117 -0.34799999 30 16 0
3.0350001 -0.114 -0.34 30 16 0
3.039 -0.111 -0.331 31 16 0
3.0580001 -0.108 -0.324 31 16 0
3.0650001 -0.105 -0.315 31 16 0
3.0739999 -0.102 -0.30599999 30 16 0
3.085 -0.098999999 -0.29800001 31 16 0
3.0910001 -0.094999999 -0.289 29 16 0
3.108 -0.093000002 -0.28099999 28 16 0
3.1170001 -0.089000002 -0.273 27 16 0
3.1259999 -0.086000003 -0.264 27 16 0
3.1359999 -0.082999997 -0.255 28 16 0
3.1500001 -0.079999998 -0.24600001 30 16 0
3.158 -0.077 -0.237 37 16 0
3.168 -0.074000001 -0.228 60 16 0
3.1730001 -0.07 -0.219 144 16 0
3.1800001 -0.067000002 -0.20999999 150 16 0
3.1830001 -0.064000003 -0.2 150 16 0
3.1849999 -0.061000001 -0.19 150 16 0
3.1860001 -0.057 -0.18099999 150 16 0
3.1900001 -0.054000001 -0.171 150 16 0
3.1960001 -0.050999999 -0.162 150 16 0
3.198 -0.048 -0.152 150 16 0
3.1930001 -0.044 -0.142 150 16 0
3.2030001 -0.041000001 -0.132 150 16 0
3.207 -0.037999999 -0.123 150 16 0
3.2079999 -0.035 -0.113 150 16 0
3.2090001 -0.032000002 -0.103 150 16 0
3.211 -0.028999999 -0.093000002 150 16 0
3.2160001 -0.025 -0.082999997 150 16 0
3.224 -0.022 -0.074000001 150 16 0
3.2249999 -0.018999999 -0.064000003 96 16 0
3.223 -0.016000001 -0.054000001 45 16 0
3.227 -0.013 -0.044 33 16 0
3.2379999 -0.0099999998 -0.034000002 26 16 0
3.247 -0.0070000002 -0.024 20 16 0
3.2609999 -0.0040000002 -0.014 19 16 0
3.2720001 -0.001 -0.0040000002 19 16 0
3.2850001 0.001 0.0049999999 19 16 0
3.293 0.0040000002 0.015 19 16 0
3.3069999 0.0070000002 0.026000001 20 16 0
3.3150001 0.0099999998 0.035999998 20 16 0
3.325 0.013 0.046999998 20 16 0
3.336 0.017000001 0.057 21 16 0
3.346 0.02 0.068000004 24 16 0
3.3540001 0.023 0.078000002 36 16 0
3.346 0.026000001 0.089000002 40 16 0
3.3210001 0.028000001 0.097999997 32 16 0
3.2980001 0.030999999 0.108 35 16 0
3.28 0.034000002 0.117 92 16 0
3.273 0.037 0.127 150 16 0
3.277 0.039000001 0.138 150 16 0
3.2820001 0.041999999 0.148 150 16 0
3.2809999 0.045000002 0.15800001 150 16 0
3.289 0.048 0.169 150 16 0
3.29 0.050999999 0.18000001 150 16 0
3.2939999 0.054000001 0.19 150 16 0
3.2969999 0.056000002 0.20100001 150 16 0
3.296 0.059 0.211 150 16 0
3.303 0.061999999 0.222 150 16 0
3.3050001 0.064999998 0.23199999 150 16 0
3.306 0.068000004 0.243 150 16 0
3.3180001 0.07 0.25400001 150 16 0
3.3169999 0.072999999 0.264 150 16 0
3.323 0.075999998 0.27500001 150 16 0
3.323 0.079000004 0.28600001 150 16 0
3.325 0.081 0.29699999 150 16 0
3.3299999 0.083999999 0.308 150 16 0
3.329 0.086000003 0.31799999 150 16 0
3.3380001 0.089000002 0.329 150 16 0
3.3410001 0.092 0.34 150 16 0
3.3440001 0.094999999 0.35100001 150 16 0
3.3429999 0.097000003 0.36199999 68 16 0
3.3180001 0.098999999 0.37 37 16 0
3.299 0.101 0.37799999 39 16 0
3.2809999 0.103 0.38600001 37 16 0
3.2620001 0.104 0.39399999 37 16 0
3.2449999 0.106 0.403 39 16 0
3.2249999 0.108 0.41 37 16 0
3.2130001 0.11 0.419 39 16 0
3.194 0.111 0.42699999 37 16 0
3.1760001 0.113 0.435 39 16 0
3.154 0.114 0.442 37 16 0
3.1329999 0.116 0.449 38 16 0
3.118 0.117 0.45699999 34 16 0
3.1010001 0.119 0.46399999 42 16 0
3.0780001 0.12 0.47099999 42 16 0
3.0699999 0.122 0.479 42 16 0
3.052 0.123 0.486 45 16 0
3.03 0.124 0.493 43 16 0
3.023 0.126 0.50099999 45 16 0
3.0009999 0.127 0.50700003 42 16 0
2.984 0.12800001 0.514 42 16 0
2.973 0.12899999 0.52200001 41 16 0
2.9590001 0.131 0.52899998 44 16 0
2.938 0.132 0.53500003 43 16 0
2.928 0.133 0.542 45 16 0
2.9070001 0.134 0.54799998 43 16 0
2.8929999 0.13500001 0.55500001 43 16 0
2.882 0.13600001 0.56199998 72 16 0
2.8699999 0.13699999 0.56900001 72 16 0
2.8529999 0.138 0.57499999 86 16 0
2.8329999 0.139 0.57999998 77 16 0
2.822 0.14 0.58700001 96 16 0
2.806 0.14 0.59299999 110 16 0
2.7939999 0.141 0.60000002 120 16 0
2.777 0.142 0.60500002 99 16 0
2.7679999 0.14300001 0.61199999 97 16 0
2.753 0.14399999 0.61799997 102 16 0
2.7409999 0.145 0.62400001 105 16 0
2.7249999 0.145 0.63 102 16 0
2.714 0.146 0.63599998 100 16 0
2.6949999 0.146 0.64099997 113 16 0
2.6849999 0.147 0.64700001 105 16 0
2.675 0.148 0.653 109 16 0
2.6630001 0.148 0.65899998 122 16 0
2.651 0.149 0.66500002 103 16 0
2.635 0.149 0.67000002 114 16 0
2.6270001 0.15000001 0.676 119 16 0
2.6199999 0.15099999 0.68400002 124 16 0
2.602 0.15099999 0.68699998 115 16 0
2.5899999 0.15099999 0.69300002 116 16 0
2.575 0.152 0.69800001 111 16 0
2.5669999 0.152 0.704 122 16 0
2.552 0.152 0.708 116 16 0
2.5380001 0.152 0.713 115 16 0
2.53 0.153 0.71899998 122 16 0
2.5120001 0.153 0.722 127 16 0
2.507 0.153 0.72899997 112 16 0
2.4990001 0.154 0.73500001 122 16 0
2.48 0.154 0.73799998 120 16 0
2.4749999 0.154 0.745 121 16 0
2.457 0.154 0.74800003 130 16 0
2.448 0.154 0.75300002 141 16 0
2.437 0.154 0.75800002 133 16 0
2.425 0.154 0.76300001 130 16 0
2.4159999 0.154 0.76800001 127 16 0
2.4030001 0.154 0.77200001 138 16 0
2.395 0.154 0.77700001 129 16 0
2.3870001 0.155 0.78299999 120 16 0
2.3759999 0.154 0.787 134 16 0
2.3670001 0.154 0.792 144 16 0
2.3570001 0.154 0.79699999 137 16 0
2.3469999 0.154 0.80199999 146 16 0
2.335 0.154 0.80500001 150 16 0
2.329 0.154 0.81099999 150 16 0
2.316 0.154 0.81400001 150 16 0
2.302 0.153 0.81699997 150 16 0
2.2939999 0.153 0.82200003 150 16 0
2.2850001 0.153 0.82700002 150 16 0
2.2780001 0.153 0.83200002 150 16 0
2.2690001 0.153 0.83700001 150 16 0
2.2539999 0.152 0.83899999 150 16 0
2.244 0.152 0.84299999 150 16 0
2.233 0.15099999 0.84600002 150 16 0
2.2290001 0.15099999 0.852 150 16 0
2.2160001 0.15000001 0.85500002 150 16 0
2.2130001 0.15000001 0.861 150 16 0
2.198 0.15000001 0.86299998 150 16 0
2.188 0.149 0.866 150 16 0
2.1849999 0.149 0.87300003 150 16 0
2.1689999 0.148 0.87400001 150 16 0
2.165 0.148 0.87900001 150 16 0
2.155 0.147 0.88300002 150 16 0
2.145 0.146 0.88599998 150 16 0
2.1370001 0.146 0.88999999 150 16 0
2.128 0.145 0.89300001 150 16 0
2.119 0.145 0.89700001 150 16 0
2.1070001 0.14399999 0.89899999 150 16 0
2.105 0.14300001 0.90499997 150 16 0
2.099 0.14300001 0.91000003 150 16 0
2.0880001 0.142 0.912 150 16 0
2.0810001 0.141 0.91600001 150 16 0
2.076 0.141 0.921 150 16 0
2.0699999 0.14 0.92500001 150 16 0
2.0599999 0.139 0.92799997 150 16 0
2.052 0.138 0.93099999 150 16 0
2.043 0.13699999 0.93400002 150 16 0
2.039 0.13699999 0.93900001 150 16 0
2.029 0.13600001 0.94099998 150 16 0
2.0209999 0.13500001 0.94499999 150 16 0
2.013 0.134 0.94700003 150 16 0
1.997 0.132 0.94700003 150 16 0
1.992 0.132 0.95099998 150 16 0
1.987 0.131 0.95499998 150 16 0
1.9809999 0.13 0.95899999 150 16 0
1.972 0.12899999 0.96100003 150 16 0
1.9680001 0.12800001 0.96499997 150 16 0
1.9579999 0.126 0.96700001 150 16 0
1.95 0.125 0.97000003 150 16 0
1.943 0.124 0.97299999 150 16 0
1.9400001 0.123 0.97799999 150 16 0
1.933 0.122 0.98000002 150 16 0
1.924 0.121 0.98199999 150 16 0
1.913 0.119 0.98299998 150 16 0
1.908 0.118 0.986 150 16 0
1.902 0.117 0.99000001 150 16 0
1.899 0.116 0.99400002 150 16 0
1.896 0.115 0.99900001 150 16 0
1.882 0.113 0.99699998 150 16 0
1.877 0.112 1.001 150 16 0
1.868 0.111 1.002 150 16 0
1.864 0.109 1.005 150 16 0
1.853 0.108 1.006 150 16 0
1.851 0.107 1.01 150 16 0
1.847 0.105 1.0140001 150 16 0
1.839 0.104 1.015 150 16 0
1.8329999 0.102 1.018 150 16 0
1.83 0.101 1.022 150 16 0
1.822 0.098999999 1.023 150 16 0
1.817 0.097999997 1.025 150 16 0
1.809 0.096000001 1.027 150 16 0
1.801 0.094999999 1.027 150 16 0
1.798 0.093000002 1.031 150 16 0
1.7920001 0.092 1.033 150 16 0
1.788 0.090000004 1.036 150 16 0
1.773 0.088 1.0319999 150 19 0
1.77 0.086999997 1.036 150 16 0
1.763 0.085000001 1.0369999 150 16 0
1.7589999 0.082999997 1.04 150 16 0
1.757 0.082000002 1.044 150 16 0
1.7539999 0.079999998 1.0470001 150 16 0
1.75 0.079000004 1.05 150 16 0
1.7460001 0.077 1.052 150 16 0
1.737 0.075000003 1.052 150 16 0
1.735 0.074000001 1.0549999 150 16 0
1.7359999 0.071999997 1.0599999 150 16 0
1.727 0.07 1.059 150 16 0
1.723 0.068000004 1.061 150 16 0
1.723 0.067000002 1.066 150 16 0
1.7130001 0.064999998 1.0650001 150 16 0
1.709 0.063000001 1.066 150 16 0
1.706 0.061000001 1.069 150 16 0
1.7 0.059 1.069 150 16 0
1.6950001 0.057 1.0700001 150 16 0
1.693 0.056000002 1.073 150 16 0
1.691 0.054000001 1.076 150 16 0
1.688 0.052000001 1.0779999 150 16 0
1.682 0.050000001 1.0779999 150 16 0
1.678 0.048 1.08 150 16 0
1.675 0.046 1.081 150 16 0
1.6720001 0.044 1.084 150 16 0
1.669 0.041999999 1.085 150 16 0
1.666 0.039999999 1.087 150 16 0
1.663 0.037999999 1.089 150 16 0
1.6619999 0.035999998 1.091 150 16 0
1.656 0.034000002 1.091 150 16 0
1.655 0.032000002 1.0930001 150 16 0
1.645 0.029999999 1.09 150 19 0
1.643 0.028000001 1.092 150 16 0
1.642 0.026000001 1.094 150 16 0
1.6390001 0.024 1.095 150 16 0
1.637 0.022 1.097 150 16 0
1.631 0.02 1.096 150 16 0
1.628 0.017000001 1.097 150 16 0
1.627 0.015 1.099 150 16 0
1.626 0.013 1.101 150 16 0
1.623 0.011 1.101 150 16 0
1.622 0.0089999996 1.103 150 16 0
1.617 0.0070000002 1.102 150 16 0
1.62 0.0049999999 1.1059999 150 16 0
1.617 0.003 1.107 150 16 0
1.613 0 1.1059999 150 16 0
1.608 -0.001 1.105 150 16 0
1.609 -0.003 1.108 150 16 0
1.6059999 -0.0049999999 1.108 150 16 0
1.605 -0.0070000002 1.108 150 16 0
1.61 -0.0099999998 1.114 150 16 0
1.608 -0.012 1.114 150 16 0
1.6059999 -0.014 1.114 150 16 0
1.604 -0.016000001 1.114 147 16 0
1.603 -0.017999999 1.115 143 16 0
1.601 -0.021 1.115 137 16 0
1.603 -0.023 1.118 150 16 0
1.599 -0.025 1.1160001 150 16 0
1.597 -0.027000001 1.1160001 150 16 0
1.596 -0.029999999 1.1160001 150 16 0
1.5930001 -0.032000002 1.115 150 16 0
1.595 -0.034000002 1.117 150 16 0
1.5930001 -0.035999998 1.1160001 150 16 0
1.591 -0.039000001 1.1160001 150 16 0
1.59 -0.041000001 1.115 150 16 0
1.5880001 -0.043000001 1.115 150 16 0
1.59 -0.045000002 1.117 150 16 0
1.59 -0.048 1.117 150 16 0
1.59 -0.050000001 1.117 150 16 0
1.589 -0.052000001 1.117 150 16 0
1.591 -0.054000001 1.118 150 16 0
1.591 -0.057 1.118 150 16 0
1.589 -0.059 1.117 150 16 0
1.589 -0.061000001 1.117 150 16 0
1.591 -0.063000001 1.117 150 16 0
1.589 -0.066 1.115 150 16 0
1.591 -0.068000004 1.1160001 150 16 0
1.592 -0.07 1.1160001 150 16 0
1.592 -0.071999997 1.1160001 150 16 0
1.592 -0.075000003 1.115 150 16 0
1.592 -0.077 1.115 150 16 0
1.5930001 -0.079000004 1.114 150 16 0
1.5930001 -0.081 1.113 150 16 0
1.594 -0.082999997 1.113 150 16 0
1.599 -0.086000003 1.115 150 16 0
1.599 -0.088 1.114 150 16 0
1.601 -0.090000004 1.114 150 16 0
1.601 -0.092 1.113 150 16 0
1.602 -0.094999999 1.112 150 16 0
1.605 -0.097000003 1.112 150 16 0
1.604 -0.098999999 1.11 150 16 0
1.607 -0.101 1.11 150 16 0
1.608 -0.103 1.109 150 16 0
1.609 -0.105 1.108 150 16 0
1.609 -0.107 1.1059999 150 16 0
1.614 -0.11 1.107 150 16 0
1.6160001 -0.112 1.1059999 150 16 0
1.613 -0.113 1.102 150 16 0
1.617 -0.116 1.102 150 16 0
1.6210001 -0.118 1.102 150 16 0
1.623 -0.12 1.101 150 16 0
1.624 -0.122 1.1 150 16 0
1.624 -0.124 1.097 150 16 0
1.628 -0.126 1.097 150 16 0
1.6339999 -0.12800001 1.098 150 16 0
1.637 -0.13 1.097 150 16 0
1.645 -0.133 1.099 150 16 0
1.65 -0.13500001 1.099 150 16 0
1.65 -0.13699999 1.096 150 16 0
1.655 -0.139 1.097 150 16 0
1.6619999 -0.141 1.098 135 16 0
1.665 -0.14300001 1.097 129 16 0
1.665 -0.145 1.0930001 127 16 0
1.666 -0.146 1.09 150 16 0
1.668 -0.148 1.0880001 150 16 0
1.671 -0.15000001 1.086 150 16 0
1.675 -0.152 1.085 150 16 0
1.678 -0.154 1.0829999 150 16 0
1.6799999 -0.156 1.08 150 16 0
1.6849999 -0.15700001 1.08 150 16 0
1.689 -0.15899999 1.0779999 150 16 0
1.693 -0.161 1.077 150 16 0
1.697 -0.163 1.075 150 16 0
1.698 -0.164 1.072 150 16 0
1.701 -0.16599999 1.0700001 150 16 0
1.71 -0.168 1.071 150 16 0
1.714 -0.17 1.069 150 16 0
1.719 -0.17200001 1.068 150 16 0
1.723 -0.17299999 1.066 150 16 0
1.728 -0.175 1.064 150 16 0
1.73 -0.177 1.061 150 16 0
1.7359999 -0.178 1.0599999 150 16 0
1.74 -0.18000001 1.058 150 16 0
1.7410001 -0.18099999 1.053 150 16 0
1.747 -0.183 1.052 150 16 0
1.749 -0.184 1.048 150 16 0
1.751 -0.185 1.045 150 16 0
1.757 -0.18700001 1.043 150 16 0
1.757 -0.18799999 1.038 150 16 0
1.779 -0.191 1.046 150 18 0
1.781 -0.192 1.0420001 150 16 0
1.7869999 -0.19400001 1.04 150 16 0
1.791 -0.19499999 1.0369999 150 16 0
1.795 -0.197 1.034 150 16 0
1.806 -0.199 1.035 150 16 0
1.808 -0.2 1.031 150 16 0
1.811 -0.20100001 1.027 150 16 0
1.822 -0.20299999 1.027 150 16 0
1.827 -0.204 1.025 150 16 0
1.832 -0.205 1.022 150 16 0
1.837 -0.206 1.0190001 150 16 0
1.8430001 -0.208 1.017 150 16 0
1.852 -0.20900001 1.016 150 16 0
1.858 -0.20999999 1.0140001 150 16 0
1.863 -0.211 1.01 150 16 0
1.868 -0.212 1.007 150 16 0
1.876 -0.214 1.005 150 16 0
1.883 -0.215 1.003 150 16 0
1.891 -0.21600001 1.001 150 16 0
1.8940001 -0.21699999 0.99699998 150 16 0
1.904 -0.21799999 0.99599999 150 16 0
1.913 -0.22 0.99400002 150 16 0
1.916 -0.22 0.99000001 150 16 0
1.9220001 -0.221 0.986 150 16 0
1.932 -0.223 0.98500001 150 16 0
1.937 -0.223 0.98199999 150 16 0
1.942 -0.22400001 0.977 150 16 0
1.95 -0.22499999 0.97500002 150 16 0
1.962 -0.226 0.97500002 150 16 0
1.965 -0.227 0.97000003 150 16 0
1.975 -0.228 0.96799999 150 16 0
1.979 -0.229 0.96399999 150 16 0
1.985 -0.229 0.95999998 150 16 0
1.999 -0.23100001 0.95999998 150 16 0
2.0039999 -0.23100001 0.95599997 150 16 0
2.0109999 -0.23199999 0.95200002 143 16 0
2.0220001 -0.233 0.95099998 141 16 0
2.0280001 -0.233 0.94700003 148 16 0
2.0380001 -0.234 0.94400001 140 16 0
2.046 -0.235 0.94099998 140 16 0
2.052 -0.235 0.93699998 141 16 0
2.0550001 -0.235 0.93099999 145 16 0
2.0699999 -0.237 0.93099999 149 16 0
2.075 -0.237 0.92699999 148 16 0
2.0829999 -0.237 0.92299998 148 16 0
2.0929999 -0.23800001 0.921 147 16 0
2.099 -0.23800001 0.91600001 146 16 0
2.108 -0.23899999 0.91299999 135 16 0
2.112 -0.23899999 0.90700001 128 16 0
2.125 -0.23999999 0.90600002 136 16 0
2.135 -0.23999999 0.903 141 16 0
2.138 -0.23999999 0.89700001 140 16 0
2.148 -0.241 0.89399999 143 16 0
2.158 -0.241 0.89099997 143 16 0
2.1659999 -0.241 0.88599998 140 16 0
2.174 -0.241 0.88200003 140 16 0
2.178 -0.241 0.87699997 123 16 0
2.1919999 -0.242 0.875 128 16 0
2.2019999 -0.242 0.87099999 133 16 0
2.21 -0.242 0.86699998 126 16 0
2.2179999 -0.242 0.86299998 115 16 0
2.224 -0.242 0.85799998 113 16 0
2.233 -0.242 0.85299999 78 16 0
2.2460001 -0.242 0.85100001 90 16 0
2.2609999 -0.243 0.84899998 102 16 0
2.2639999 -0.242 0.84200001 94 16 0
2.2750001 -0.242 0.83899999 91 16 0
2.283 -0.242 0.83399999 83 16 0
2.2950001 -0.242 0.82999998 82 16 0
2.302 -0.242 0.82499999 81 16 0
2.3199999 -0.243 0.824 81 16 0
2.326 -0.242 0.81800002 84 16 0
2.339 -0.242 0.815 90 16 0
2.348 -0.242 0.81 86 16 0
2.3540001 -0.241 0.80400002 81 16 0
2.365 -0.241 0.80000001 77 16 0
2.372 -0.23999999 0.79500002 87 16 0
2.381 -0.23999999 0.79000002 82 16 0
2.3959999 -0.23999999 0.787 78 16 0
2.404 -0.23899999 0.78100002 85 16 0
2.415 -0.23899999 0.77700001 72 16 0
2.4300001 -0.23899999 0.773 66 16 0
2.438 -0.23800001 0.76800001 79 16 0
2.4419999 -0.237 0.76099998 70 16 0
2.4530001 -0.236 0.75599998 68 16 0
2.4690001 -0.236 0.75300002 58 16 0
2.483 -0.236 0.74900001 50 16 0
2.4890001 -0.235 0.74299997 49 16 0
2.5009999 -0.234 0.73799998 54 16 0
2.5090001 -0.233 0.73199999 34 16 0
2.527 -0.233 0.72899997 34 16 0
2.5339999 -0.23199999 0.722 41 16 0
2.5469999 -0.23100001 0.71799999 39 16 0
2.5599999 -0.23100001 0.713 42 16 0
2.572 -0.23 0.708 38 16 0
2.5780001 -0.229 0.70099998 35 16 0
2.592 -0.228 0.69599998 43 16 0
2.609 -0.227 0.69199997 48 16 0
2.612 -0.226 0.68400002 38 16 0
2.6270001 -0.22499999 0.68000001 37 16 0
2.6400001 -0.22400001 0.67500001 44 16 0
2.648 -0.223 0.66799998 42 16 0
2.6619999 -0.222 0.66299999 37 16 0
2.674 -0.22 0.65700001 37 16 0
2.691 -0.22 0.65200001 36 16 0
2.7 -0.21799999 0.64600003 36 16 0
2.7079999 -0.21699999 0.639 35 16 0
2.7249999 -0.21600001 0.634 34 16 0
2.74 -0.215 0.62900001 30 16 0
2.7579999 -0.214 0.62400001 29 16 0
2.7650001 -0.212 0.61699998 29 16 0
2.776 -0.20999999 0.61000001 30 16 0
2.79 -0.20900001 0.60399997 29 16 0
2.8 -0.207 0.59799999 28 16 0
2.819 -0.206 0.59299999 28 16 0
2.8340001 -0.205 0.58700001 30 16 0
2.842 -0.20299999 0.579 28 16 0
2.865 -0.20200001 0.57499999 29 16 0
2.8789999 -0.2 0.56800002 29 16 0
2.8889999 -0.199 0.56099999 28 16 0
2.905 -0.197 0.55500001 28 16 0
2.9189999 -0.19499999 0.54799998 28 16 0
2.927 -0.193 0.54100001 30 16 0
2.941 -0.191 0.53399998 29 16 0
2.9649999 -0.19 0.52899998 30 16 0
2.9760001 -0.18799999 0.52100003 30 16 0
2.9909999 -0.186 0.514 29 16 0
3.0050001 -0.184 0.50700003 30 16 0
3.0220001 -0.182 0.50099999 29 16 0
3.0480001 -0.18099999 0.49599999 29 16 0
3.0599999 -0.178 0.48800001 29 16 0
3.0710001 -0.176 0.47999999 29 16 0
3.089 -0.17399999 0.47299999 28 16 0
3.105 -0.17200001 0.46599999 28 16 0
3.1229999 -0.17 0.45899999 30 16 0
3.1489999 -0.168 0.45300001 30 16 0
3.161 -0.16500001 0.44400001 30 16 0
3.177 -0.163 0.43700001 33 16 0
3.194 -0.161 0.42899999 32 16 0
3.211 -0.15800001 0.42199999 33 16 0
3.227 -0.156 0.414 40 16 0
3.2420001 -0.153 0.405 37 16 0
3.2490001 -0.15000001 0.396 30 16 0
3.2520001 -0.147 0.38699999 26 16 0
3.256 -0.14300001 0.377 25 16 0
3.2639999 -0.14 0.368 25 16 0
3.2650001 -0.13699999 0.35800001 25 16 0
3.27 -0.133 0.34799999 26 16 0
3.2709999 -0.13 0.338 26 16 0
3.273 -0.127 0.32800001 26 16 0
3.2780001 -0.123 0.31900001 26 16 0
3.279 -0.12 0.30899999 26 16 0
3.289 -0.116 0.30000001 25 16 0
3.2980001 -0.113 0.28999999 26 16 0
3.299 -0.109 0.28 23 16 0
3.3050001 -0.106 0.271 24 16 0
3.3039999 -0.102 0.26100001 24 16 0
3.309 -0.098999999 0.25099999 23 16 0
3.3110001 -0.094999999 0.241 23 16 0
3.3169999 -0.090999998 0.23100001 23 16 0
3.323 -0.088 0.222 23 16 0
3.326 -0.083999999 0.212 23 16 0
3.326 -0.079999998 0.20200001 23 16 0
3.3329999 -0.077 0.192 23 16 0
3.3369999 -0.072999999 0.182 28 16 0
3.345 -0.068999998 0.17200001 40 16 0
3.3380001 -0.064999998 0.162 80 16 0
3.3310001 -0.061000001 0.15099999 127 16 0
3.3269999 -0.057 0.141 111 16 0
3.3199999 -0.052999999 0.131 71 16 0
3.312 -0.048999999 0.121 66 16 0
3.3039999 -0.045000002 0.11 65 16 0
3.2980001 -0.041000001 0.1 76 16 0
3.2920001 -0.037 0.090000004 75 16 0
3.2820001 -0.033 0.079999998 71 16 0
3.2820001 -0.028999999 0.07 102 16 0
3.273 -0.025 0.059999999 73 16 0
3.27 -0.021 0.050000001 43 16 0
3.2639999 -0.016000001 0.039999999 28 16 0
3.2609999 -0.012 0.030999999 20 16 0
3.2709999 -0.0080000004 0.021 15 16 0
3.2809999 -0.0040000002 0.011 16 16 0
3.277 0 0.0020000001 15 16 0
3.289 0.003 -0.0070000002 15 16 0
3.289 0.0070000002 -0.017000001 16 16 0
3.2980001 0.011 -0.027000001 16 16 0
3.303 0.015 -0.037 17 16 0
3.312 0.02 -0.046999998 23 16 0
3.306 0.024 -0.057 32 16 0
3.2939999 0.028000001 -0.066 44 16 0
3.289 0.032000002 -0.075999998 49 16 0
3.2820001 0.035999998 -0.085000001 46 16 0
3.277 0.041000001 -0.094999999 47 16 0
3.2679999 0.045000002 -0.105 41 16 0
3.263 0.048999999 -0.114 35 16 0
3.263 0.052999999 -0.124 35 16 0
3.256 0.057 -0.133 38 16 0
3.25 0.061999999 -0.142 46 16 0
3.243 0.066 -0.152 48 16 0
3.2349999 0.07 -0.161 65 16 0
3.2279999 0.074000001 -0.17 61 16 0
3.2260001 0.079000004 -0.17900001 60 16 0
3.2149999 0.082999997 -0.18799999 61 16 0
3.211 0.086999997 -0.198 58 16 0
3.201 0.090999998 -0.206 48 16 0
3.197 0.094999999 -0.21600001 60 16 0
3.1889999 0.098999999 -0.22400001 72 16 0
3.1860001 0.104 -0.234 56 16 0
3.178 0.108 -0.242 55 16 0
3.168 0.112 -0.25099999 55 16 0
3.165 0.116 -0.25999999 58 16 0
3.1570001 0.12 -0.26800001 56 16 0
3.154 0.125 -0.278 55 16 0
3.1470001 0.12899999 -0.28600001 50 16 0
3.142 0.133 -0.29499999 53 16 0
3.135 0.13699999 -0.303 53 16 0
3.128 0.142 -0.31200001 60 16 0
3.122 0.146 -0.31999999 64 16 0
3.1129999 0.15000001 -0.329 65 16 0
3.105 0.154 -0.33700001 54 16 0
3.1029999 0.15800001 -0.34599999 67 16 0
3.092 0.162 -0.354 56 16 0
3.0910001 0.167 -0.36199999 60 16 0
3.086 0.171 -0.37099999 69 16 0
3.0810001 0.176 -0.37900001 64 16 0
3.072 0.18000001 -0.38699999 63 16 0
3.066 0.184 -0.39500001 74 16 0
3.0550001 0.18799999 -0.403 70 16 0
3.053 0.192 -0.41100001 92 16 0
3.049 0.197 -0.41999999 96 16 0
3.043 0.20100001 -0.428 85 16 0
3.0350001 0.205 -0.43599999 87 16 0
3.0350001 0.20999999 -0.44400001 88 16 0
3.02 0.213 -0.45100001 71 16 0
3.0209999 0.21799999 -0.46000001 87 16 0
3.0109999 0.222 -0.46700001 97 16 0
3.007 0.226 -0.47499999 87 16 0
3.0050001 0.23100001 -0.48300001 90 16 0
2.997 0.235 -0.491 95 16 0
2.9920001 0.23899999 -0.49900001 79 16 0
2.984 0.244 -0.50599998 82 16 0
2.98 0.248 -0.514 89 16 0
2.9719999 0.252 -0.52100003 85 16 0
2.967 0.25600001 -0.52899998 84 16 0
2.9630001 0.26100001 -0.537 84 16 0
2.9560001 0.26499999 -0.54400003 112 16 0
2.9489999 0.26899999 -0.551 114 16 0
2.947 0.27399999 -0.55900002 118 16 0
2.941 0.278 -0.56699997 116 16 0
2.934 0.28200001 -0.574 116 16 0
2.931 0.287 -0.58200002 120 16 0
2.924 0.29100001 -0.588 119 16 0
2.918 0.296 -0.59600002 132 16 0
2.914 0.30000001 -0.60299999 127 16 0
2.895 0.303 -0.60799998 117 16 0
2.895 0.308 -0.616 129 16 0
2.8870001 0.31200001 -0.62199998 124 16 0
2.8840001 0.317 -0.63 117 16 0
2.8800001 0.32100001 -0.63700002 125 16 0
2.8759999 0.32600001 -0.64499998 130 16 0
2.868 0.33000001 -0.65100002 119 16 0
2.865 0.33399999 -0.65899998 134 16 0
2.8570001 0.338 -0.66500002 125 16 0
2.8499999 0.34299999 -0.67199999 123 16 0
2.849 0.34799999 -0.67900002 127 16 0
2.842 0.352 -0.68599999 141 16 0
2.8410001 0.35699999 -0.69400001 134 16 0
2.829 0.36000001 -0.699 133 16 0
2.8239999 0.36500001 -0.70599997 132 16 0
2.816 0.36899999 -0.71100003 129 16 0
2.813 0.37400001 -0.71899998 125 16 0
2.8099999 0.37799999 -0.72600001 140 16 0
2.8050001 0.38299999 -0.73299998 137 16 0
2.796 0.38699999 -0.73799998 131 16 0
2.7950001 0.39199999 -0.74599999 150 16 0
2.7880001 0.396 -0.75199997 136 16 0
2.783 0.40099999 -0.75800002 145 16 0
2.7820001 0.40599999 -0.76599997 150 16 0
2.7750001 0.41 -0.77200001 144 16 0
2.7690001 0.414 -0.778 150 16 0
2.7609999 0.41800001 -0.78299999 150 16 0
2.7539999 0.42300001 -0.78899997 149 16 0
2.7490001 0.42699999 -0.79500002 146 16 0
2.744 0.43200001 -0.801 150 16 0
2.743 0.43700001 -0.80900002 145 16 0
2.733 0.44100001 -0.81300002 150 16 0
2.73 0.44600001 -0.81999999 149 16 0
2.727 0.44999999 -0.82700002 140 16 0
2.7179999 0.454 -0.83099997 150 16 0
2.7149999 0.45899999 -0.838 150 16 0
2.711 0.46399999 -0.84399998 150 16 0
2.7079999 0.46900001 -0.85100001 150 16 0
2.7 0.47299999 -0.85600001 150 16 0
2.6919999 0.477 -0.861 150 16 0
2.6889999 0.48199999 -0.86699998 150 16 0
2.6830001 0.486 -0.87199998 150 16 0
2.677 0.491 -0.87800002 150 16 0
2.6760001 0.49599999 -0.884 150 16 0
2.668 0.5 -0.889 150 16 0
2.665 0.505 -0.89499998 150 16 0
2.6600001 0.50999999 -0.90100002 150 16 0
2.6559999 0.514 -0.90700001 150 16 0
2.6500001 0.51899999 -0.912 150 16 0
2.6489999 0.52399999 -0.91799998 150 16 0
2.6440001 0.52899998 -0.92400002 150 16 0
2.642 0.53399998 -0.93000001 24 16 0
2.645 0.54000002 -0.93800002 5 16 0
2.73 0.56400001 -0.97600001 0 17 0
0 0 0 0 16 0
0 0 0 0 16 0
0 0 0 0 16 0
0 0 0 0 16 0
0 0 0 0 16 0
0 0 0 0 16 0
0 0 0 0 16 0
0 0 0 0 16 0
0 0 0 0 16 0
2.625 0.59899998 -1.006 0 16 0
0 0 0 0 16 0
2.592 0.60399997 -1.007 0 16 0
2.5699999 0.60399997 -1.005 7 16 0
2.566 0.60900003 -1.01 30 16 0
2.556 0.61299998 -1.012 150 16 0
2.553 0.61799997 -1.017 150 16 0
2.549 0.62300003 -1.022 150 16 0
2.5450001 0.62800002 -1.027 150 16 0
2.539 0.63200003 -1.03 150 16 0
2.5369999 0.63700002 -1.036 150 16 0
2.5339999 0.64200002 -1.04 150 16 0
2.529 0.64700001 -1.045 150 16 0
2.5190001 0.64999998 -1.0470001 150 16 0
2.523 0.65700001 -1.054 150 16 0
2.517 0.662 -1.058 150 16 0
2.5109999 0.66600001 -1.061 150 16 0
2.4979999 0.66799998 -1.061 150 16 0
2.494 0.67299998 -1.066 150 16 0
2.4909999 0.67900002 -1.0700001 150 16 0
2.487 0.68300003 -1.074 150 16 0
2.4820001 0.68800002 -1.0779999 150 16 0
2.477 0.69199997 -1.081 150 16 0
2.473 0.69700003 -1.085 150 16 0
2.4660001 0.70099998 -1.087 150 16 0
2.467 0.70700002 -1.0930001 150 16 0
2.464 0.71200001 -1.097 150 16 0
2.46 0.71700001 -1.101 150 16 0
2.4560001 0.722 -1.104 150 16 0
2.454 0.727 -1.109 150 16 0
2.4449999 0.73000002 -1.11 150 16 0
2.4430001 0.736 -1.114 150 16 0
2.4400001 0.741 -1.118 150 16 0
2.4330001 0.745 -1.12 150 16 0
2.434 0.75099999 -1.125 150 16 0
2.4289999 0.755 -1.127 150 16 0
2.4260001 0.75999999 -1.131 150 16 0
2.4219999 0.76499999 -1.1339999 150 16 0
2.4200001 0.76999998 -1.137 150 16 0
2.415 0.77499998 -1.14 150 16 0
2.4119999 0.77899998 -1.143 150 16 0
2.405 0.78299999 -1.1440001 150 16 0
2.4030001 0.78799999 -1.148 150 16 0
2.401 0.79400003 -1.151 150 16 0
2.398 0.79799998 -1.154 150 16 0
2.3940001 0.80299997 -1.156 150 16 0
2.3900001 0.80800003 -1.159 150 16 0
2.3889999 0.81300002 -1.1619999 150 16 0
2.3840001 0.81699997 -1.164 150 16 0
2.378 0.82099998 -1.165 150 16 0
2.3770001 0.82599998 -1.168 150 16 0
2.3710001 0.82999998 -1.169 150 16 0
2.369 0.83499998 -1.1720001 150 16 0
2.3670001 0.83999997 -1.174 150 16 0
2.3640001 0.84500003 -1.176 150 16 0
2.359 0.84899998 -1.178 150 16 0
2.358 0.85399997 -1.181 150 16 0
2.352 0.85799998 -1.181 150 16 0
2.3499999 0.86199999 -1.183 150 16 0
2.349 0.86799997 -1.186 150 16 0
2.3440001 0.87099999 -1.186 150 16 0
2.342 0.87599999 -1.188 150 16 0
2.342 0.88200003 -1.191 150 16 0
2.336 0.88499999 -1.191 150 16 0
2.3340001 0.88999999 -1.193 150 16 0
2.332 0.89399999 -1.194 150 16 0
2.326 0.89700001 -1.194 150 16 0
2.3239999 0.90200001 -1.196 150 16 0
2.3210001 0.90600002 -1.196 150 16 0
2.316 0.91000003 -1.196 150 16 0
2.3169999 0.91500002 -1.199 150 16 0
2.312 0.91799998 -1.198 150 16 0
2.3099999 0.92299998 -1.199 150 16 0
2.3110001 0.92799997 -1.202 150 16 0
2.3050001 0.93099999 -1.201 150 16 0
2.303 0.93599999 -1.202 150 16 0
2.3 0.93900001 -1.202 150 16 0
2.299 0.94400001 -1.2029999 150 16 0
2.3180001 0.95700002 -1.214 150 18 0
2.3199999 0.96200001 -1.217 151 16 0
2.312 0.96399999 -1.214 151 16 0
2.2950001 0.96200001 -1.206 150 16 0
2.2850001 0.96200001 -1.202 150 16 0
2.2869999 0.96799999 -1.205 150 16 0
2.2850001 0.972 -1.205 150 16 0
2.2839999 0.97600001 -1.205 150 16 0
2.2780001 0.97799999 -1.2029999 150 16 0
2.2809999 0.98299998 -1.205 150 16 0
2.273 0.98400003 -1.201 150 16 0
2.273 0.98900002 -1.202 150 16 0
2.27 0.99199998 -1.2 150 16 0
2.2709999 0.99599999 -1.201 150 16 0
2.2679999 0.99900001 -1.2 150 16 0
2.266 1.002 -1.199 150 16 0
2.2650001 1.006 -1.199 150 16 0
2.2650001 1.01 -1.198 150 16 0
2.263 1.013 -1.197 150 16 0
2.2590001 1.015 -1.1950001 150 16 0
2.2590001 1.0190001 -1.1950001 150 16 0
2.26 1.023 -1.194 150 16 0
2.256 1.025 -1.192 150 16 0
2.2590001 1.03 -1.193 150 16 0
2.257 1.033 -1.191 150 16 0
2.253 1.034 -1.188 150 16 0
2.2539999 1.038 -1.188 150 16 0
2.253 1.04 -1.186 150 16 0
2.2509999 1.043 -1.184 150 16 0
2.2520001 1.0470001 -1.183 150 16 0
2.2520001 1.05 -1.182 150 16 0
2.2509999 1.052 -1.1799999 150 16 0
2.247 1.053 -1.176 150 16 0
2.25 1.057 -1.176 150 16 0
2.2460001 1.058 -1.173 150 16 0
2.247 1.061 -1.171 150 16 0
2.2449999 1.063 -1.168 150 16 0
2.2490001 1.067 -1.168 150 16 0
2.247 1.069 -1.165 150 16 0
2.2460001 1.071 -1.1619999 150 16 0
2.2460001 1.073 -1.16 150 16 0
2.2460001 1.075 -1.158 150 16 0
2.2460001 1.077 -1.155 150 16 0
2.247 1.08 -1.153 150 16 0
2.2479999 1.082 -1.151 150 16 0
2.247 1.0829999 -1.148 150 16 0
2.2479999 1.085 -1.145 150 16 0
2.247 1.087 -1.142 150 16 0
2.2479999 1.089 -1.1390001 150 16 0
2.2490001 1.091 -1.137 150 16 0
2.2490001 1.092 -1.1339999 150 16 0
2.2490001 1.0930001 -1.131 150 16 0
2.25 1.095 -1.128 150 16 0
2.2520001 1.097 -1.125 150 16 0
2.2520001 1.098 -1.122 150 16 0
2.25 1.098 -1.117 150 16 0
2.25 1.098 -1.114 150 16 0
2.25 1.099 -1.11 150 16 0
2.2520001 1.101 -1.107 150 16 0
2.253 1.102 -1.104 150 16 0
2.2550001 1.103 -1.101 150 16 0
2.2550001 1.103 -1.097 150 16 0
2.257 1.105 -1.094 150 16 0
2.2609999 1.107 -1.092 150 16 0
2.2579999 1.1059999 -1.086 150 16 0
2.263 1.108 -1.084 150 16 0
2.2620001 1.107 -1.079 150 16 0
2.263 1.108 -1.075 150 16 0
2.2650001 1.108 -1.072 150 16 0
2.267 1.109 -1.068 150 16 0
2.27 1.11 -1.0650001 150 16 0
2.273 1.1109999 -1.062 151 16 0
2.2739999 1.1109999 -1.058 151 16 0
2.276 1.1109999 -1.054 151 16 0
2.2780001 1.1109999 -1.05 151 16 0
2.276 1.109 -1.044 150 16 0
2.2820001 1.1109999 -1.0420001 151 16 0
2.2839999 1.1109999 -1.0369999 151 16 0
2.286 1.1109999 -1.033 151 16 0
2.2880001 1.11 -1.029 151 16 0
2.29 1.11 -1.025 151 16 0
2.2909999 1.109 -1.02 151 16 0
2.2939999 1.109 -1.016 151 16 0
2.299 1.11 -1.013 151 16 0
2.2980001 1.108 -1.007 151 16 0
2.3010001 1.107 -1.003 151 16 0
2.3050001 1.107 -0.99900001 151 16 0
2.3050001 1.1059999 -0.99400002 151 16 0
2.3080001 1.105 -0.99000001 151 16 0
2.3099999 1.104 -0.98500001 151 16 0
2.312 1.103 -0.98100001 151 16 0
2.3169999 1.102 -0.977 150 16 0
2.319 1.101 -0.972 151 16 0
2.3199999 1.099 -0.96700001 151 16 0
2.323 1.098 -0.96200001 151 16 0
2.3280001 1.098 -0.958 151 16 0
2.3280001 1.095 -0.95300001 151 16 0
2.3299999 1.094 -0.94800001 151 16 0
2.336 1.094 -0.94400001 150 16 0
2.3369999 1.091 -0.93900001 150 16 0
2.345 1.092 -0.93599999 151 16 0
2.3499999 1.091 -0.93199998 151 16 0
2.3559999 1.091 -0.92799997 150 16 0
2.3599999 1.089 -0.92400002 17 16 0
2.369 1.09 -0.92199999 3 16 0
2.3789999 1.092 -0.91900003 2 16 0
2.382 1.089 -0.91399997 2 16 0
2.3870001 1.0880001 -0.91000003 2 16 0
2.3840001 1.084 -0.903 2 16 0
2.3859999 1.081 -0.89700001 1 16 0
2.395 1.081 -0.89399999 2 16 0
2.3900001 1.075 -0.88599998 2 16 0
2.398 1.075 -0.88300002 2 16 0
2.4070001 1.075 -0.88 1 16 0
2.401 1.068 -0.87199998 1 16 0
2.414 1.0700001 -0.87 2 16 0
2.4200001 1.068 -0.866 3 16 0
2.418 1.063 -0.85900003 3 16 0
2.428 1.063 -0.85600001 4 16 0
2.4189999 1.0549999 -0.847 16 16 0
2.415 1.049 -0.83899999 112 16 0
2.4200001 1.0470001 -0.83399999 150 16 0
2.415 1.04 -0.82599998 150 16 0
2.421 1.039 -0.82200003 150 16 0
2.424 1.035 -0.81699997 150 16 0
2.4300001 1.033 -0.81300002 150 16 0
2.4330001 1.03 -0.80699998 150 16 0
2.4349999 1.026 -0.80199999 150 16 0
2.4400001 1.023 -0.79699999 150 16 0
2.444 1.02 -0.792 150 16 0
2.4519999 1.0190001 -0.78799999 150 16 0
2.4549999 1.015 -0.78299999 150 16 0
2.4590001 1.012 -0.778 150 16 0
2.4619999 1.008 -0.77200001 150 16 0
2.4660001 1.005 -0.76700002 150 16 0
2.4690001 1.001 -0.76200002 150 16 0
2.474 0.99800003 -0.75700003 150 16 0
2.4809999 0.995 -0.75300002 150 16 0
2.483 0.99000001 -0.74699998 150 16 0
2.4860001 0.986 -0.741 150 16 0
2.4920001 0.98299998 -0.73699999 150 16 0
2.494 0.97899997 -0.73100001 150 16 0
2.5020001 0.97600001 -0.727 150 16 0
2.5109999 0.97500002 -0.72399998 151 16 0
2.527 0.97500002 -0.722 151 16 0
2.5320001 0.97100002 -0.71700001 151 16 0
2.5280001 0.96399999 -0.70899999 150 16 0
2.516 0.954 -0.69999999 150 16 0
2.526 0.95200002 -0.69599998 150 16 0
2.53 0.94700003 -0.69099998 150 16 0
2.529 0.94199997 -0.68400002 150 16 0
2.5350001 0.93800002 -0.68000001 150 16 0
2.539 0.93300003 -0.67500001 150 16 0
2.546 0.93000001 -0.67000002 150 16 0
2.549 0.92500001 -0.66500002 150 16 0
2.553 0.921 -0.66000003 150 16 0
2.5569999 0.91600001 -0.65399998 150 16 0
2.562 0.912 -0.64899999 150 16 0
2.566 0.90700001 -0.64399999 150 16 0
2.5710001 0.90200001 -0.639 150 16 0
2.5739999 0.89700001 -0.634 150 16 0
2.576 0.89200002 -0.62800002 150 16 0
2.5869999 0.88999999 -0.625 150 16 0
2.592 0.88499999 -0.62 150 16 0
2.5969999 0.88 -0.61400002 150 16 0
2.5999999 0.875 -0.60900003 150 16 0
2.608 0.87099999 -0.60500002 150 16 0
2.6170001 0.86799997 -0.60100001 150 16 0
2.6170001 0.861 -0.59399998 150 16 0
2.6199999 0.85600001 -0.58899999 150 16 0
2.6259999 0.85100001 -0.58399999 150 16 0
2.631 0.84600002 -0.579 150 16 0
2.6370001 0.84200001 -0.57499999 150 16 0
2.6370001 0.83499998 -0.56900001 150 16 0
2.6440001 0.82999998 -0.56400001 150 16 0
2.6489999 0.82499999 -0.55900002 150 16 0
2.6559999 0.82099998 -0.55400002 150 16 0
2.6589999 0.815 -0.54900002 150 16 0
2.6670001 0.81 -0.54500002 150 16 0
2.668 0.80400002 -0.53899997 150 16 0
2.6789999 0.80000001 -0.53500003 150 16 0
2.684 0.79500002 -0.52999997 150 16 0
2.6849999 0.78799999 -0.52399999 150 16 0
2.6900001 0.78299999 -0.51899999 150 16 0
2.697 0.778 -0.514 150 16 0
2.7030001 0.773 -0.50999999 150 16 0
2.707 0.76700002 -0.50400001 150 16 0
2.71 0.75999999 -0.49900001 150 16 0
2.717 0.75599998 -0.49399999 150 16 0
2.724 0.75 -0.49000001 150 16 0
2.7249999 0.74299997 -0.484 150 16 0
2.7309999 0.73799998 -0.479 150 16 0
2.7320001 0.73100001 -0.47400001 150 16 0
2.7379999 0.72600001 -0.46900001 150 16 0
2.7449999 0.72000003 -0.46399999 150 16 0
2.7550001 0.71499997 -0.46000001 150 16 0
2.7579999 0.70899999 -0.45500001 150 16 0
2.7709999 0.70499998 -0.45100001 150 16 0
2.7739999 0.69800001 -0.44600001 150 16 0
2.777 0.69199997 -0.44 150 16 0
2.779 0.685 -0.435 150 16 0
2.7839999 0.67900002 -0.43000001 150 16 0
2.789 0.67199999 -0.42500001 150 16 0
2.796 0.667 -0.41999999 150 16 0
2.8050001 0.66100001 -0.41600001 150 16 0
2.8080001 0.65499997 -0.41100001 150 16 0
2.812 0.648 -0.40599999 150 16 0
2.8150001 0.64099997 -0.40000001 150 16 0
2.825 0.63599998 -0.396 150 16 0
2.829 0.62900001 -0.391 150 16 0
2.832 0.62199998 -0.38600001 150 16 0
2.8429999 0.61699998 -0.382 150 16 0
2.8469999 0.61000001 -0.377 150 16 0
2.852 0.60299999 -0.37200001 150 16 0
2.8610001 0.597 -0.36700001 150 16 0
2.8629999 0.58999997 -0.36199999 150 16 0
2.872 0.58399999 -0.35699999 150 16 0
2.8699999 0.57599998 -0.35100001 150 16 0
2.8789999 0.56999999 -0.347 150 16 0
2.8829999 0.56300002 -0.34200001 150 16 0
2.891 0.55699998 -0.33700001 150 16 0
2.892 0.54900002 -0.33199999 150 16 0
2.905 0.54400003 -0.32800001 150 16 0
2.9070001 0.53600001 -0.32300001 150 16 0
2.9189999 0.52999997 -0.31799999 150 16 0
2.9189999 0.52200001 -0.31299999 150 16 0
2.9289999 0.51599997 -0.308 150 16 0
2.9360001 0.509 -0.30399999 150 16 0
2.9419999 0.50199997 -0.29899999 150 16 0
2.9489999 0.495 -0.294 150 16 0
2.9530001 0.48800001 -0.289 150 16 0
2.9549999 0.47999999 -0.28400001 150 16 0
2.9619999 0.47299999 -0.27900001 150 16 0
2.9719999 0.46599999 -0.27500001 150 16 0
2.973 0.458 -0.26899999 150 16 0
2.9860001 0.45199999 -0.26499999 150 16 0
2.9860001 0.44400001 -0.25999999 150 16 0
2.99 0.43599999 -0.255 150 16 0
3 0.42899999 -0.25 150 16 0
3.003 0.42199999 -0.245 150 16 0
3.006 0.414 -0.23999999 150 16 0
3.0150001 0.40700001 -0.235 150 16 0
3.023 0.40000001 -0.23100001 150 16 0
3.0280001 0.39199999 -0.226 150 16 0
3.033 0.384 -0.221 150 16 0
3.04 0.37599999 -0.21600001 150 16 0
3.0439999 0.368 -0.211 150 16 0
3.0539999 0.361 -0.206 150 16 0
3.0580001 0.35299999 -0.20100001 150 16 0
3.0639999 0.345 -0.19599999 150 16 0
3.0699999 0.33700001 -0.191 150 16 0
3.076 0.33000001 -0.18700001 150 16 0
3.0799999 0.32100001 -0.182 150 16 0
3.0929999 0.31400001 -0.177 150 16 0
3.0999999 0.30599999 -0.17200001 150 16 0
3.1040001 0.29800001 -0.167 150 16 0
3.1159999 0.28999999 -0.163 150 16 0
3.122 0.28200001 -0.15800001 135 16 0
3.1259999 0.27399999 -0.153 140 16 0
3.131 0.26499999 -0.148 126 16 0
3.1429999 0.25799999 -0.14300001 148 16 0
3.142 0.249 -0.138 121 16 0
3.154 0.241 -0.133 134 16 0
3.164 0.233 -0.12800001 129 16 0
3.1659999 0.22400001 -0.123 117 16 0
3.1730001 0.21600001 -0.118 112 16 0
