# .PCD v0.7 - Point Cloud Data file format
VERSION 0.7
FIELDS x y z intensity tag line
SIZE 4 4 4 4 1 1
TYPE F F F F U U
COUNT 1 1 1 1 1 1
WIDTH 1353
HEIGHT 1
VIEWPOINT 0 0 0 1 0 0 0
POINTS 1353
DATA ascii
2.49 0.167 -1.697 110 16 0
2.4890001 0.17 -1.692 121 16 0
2.4909999 0.17299999 -1.6900001 119 16 0
2.493 0.176 -1.687 126 16 0
2.4909999 0.17900001 -1.682 116 16 0
2.483 0.18099999 -1.6720001 126 19 0
2.483 0.184 -1.6670001 120 16 0
2.4860001 0.18700001 -1.665 136 16 0
2.4920001 0.19 -1.665 139 16 0
2.4890001 0.193 -1.658 137 16 0
2.4879999 0.19499999 -1.653 142 16 0
2.49 0.198 -1.649 135 16 0
2.49 0.20100001 -1.6440001 138 16 0
2.4920001 0.20299999 -1.64 123 16 0
2.494 0.206 -1.637 150 16 0
2.4960001 0.20900001 -1.633 150 16 0
2.4979999 0.211 -1.628 148 16 0
2.4979999 0.214 -1.623 150 16 0
2.5 0.21600001 -1.619 148 16 0
2.5 0.219 -1.613 149 16 0
2.5020001 0.221 -1.608 150 16 0
2.503 0.223 -1.603 150 16 0
2.5050001 0.226 -1.599 150 16 0
2.503 0.228 -1.591 150 16 0
2.5050001 0.23 -1.587 148 16 0
2.507 0.23199999 -1.581 150 16 0
2.5109999 0.235 -1.577 150 16 0
2.51 0.237 -1.571 150 16 0
2.5109999 0.23899999 -1.5650001 150 16 0
2.5109999 0.241 -1.558 150 16 0
2.5139999 0.243 -1.554 150 16 0
2.5120001 0.244 -1.545 150 16 0
2.5120001 0.24600001 -1.539 150 16 0
2.5150001 0.248 -1.534 150 16 0
2.5179999 0.25 -1.529 150 16 0
2.52 0.252 -1.523 150 16 0
2.5139999 0.25299999 -1.513 150 16 0
2.5239999 0.255 -1.512 150 16 0
2.527 0.257 -1.506 150 16 0
2.53 0.259 -1.501 150 16 0
2.53 0.25999999 -1.493 150 16 0
2.5339999 0.26199999 -1.488 150 16 0
2.533 0.26300001 -1.48 150 16 0
2.536 0.26499999 -1.475 150 16 0
2.54 0.26699999 -1.469 150 16 0
2.54 0.26800001 -1.462 150 16 0
2.54 0.26899999 -1.454 150 16 0
2.543 0.271 -1.448 150 16 0
2.546 0.27200001 -1.442 150 16 0
2.5480001 0.273 -1.436 150 16 0
2.5510001 0.27500001 -1.429 150 16 0
2.552 0.27500001 -1.4220001 150 16 0
2.553 0.27700001 -1.415 150 16 0
2.5569999 0.278 -1.409 150 16 0
2.559 0.27900001 -1.402 150 16 0
2.562 0.28 -1.396 150 16 0
2.566 0.28099999 -1.3890001 150 16 0
2.569 0.28200001 -1.383 150 16 0
2.5710001 0.28299999 -1.376 150 16 0
2.573 0.28400001 -1.369 150 16 0
2.576 0.285 -1.362 150 16 0
2.5780001 0.28600001 -1.355 150 16 0
2.5810001 0.28600001 -1.348 150 16 0
2.586 0.287 -1.3430001 150 16 0
2.585 0.28799999 -1.334 150 16 0
2.589 0.28799999 -1.327 150 16 0
2.595 0.289 -1.321 150 16 0
2.596 0.28999999 -1.313 150 16 0
2.596 0.28999999 -1.3049999 150 16 0
2.5999999 0.29100001 -1.298 150 16 0
2.6059999 0.29100001 -1.293 150 16 0
2.608 0.292 -1.285 150 16 0
2.6129999 0.292 -1.279 150 16 0
2.6099999 0.292 -1.2690001 150 16 0
2.6199999 0.29300001 -1.265 150 16 0
2.6170001 0.29300001 -1.255 150 16 0
2.625 0.294 -1.25 150 16 0
2.6259999 0.294 -1.2410001 150 16 0
2.6289999 0.294 -1.234 150 16 0
2.6329999 0.294 -1.227 150 16 0
2.6340001 0.294 -1.219 150 16 0
2.6389999 0.294 -1.212 150 16 0
2.6429999 0.294 -1.205 150 16 0
2.652 0.29499999 -1.2 150 16 0
2.6489999 0.294 -1.1900001 150 16 0
2.651 0.294 -1.182 150 16 0
2.654 0.294 -1.174 150 16 0
2.658 0.294 -1.1670001 150 16 0
2.661 0.29300001 -1.159 150 16 0
2.6659999 0.29300001 -1.152 150 16 0
2.6689999 0.29300001 -1.145 150 16 0
2.675 0.29300001 -1.138 150 16 0
2.678 0.29300001 -1.13 150 16 0
2.6789999 0.292 -1.122 150 16 0
2.6830001 0.292 -1.114 150 16 0
2.688 0.292 -1.107 150 16 0
2.691 0.29100001 -1.099 150 16 0
2.6960001 0.29100001 -1.092 150 16 0
2.707 0.29100001 -1.087 150 16 0
2.7049999 0.28999999 -1.0779999 150 16 0
2.7179999 0.28999999 -1.073 150 16 0
0 0 0 0 16 0
0 0 0 0 16 0
0 0 0 0 16 0
3.099 0.32600001 -1.182 0 17 0
3.0880001 0.324 -1.1670001 0 16 0
0 0 0 0 16 0
0 0 0 0 16 0
0 0 0 0 16 0
0 0 0 0 16 0
3.0599999 0.31400001 -1.105 0 16 0
2.776 0.28400001 -0.99299997 17 17 0
2.763 0.28099999 -0.97899997 40 16 0
2.756 0.27900001 -0.96700001 150 16 0
2.7590001 0.278 -0.95899999 150 16 0
2.7690001 0.27700001 -0.95300001 150 16 0
2.77 0.27599999 -0.94400001 150 16 0
2.773 0.27500001 -0.93599999 150 16 0
2.776 0.273 -0.92799997 150 16 0
2.7839999 0.273 -0.921 150 16 0
2.7850001 0.271 -0.912 150 16 0
2.793 0.27000001 -0.90499997 150 16 0
2.799 0.26899999 -0.898 150 16 0
2.799 0.26800001 -0.889 150 16 0
2.806 0.26699999 -0.88099998 150 16 0
2.809 0.26499999 -0.87300003 150 16 0
2.812 0.264 -0.86400002 150 16 0
2.816 0.26199999 -0.85699999 150 16 0
2.819 0.26100001 -0.84799999 150 16 0
2.822 0.259 -0.83899999 150 16 0
2.829 0.25799999 -0.83200002 150 16 0
2.8340001 0.25600001 -0.824 150 16 0
2.8369999 0.255 -0.81599998 150 16 0
2.8399999 0.25299999 -0.80699998 150 16 0
2.8429999 0.25099999 -0.79900002 150 16 0
2.8570001 0.25099999 -0.79299998 150 16 0
2.848 0.248 -0.78100002 150 16 0
2.865 0.24699999 -0.77600002 150 16 0
2.8670001 0.245 -0.76800001 150 16 0
2.8729999 0.244 -0.75999999 150 16 0
2.875 0.242 -0.75099999 150 16 0
2.8859999 0.241 -0.74400002 150 16 0
2.8889999 0.23899999 -0.736 150 16 0
2.8929999 0.237 -0.727 150 16 0
2.9000001 0.235 -0.71899998 150 16 0
2.904 0.233 -0.71100003 150 16 0
2.908 0.23100001 -0.70200002 150 16 0
2.911 0.229 -0.69400001 150 16 0
2.9130001 0.227 -0.685 150 16 0
2.9219999 0.22499999 -0.67799997 150 16 0
2.9289999 0.223 -0.66900003 150 16 0
2.931 0.221 -0.66000003 150 16 0
2.9360001 0.219 -0.65200001 150 16 0
2.9419999 0.21699999 -0.64399999 150 16 0
2.9460001 0.215 -0.63499999 150 16 0
2.951 0.213 -0.62699997 150 16 0
2.9590001 0.211 -0.61900002 150 16 0
2.9619999 0.208 -0.61000001 150 16 0
2.9679999 0.206 -0.602 150 16 0
2.97 0.204 -0.59299999 150 16 0
2.9719999 0.20100001 -0.58399999 150 16 0
2.98 0.199 -0.57599998 150 16 0
2.984 0.197 -0.56699997 150 16 0
2.9909999 0.19499999 -0.55900002 150 16 0
2.997 0.192 -0.551 150 16 0
3.0009999 0.19 -0.542 150 16 0
3.0050001 0.18700001 -0.53299999 150 16 0
3.0109999 0.185 -0.52499998 150 16 0
3.016 0.182 -0.51599997 150 16 0
3.0209999 0.18000001 -0.50700003 150 16 0
3.029 0.177 -0.49900001 150 16 0
3.0309999 0.175 -0.49000001 150 16 0
3.0369999 0.17200001 -0.48100001 150 16 0
3.043 0.169 -0.472 150 16 0
3.0469999 0.167 -0.463 150 16 0
3.052 0.164 -0.45500001 150 16 0
3.0569999 0.161 -0.44600001 150 16 0
3.059 0.15800001 -0.43599999 150 16 0
3.063 0.156 -0.42699999 150 16 0
3.075 0.153 -0.41999999 150 16 0
3.0769999 0.15000001 -0.41 150 16 0
3.0880001 0.148 -0.40200001 150 16 0
3.0869999 0.14399999 -0.39199999 150 16 0
3.095 0.142 -0.384 150 16 0
3.105 0.139 -0.375 150 16 0
3.112 0.13600001 -0.366 150 16 0
3.1159999 0.133 -0.35699999 150 16 0
3.1199999 0.13 -0.34799999 150 16 0
3.128 0.127 -0.33899999 150 16 0
3.131 0.124 -0.33000001 150 16 0
3.132 0.12 -0.31999999 150 16 0
3.1440001 0.118 -0.31200001 150 16 0
3.152 0.115 -0.303 150 16 0
3.152 0.111 -0.29300001 150 16 0
3.1659999 0.108 -0.285 150 16 0
3.168 0.105 -0.27500001 150 16 0
3.1730001 0.102 -0.266 148 16 0
3.1789999 0.097999997 -0.257 120 16 0
3.181 0.094999999 -0.24699999 138 16 0
3.1889999 0.092 -0.23800001 134 16 0
3.1989999 0.088 -0.229 132 16 0
3.2060001 0.085000001 -0.22 117 16 0
3.2130001 0.082000002 -0.20999999 130 16 0
3.217 0.078000002 -0.20100001 133 16 0
3.224 0.075000003 -0.192 116 16 0
3.2309999 0.071000002 -0.182 124 16 0
3.237 0.068000004 -0.17299999 134 16 0
3.2449999 0.064000003 -0.163 88 16 0
3.2490001 0.059999999 -0.154 55 16 0
3.2490001 0.057 -0.14399999 47 16 0
3.2590001 0.052999999 -0.134 56 16 0
3.2590001 0.048999999 -0.124 84 16 0
3.2639999 0.045000002 -0.115 116 16 0
3.27 0.041999999 -0.105 111 16 0
3.2809999 0.037999999 -0.094999999 133 16 0
3.29 0.034000002 -0.086000003 98 16 0
3.2980001 0.029999999 -0.075999998 70 16 0
3.3039999 0.026000001 -0.066 39 16 0
3.3010001 0.022 -0.056000002 26 16 0
3.2950001 0.018999999 -0.046 21 16 0
3.2920001 0.014 -0.035999998 20 16 0
3.2920001 0.0099999998 -0.026000001 20 16 0
3.2820001 0.0060000001 -0.016000001 19 16 0
3.279 0.0020000001 -0.0070000002 19 16 0
3.2720001 -0.001 0.0020000001 19 16 0
3.2639999 -0.0049999999 0.012 19 16 0
3.2579999 -0.0089999996 0.022 25 16 0
3.2579999 -0.013 0.030999999 38 16 0
3.263 -0.017000001 0.041000001 106 16 0
3.27 -0.021 0.050999999 150 16 0
3.2750001 -0.025 0.061000001 150 16 0
3.2850001 -0.028999999 0.071000002 150 16 0
3.2909999 -0.034000002 0.081 150 16 0
3.2980001 -0.037999999 0.090999998 150 16 0
3.302 -0.041999999 0.101 150 16 0
3.3050001 -0.046 0.111 150 16 0
3.3199999 -0.050999999 0.121 150 16 0
3.3269999 -0.055 0.131 150 16 0
3.329 -0.059999999 0.141 150 16 0
3.3380001 -0.064000003 0.15099999 122 16 0
3.3329999 -0.068999998 0.161 41 16 0
3.3269999 -0.072999999 0.171 30 16 0
3.326 -0.077 0.18000001 31 16 0
3.319 -0.081 0.19 30 16 0
3.3099999 -0.086000003 0.199 31 16 0
3.309 -0.090000004 0.20900001 30 16 0
3.299 -0.093999997 0.21799999 30 16 0
3.2939999 -0.098999999 0.227 30 16 0
3.293 -0.103 0.237 32 16 0
3.2809999 -0.107 0.24600001 30 16 0
3.277 -0.111 0.255 30 16 0
3.2720001 -0.116 0.26499999 31 16 0
3.2620001 -0.12 0.273 30 16 0
3.257 -0.124 0.28200001 30 16 0
3.25 -0.12899999 0.29100001 29 16 0
3.2449999 -0.133 0.30000001 30 16 0
3.2420001 -0.13699999 0.31 30 16 0
3.2360001 -0.142 0.31900001 32 16 0
3.2249999 -0.146 0.32699999 30 16 0
3.2219999 -0.15000001 0.336 30 16 0
3.2149999 -0.154 0.345 31 16 0
3.2079999 -0.15899999 0.354 31 16 0
3.2019999 -0.163 0.36199999 31 16 0
3.197 -0.167 0.37099999 31 16 0
3.1849999 -0.171 0.37900001 29 16 0
3.1819999 -0.176 0.38800001 27 16 0
3.1789999 -0.18000001 0.39700001 28 16 0
3.171 -0.185 0.405 29 16 0
3.164 -0.189 0.41299999 32 16 0
3.1589999 -0.193 0.42199999 31 16 0
3.1470001 -0.197 0.43000001 32 16 0
3.142 -0.20100001 0.43799999 35 16 0
3.1340001 -0.206 0.44600001 38 16 0
3.1240001 -0.20999999 0.454 43 16 0
3.1140001 -0.214 0.46200001 50 16 0
3.1059999 -0.21799999 0.46900001 56 16 0
3.079 -0.221 0.47400001 44 16 0
3.0710001 -0.22499999 0.48199999 40 16 0
3.056 -0.229 0.48899999 39 16 0
3.04 -0.23199999 0.495 37 16 0
3.0239999 -0.236 0.50099999 39 16 0
3.016 -0.23999999 0.509 39 16 0
2.997 -0.243 0.514 38 16 0
2.9860001 -0.24699999 0.52100003 38 16 0
2.9649999 -0.25 0.52600002 37 16 0
2.9530001 -0.25299999 0.53200001 37 16 0
2.9330001 -0.25600001 0.537 38 16 0
2.925 -0.25999999 0.54400003 50 16 0
2.9170001 -0.264 0.551 43 16 0
2.908 -0.26800001 0.55800003 45 16 0
2.8900001 -0.271 0.56300002 43 16 0
2.875 -0.27500001 0.56800002 44 16 0
2.865 -0.27900001 0.574 43 16 0
2.858 -0.28299999 0.58099997 42 16 0
2.835 -0.285 0.58499998 46 16 0
2.832 -0.289 0.59200001 44 16 0
2.8199999 -0.29300001 0.59799999 42 16 0
2.8069999 -0.296 0.60299999 43 16 0
2.7939999 -0.30000001 0.60799998 45 16 0
2.783 -0.303 0.61400002 57 16 0
2.77 -0.30599999 0.61900002 54 16 0
2.7550001 -0.30899999 0.62400001 56 16 0
2.7479999 -0.31299999 0.63 56 16 0
2.7390001 -0.317 0.63599998 63 16 0
2.727 -0.31999999 0.64099997 60 16 0
2.707 -0.32300001 0.64399999 65 16 0
2.7019999 -0.32699999 0.64999998 67 16 0
2.6930001 -0.331 0.65600002 69 16 0
2.6730001 -0.333 0.65899998 71 16 0
2.665 -0.33700001 0.66399997 67 16 0
2.6589999 -0.34099999 0.67000002 78 16 0
2.651 -0.34400001 0.676 78 16 0
2.642 -0.34799999 0.68099999 82 16 0
2.628 -0.35100001 0.685 78 16 0
2.622 -0.35499999 0.69099998 79 16 0
2.6110001 -0.35800001 0.69499999 65 16 0
2.6010001 -0.36199999 0.69999999 80 16 0
2.5929999 -0.36500001 0.70499998 84 16 0
2.5769999 -0.368 0.708 82 16 0
2.566 -0.37099999 0.71200001 82 16 0
2.5580001 -0.375 0.71700001 93 16 0
2.5480001 -0.37799999 0.722 86 16 0
2.5409999 -0.382 0.727 88 16 0
2.529 -0.38499999 0.73000002 89 16 0
2.5190001 -0.38800001 0.73500001 87 16 0
2.51 -0.39199999 0.73900002 88 16 0
2.5 -0.39500001 0.74299997 89 16 0
2.484 -0.39700001 0.745 79 16 0
2.483 -0.40200001 0.75199997 87 16 0
2.4719999 -0.405 0.755 95 16 0
2.4660001 -0.40900001 0.75999999 101 16 0
2.454 -0.41100001 0.76300001 90 16 0
2.448 -0.41499999 0.76899999 105 16 0
2.4389999 -0.419 0.77200001 97 16 0
2.427 -0.421 0.77499998 95 16 0
2.4219999 -0.42500001 0.77999997 109 16 0
2.4070001 -0.428 0.78200001 103 16 0
2.398 -0.43099999 0.78600001 113 16 0
2.392 -0.435 0.79000002 106 16 0
2.3889999 -0.43900001 0.796 116 16 0
2.3789999 -0.442 0.79900002 150 16 0
2.368 -0.44499999 0.80199999 150 16 0
2.3599999 -0.44800001 0.80500001 150 16 0
2.352 -0.45199999 0.80900002 150 16 0
2.339 -0.454 0.81099999 150 16 0
2.3369999 -0.45899999 0.81599998 150 16 0
2.3299999 -0.46200001 0.81999999 150 16 0
2.322 -0.465 0.824 150 16 0
2.313 -0.46799999 0.82700002 150 16 0
2.3099999 -0.47299999 0.83200002 150 16 0
2.303 -0.47600001 0.83499998 150 16 0
2.2950001 -0.47999999 0.83899999 150 16 0
2.289 -0.48300001 0.84200001 150 16 0
2.2750001 -0.48500001 0.84299999 150 16 0
2.27 -0.48899999 0.847 150 16 0
2.2620001 -0.49200001 0.85000002 150 16 0
2.2550001 -0.49599999 0.85299999 150 16 0
2.2460001 -0.49900001 0.85600001 150 16 0
2.2409999 -0.50300002 0.86000001 150 16 0
2.2290001 -0.505 0.861 150 16 0
2.224 -0.509 0.86400002 150 16 0
2.22 -0.51300001 0.86900002 150 16 0
2.2130001 -0.51599997 0.87099999 150 16 0
2.2079999 -0.51999998 0.875 150 16 0
2.2 -0.523 0.87699997 150 16 0
2.1919999 -0.52600002 0.88 150 16 0
2.181 -0.52899998 0.88099998 150 16 0
2.178 -0.53299999 0.88499999 150 16 0
2.1700001 -0.53600001 0.88700002 150 16 0
2.1619999 -0.53899997 0.889 150 16 0
2.158 -0.54299998 0.89300001 150 16 0
2.154 -0.54699999 0.89600003 150 16 0
2.1470001 -0.55000001 0.898 150 16 0
2.138 -0.55199999 0.89999998 150 16 0
2.1340001 -0.55599999 0.903 150 16 0
2.1289999 -0.56 0.90600002 150 16 0
2.1229999 -0.56400001 0.90899998 150 16 0
2.119 -0.56699997 0.912 150 16 0
2.1129999 -0.57099998 0.91399997 150 16 0
2.105 -0.574 0.91600001 150 16 0
2.0969999 -0.57599998 0.917 150 16 0
2.0929999 -0.57999998 0.92000002 150 16 0
2.086 -0.583 0.92199999 150 16 0
2.0829999 -0.58700001 0.92500001 150 16 0
2.076 -0.58999997 0.926 150 16 0
2.0699999 -0.59399998 0.92799997 150 16 0
2.066 -0.597 0.93099999 150 16 0
2.062 -0.60100001 0.93400002 150 16 0
2.0580001 -0.60500002 0.93599999 150 16 0
2.053 -0.60900003 0.93800002 150 16 0
2.0480001 -0.61199999 0.94 150 16 0
2.043 -0.61500001 0.94199997 150 16 0
2.0380001 -0.61900002 0.94400001 150 16 0
2.0339999 -0.62300003 0.94599998 150 16 0
2.03 -0.62599999 0.94800001 150 16 0
2.027 -0.63 0.95099998 150 16 0
2.0150001 -0.63099998 0.94999999 150 16 0
2.0150001 -0.63599998 0.954 150 16 0
2.013 -0.64099997 0.95700002 150 16 0
2.006 -0.64399999 0.95700002 150 16 0
2.007 -0.64899999 0.96100003 150 16 0
1.998 -0.64999998 0.96100003 150 16 0
1.997 -0.65499997 0.96399999 150 16 0
1.992 -0.65799999 0.96499997 150 16 0
1.989 -0.662 0.96700001 150 16 0
1.984 -0.66500002 0.96799999 150 16 0
1.9809999 -0.66900003 0.97000003 150 16 0
1.976 -0.67199999 0.97100002 150 16 0
1.97 -0.67500001 0.97100002 150 16 0
1.971 -0.68000001 0.97500002 150 16 0
1.966 -0.68300003 0.97600001 150 16 0
1.9630001 -0.68699998 0.977 150 16 0
1.961 -0.69099998 0.97899997 150 16 0
1.956 -0.69400001 0.98000002 150 16 0
1.9529999 -0.69700003 0.98100001 150 16 0
1.951 -0.70099998 0.98299998 150 16 0
1.947 -0.70499998 0.98400003 150 16 0
1.9450001 -0.708 0.98500001 150 16 0
1.942 -0.71200001 0.98699999 150 16 0
1.9400001 -0.71600002 0.98799998 150 16 0
1.938 -0.72000003 0.99000001 150 16 0
1.937 -0.72399998 0.99199998 150 16 0
1.941 -0.73000002 0.99599999 125 16 0
1.9349999 -0.73199999 0.99599999 104 16 0
1.937 -0.73699999 0.99800003 118 16 0
1.9299999 -0.73900002 0.99699998 136 16 0
1.925 -0.74199998 0.99699998 150 16 0
1.92 -0.74400002 0.99599999 150 16 0
1.9170001 -0.74699998 0.99699998 150 16 0
1.914 -0.75099999 0.99699998 150 16 0
1.9119999 -0.75400001 0.99699998 150 16 0
1.91 -0.75700003 0.99800003 150 16 0
1.911 -0.76200002 1.001 150 16 0
1.91 -0.76599997 1.001 150 16 0
1.908 -0.76899999 1.002 150 16 0
1.904 -0.77200001 1.001 150 16 0
1.902 -0.77499998 1.002 150 16 0
1.902 -0.77899998 1.003 150 16 0
1.899 -0.78200001 1.002 150 16 0
1.901 -0.787 1.005 150 16 0
1.902 -0.79100001 1.007 150 16 0
1.9 -0.79400003 1.006 150 16 0
1.9 -0.79799998 1.007 150 16 0
1.898 -0.801 1.007 150 16 0
1.897 -0.80400002 1.007 150 16 0
1.895 -0.80800003 1.007 150 16 0
1.8940001 -0.81099999 1.007 150 16 0
1.895 -0.815 1.007 150 16 0
1.896 -0.81900001 1.0089999 150 16 0
1.895 -0.82200003 1.008 150 16 0
1.891 -0.824 1.007 150 16 0
1.895 -0.829 1.0089999 150 16 0
1.896 -0.833 1.01 150 16 0
1.896 -0.83600003 1.01 150 16 0
1.898 -0.83999997 1.01 150 16 0
1.898 -0.84399998 1.011 150 16 0
1.897 -0.84600002 1.0089999 150 16 0
1.898 -0.85000002 1.01 150 16 0
1.898 -0.85299999 1.0089999 150 16 0
1.8940001 -0.85399997 1.007 150 16 0
1.89 -0.85600001 1.0039999 150 16 0
1.888 -0.85699999 1.002 137 16 0
1.881 -0.85699999 0.99800003 121 16 0
1.88 -0.86000001 0.99699998 131 16 0
1.878 -0.861 0.995 119 16 0
1.868 -0.85900003 0.98799998 120 18 0
1.8710001 -0.86299998 0.98900002 130 16 0
1.863 -0.86199999 0.98400003 129 16 0
1.86 -0.86299998 0.98100001 129 16 0
1.858 -0.86500001 0.97899997 125 16 0
1.853 -0.86400002 0.97500002 138 16 0
1.85 -0.86500001 0.972 137 16 0
1.848 -0.866 0.96899998 138 16 0
1.848 -0.86900002 0.96700001 139 16 0
1.8430001 -0.86799997 0.963 149 16 0
1.84 -0.86900002 0.95999998 147 16 0
1.84 -0.87099999 0.958 140 16 0
1.834 -0.87 0.95300001 143 16 0
1.826 -0.86799997 0.94700003 150 16 0
1.826 -0.86900002 0.94499999 150 16 0
1.824 -0.87 0.94099998 138 16 0
1.8200001 -0.87 0.93699998 148 16 0
1.816 -0.86900002 0.93300003 150 16 0
1.821 -0.87300003 0.93300003 143 16 0
1.817 -0.87199998 0.92900002 149 16 0
1.814 -0.87199998 0.92500001 150 16 0
1.812 -0.87199998 0.921 145 16 0
1.8099999 -0.87199998 0.91799998 141 16 0
1.812 -0.87400001 0.91600001 150 16 0
1.811 -0.87400001 0.91299999 150 16 0
1.8049999 -0.87199998 0.90700001 150 16 0
1.804 -0.87300003 0.90399998 150 16 0
1.8 -0.87199998 0.89899999 150 16 0
1.801 -0.87300003 0.89700001 140 16 0
1.799 -0.87300003 0.89300001 146 16 0
1.8 -0.87300003 0.88999999 149 16 0
1.798 -0.87300003 0.88599998 150 16 0
1.794 -0.87099999 0.88099998 150 16 0
1.793 -0.87099999 0.87699997 150 16 0
1.794 -0.87199998 0.875 150 16 0
1.7920001 -0.87099999 0.87 150 16 0
1.793 -0.87099999 0.86699998 150 16 0
1.7920001 -0.87099999 0.86299998 150 16 0
1.788 -0.86900002 0.85799998 149 16 0
1.79 -0.87 0.85600001 150 16 0
1.79 -0.87 0.852 139 16 0
1.79 -0.86900002 0.84799999 150 16 0
1.791 -0.86900002 0.84500003 150 16 0
1.788 -0.86699998 0.83999997 150 16 0
1.791 -0.86799997 0.838 150 16 0
1.789 -0.86699998 0.833 150 16 0
1.796 -0.86900002 0.83200002 150 16 0
1.789 -0.86500001 0.82499999 150 16 0
1.788 -0.86400002 0.82099998 150 16 0
1.789 -0.86400002 0.81699997 150 16 0
1.788 -0.86199999 0.81300002 150 16 0
1.7920001 -0.86299998 0.81099999 150 16 0
1.7869999 -0.86000001 0.80400002 150 16 0
1.789 -0.86000001 0.801 150 16 0
1.791 -0.85900003 0.79799998 150 16 0
1.791 -0.85799998 0.79400003 150 16 0
1.793 -0.85799998 0.79000002 150 16 0
1.795 -0.85699999 0.787 150 16 0
1.7970001 -0.85699999 0.78399998 150 16 0
1.794 -0.85399997 0.778 150 16 0
1.796 -0.85299999 0.77499998 150 16 0
1.796 -0.852 0.76999998 150 16 0
1.798 -0.85100001 0.76700002 150 16 0
1.8 -0.85000002 0.76300001 150 16 0
1.802 -0.84899998 0.75999999 150 16 0
1.804 -0.84799999 0.75599998 150 16 0
1.796 -0.84299999 0.74800003 150 16 0
1.808 -0.84600002 0.74900001 150 16 0
1.809 -0.84399998 0.74400002 150 16 0
1.8099999 -0.84299999 0.74000001 150 16 0
1.816 -0.84399998 0.73799998 150 16 0
1.8099999 -0.838 0.73100001 150 16 0
1.819 -0.83999997 0.73000002 150 16 0
1.818 -0.838 0.72500002 150 16 0
1.816 -0.83399999 0.72000003 150 16 0
1.818 -0.833 0.71600002 150 16 0
1.8200001 -0.83099997 0.71200001 150 16 0
1.83 -0.833 0.71100003 150 16 0
1.83 -0.83099997 0.70599997 150 16 0
1.8279999 -0.82700002 0.70099998 150 16 0
1.826 -0.82300001 0.69499999 150 16 0
1.839 -0.82599998 0.69499999 150 16 0
1.839 -0.824 0.69099998 150 16 0
1.841 -0.82200003 0.68699998 143 16 0
1.844 -0.81999999 0.68300003 148 16 0
1.848 -0.81900001 0.68000001 142 16 0
1.848 -0.81599998 0.67500001 150 16 0
1.852 -0.815 0.67199999 146 16 0
1.852 -0.81099999 0.667 136 16 0
1.855 -0.81 0.66299999 123 16 0
1.857 -0.80699998 0.65899998 113 16 0
1.862 -0.80599999 0.65600002 125 16 0
1.864 -0.80400002 0.65200001 137 16 0
1.867 -0.801 0.64700001 137 16 0
1.869 -0.79900002 0.64300001 128 16 0
1.875 -0.79799998 0.64099997 142 16 0
1.878 -0.796 0.63599998 136 16 0
1.881 -0.79299998 0.63300002 107 16 0
1.882 -0.79000002 0.62800002 110 16 0
1.888 -0.78899997 0.625 107 16 0
1.891 -0.787 0.62099999 105 16 0
1.893 -0.78399998 0.61699998 109 16 0
1.9 -0.78299999 0.61400002 109 16 0
1.898 -0.77899998 0.60900003 111 16 0
1.905 -0.778 0.60600001 109 16 0
1.908 -0.77499998 0.602 114 16 0
1.916 -0.77399999 0.59899998 107 16 0
1.918 -0.77100003 0.59500003 97 16 0
1.919 -0.76700002 0.59100002 101 16 0
1.928 -0.76700002 0.58899999 96 16 0
1.9349999 -0.76499999 0.58499998 101 16 0
1.934 -0.76099998 0.57999998 95 16 0
1.937 -0.75800002 0.57599998 103 16 0
1.946 -0.75700003 0.574 99 16 0
1.948 -0.75400001 0.56999999 102 16 0
1.955 -0.75300002 0.56699997 97 16 0
1.9579999 -0.74900001 0.56300002 100 16 0
1.961 -0.74599999 0.55900002 97 16 0
1.966 -0.74400002 0.55500001 94 16 0
1.971 -0.741 0.551 95 16 0
1.977 -0.73900002 0.54799998 107 16 0
1.9809999 -0.736 0.54400003 103 16 0
1.984 -0.73199999 0.54000002 101 16 0
1.9910001 -0.73100001 0.537 93 16 0
1.999 -0.72899997 0.53399998 99 16 0
2 -0.72500002 0.52999997 92 16 0
2.003 -0.72100002 0.52499998 94 16 0
2.01 -0.71899998 0.52200001 95 16 0
2.016 -0.71600002 0.51899999 97 16 0
2.0179999 -0.71200001 0.514 86 16 0
2.0239999 -0.70999998 0.51099998 91 16 0
2.03 -0.70700002 0.50800002 86 16 0
2.0339999 -0.70300001 0.50400001 93 16 0
2.04 -0.69999999 0.5 87 16 0
2.043 -0.69700003 0.49599999 92 16 0
2.0510001 -0.69400001 0.493 86 16 0
2.0610001 -0.69300002 0.491 95 16 0
2.0639999 -0.68900001 0.486 93 16 0
2.0669999 -0.685 0.48199999 91 16 0
2.073 -0.68199998 0.479 95 16 0
2.0769999 -0.67699999 0.47499999 90 16 0
2.085 -0.67500001 0.472 84 16 0
2.0999999 -0.67500001 0.47 64 16 0
2.102 -0.67000002 0.46599999 68 16 0
2.1110001 -0.66799998 0.463 66 16 0
2.1140001 -0.66299999 0.458 63 16 0
2.122 -0.66100001 0.45500001 58 16 0
2.132 -0.65799999 0.45199999 62 16 0
2.135 -0.65399998 0.44800001 59 16 0
2.141 -0.64999998 0.44499999 57 16 0
2.1489999 -0.64700001 0.44100001 54 16 0
2.151 -0.64200002 0.43700001 53 16 0
2.165 -0.64099997 0.435 55 16 0
2.1659999 -0.63599998 0.43000001 52 16 0
2.1760001 -0.63300002 0.42699999 48 16 0
2.1830001 -0.63 0.42399999 53 16 0
2.188 -0.62599999 0.41999999 54 16 0
2.194 -0.62199998 0.41600001 53 16 0
2.1989999 -0.61699998 0.412 49 16 0
2.2079999 -0.61400002 0.40900001 50 16 0
2.2119999 -0.61000001 0.405 51 16 0
2.224 -0.60699999 0.40200001 32 16 0
2.2309999 -0.60299999 0.39899999 34 16 0
2.237 -0.59899998 0.39500001 34 16 0
2.2420001 -0.59399998 0.391 27 16 0
2.2539999 -0.59200001 0.38800001 28 16 0
2.2620001 -0.588 0.38499999 29 16 0
2.2690001 -0.58399999 0.38100001 28 16 0
2.2739999 -0.579 0.377 27 16 0
2.2809999 -0.57499999 0.373 27 16 0
2.2939999 -0.57200003 0.37099999 29 16 0
2.2980001 -0.56699997 0.36700001 28 16 0
2.3039999 -0.56199998 0.36300001 27 16 0
2.319 -0.56 0.36000001 28 16 0
2.326 -0.55500001 0.35600001 28 16 0
2.3340001 -0.551 0.35299999 27 16 0
2.342 -0.54699999 0.34900001 27 16 0
2.345 -0.54100001 0.345 26 16 0
2.3670001 -0.54000002 0.34299999 30 16 0
2.369 -0.53399998 0.33899999 30 16 0
2.375 -0.52899998 0.33500001 30 16 0
2.385 -0.52499998 0.331 28 16 0
2.395 -0.52100003 0.32800001 29 16 0
2.398 -0.51499999 0.324 27 16 0
2.4100001 -0.51099998 0.31999999 30 16 0
2.425 -0.50800002 0.31799999 30 16 0
2.4319999 -0.50300002 0.31400001 29 16 0
2.4349999 -0.49700001 0.30899999 29 16 0
2.4489999 -0.493 0.30599999 27 16 0
2.4549999 -0.48800001 0.30199999 25 16 0
2.4619999 -0.48199999 0.29800001 27 16 0
2.4719999 -0.47799999 0.29499999 27 16 0
2.4860001 -0.47299999 0.29100001 25 16 0
2.494 -0.46799999 0.28799999 26 16 0
2.4990001 -0.46200001 0.28299999 26 16 0
2.513 -0.458 0.28 27 16 0
2.5209999 -0.45300001 0.27599999 27 16 0
2.5350001 -0.44800001 0.273 26 16 0
2.5420001 -0.44299999 0.26899999 26 16 0
2.559 -0.43900001 0.266 26 16 0
2.5650001 -0.433 0.26199999 26 16 0
2.573 -0.42699999 0.25799999 26 16 0
2.586 -0.42199999 0.25400001 27 16 0
2.5940001 -0.41600001 0.25 26 16 0
2.5999999 -0.41 0.24600001 25 16 0
2.6159999 -0.40599999 0.243 25 16 0
2.622 -0.39899999 0.23800001 28 16 0
2.635 -0.39399999 0.235 25 16 0
2.6489999 -0.389 0.23100001 25 16 0
2.661 -0.38299999 0.227 26 16 0
2.6730001 -0.37799999 0.223 25 16 0
2.684 -0.37200001 0.22 25 16 0
2.701 -0.36700001 0.21600001 26 16 0
2.7090001 -0.36000001 0.212 26 16 0
2.7160001 -0.354 0.208 25 16 0
2.724 -0.347 0.20299999 25 16 0
2.74 -0.34200001 0.2 26 16 0
2.7509999 -0.336 0.19599999 26 16 0
2.7609999 -0.329 0.192 26 16 0
2.7709999 -0.32300001 0.18700001 26 16 0
2.783 -0.317 0.183 25 16 0
2.7980001 -0.31 0.17900001 25 16 0
2.8050001 -0.30399999 0.175 25 16 0
2.8269999 -0.29800001 0.171 25 16 0
2.839 -0.29100001 0.167 25 16 0
2.846 -0.28400001 0.163 25 16 0
2.8599999 -0.278 0.15899999 24 16 0
2.8789999 -0.27200001 0.155 25 16 0
2.885 -0.264 0.15000001 26 16 0
2.9000001 -0.257 0.146 25 16 0
2.914 -0.25 0.142 26 16 0
2.927 -0.243 0.138 25 16 0
2.944 -0.237 0.134 23 16 0
2.96 -0.23 0.12899999 23 16 0
2.971 -0.222 0.125 23 16 0
2.99 -0.215 0.121 23 16 0
3.0009999 -0.208 0.116 23 16 0
3.01 -0.2 0.112 22 16 0
3.033 -0.193 0.107 23 16 0
3.0510001 -0.186 0.103 23 16 0
3.0650001 -0.178 0.098999999 23 16 0
3.0840001 -0.17 0.093999997 22 16 0
3.0999999 -0.162 0.090000004 22 16 0
3.1159999 -0.154 0.085000001 24 16 0
3.1300001 -0.146 0.079999998 23 16 0
3.1489999 -0.138 0.075999998 24 16 0
3.1659999 -0.13 0.071000002 24 16 0
3.1860001 -0.122 0.067000002 24 16 0
3.1989999 -0.113 0.061999999 23 16 0
3.211 -0.105 0.057 24 16 0
3.2360001 -0.096000001 0.052000001 24 16 0
3.25 -0.088 0.046999998 25 16 0
3.273 -0.079000004 0.043000001 26 16 0
3.286 -0.07 0.037999999 49 16 0
3.286 -0.061000001 0.032000002 130 16 0
3.276 -0.050999999 0.027000001 91 16 0
3.2690001 -0.041999999 0.022 83 16 0
3.2609999 -0.032000002 0.017000001 83 16 0
3.253 -0.023 0.012 53 16 0
3.247 -0.014 0.0070000002 21 16 0
3.2739999 -0.0040000002 0.0020000001 16 16 0
3.286 0.0040000002 -0.0020000001 16 16 0
3.309 0.014 -0.0070000002 17 16 0
3.325 0.023 -0.012 30 16 0
3.316 0.032000002 -0.017000001 45 16 0
3.309 0.041999999 -0.022 48 16 0
3.306 0.050999999 -0.027000001 38 16 0
3.3039999 0.061000001 -0.032000002 39 16 0
3.2939999 0.07 -0.037 49 16 0
3.2880001 0.079999998 -0.041000001 49 16 0
3.28 0.089000002 -0.046 48 16 0
3.2690001 0.097999997 -0.050999999 49 16 0
3.266 0.107 -0.056000002 52 16 0
3.257 0.116 -0.059999999 48 16 0
3.2490001 0.125 -0.064999998 50 16 0
3.2490001 0.13500001 -0.07 52 16 0
3.2390001 0.14399999 -0.074000001 51 16 0
3.233 0.153 -0.079000004 51 16 0
3.2219999 0.162 -0.082999997 51 16 0
3.2119999 0.171 -0.086999997 75 16 0
3.211 0.18000001 -0.092 69 16 0
3.201 0.189 -0.096000001 68 16 0
3.1919999 0.198 -0.1 66 16 0
3.187 0.207 -0.105 63 16 0
3.1849999 0.21600001 -0.109 57 16 0
3.178 0.22499999 -0.114 64 16 0
3.1659999 0.233 -0.117 67 16 0
3.165 0.242 -0.122 75 16 0
3.1559999 0.25099999 -0.126 72 16 0
3.154 0.25999999 -0.13 59 16 0
3.1440001 0.26800001 -0.134 65 16 0
3.1370001 0.27700001 -0.138 61 16 0
3.132 0.28600001 -0.142 74 16 0
3.1229999 0.294 -0.146 81 16 0
3.112 0.30199999 -0.15000001 59 16 0
3.1099999 0.31099999 -0.154 64 16 0
3.1070001 0.31999999 -0.15800001 75 16 0
3.098 0.329 -0.162 86 16 0
3.0940001 0.33700001 -0.16599999 79 16 0
3.085 0.34599999 -0.169 78 16 0
3.079 0.354 -0.17299999 85 16 0
3.0739999 0.36300001 -0.177 81 16 0
3.066 0.37099999 -0.18000001 87 16 0
3.0569999 0.37900001 -0.184 76 16 0
3.053 0.38800001 -0.18799999 71 16 0
3.05 0.396 -0.192 78 16 0
3.04 0.40400001 -0.19499999 91 16 0
3.039 0.41299999 -0.199 74 16 0
3.029 0.421 -0.20200001 82 16 0
3.023 0.42899999 -0.206 79 16 0
3.0150001 0.43700001 -0.20900001 71 16 0
3.013 0.44600001 -0.213 89 16 0
3.0079999 0.45500001 -0.21600001 93 16 0
3.003 0.463 -0.22 79 16 0
2.9979999 0.47099999 -0.223 83 16 0
2.9879999 0.479 -0.226 81 16 0
2.9849999 0.48800001 -0.23 106 16 0
2.9749999 0.495 -0.23199999 90 16 0
2.9690001 0.50300002 -0.236 94 16 0
2.964 0.51099998 -0.23899999 83 16 0
2.9619999 0.51999998 -0.242 93 16 0
2.9549999 0.528 -0.245 81 16 0
2.95 0.53600001 -0.249 89 16 0
2.9430001 0.54400003 -0.252 109 16 0
2.9360001 0.55199999 -0.255 98 16 0
2.934 0.56 -0.25799999 140 16 0
2.9319999 0.56900001 -0.26100001 138 16 0
2.914 0.57499999 -0.26300001 132 16 0
2.911 0.583 -0.266 137 16 0
2.904 0.59100002 -0.26899999 150 16 0
2.8989999 0.59899998 -0.27200001 125 16 0
2.8940001 0.60699999 -0.27500001 131 16 0
2.8900001 0.61500001 -0.278 140 16 0
2.8840001 0.62300003 -0.28099999 140 16 0
2.881 0.63099998 -0.28400001 134 16 0
2.8740001 0.639 -0.28600001 146 16 0
2.869 0.64700001 -0.289 137 16 0
2.8670001 0.65499997 -0.292 140 16 0
2.862 0.66299999 -0.29499999 139 16 0
2.852 0.67000002 -0.29699999 144 16 0
2.848 0.67799997 -0.29899999 147 16 0
2.8399999 0.685 -0.30199999 150 16 0
2.8369999 0.69300002 -0.30500001 150 16 0
2.8280001 0.69999999 -0.30700001 148 16 0
2.8239999 0.708 -0.30899999 148 16 0
2.8210001 0.71600002 -0.31200001 147 16 0
2.8180001 0.72399998 -0.315 150 16 0
2.813 0.73199999 -0.317 150 16 0
2.8039999 0.73900002 -0.31900001 150 16 0
2.802 0.74699998 -0.32100001 150 16 0
2.796 0.75400001 -0.324 150 16 0
2.7909999 0.76200002 -0.32600001 150 16 0
2.7850001 0.76899999 -0.32800001 150 16 0
2.783 0.778 -0.331 150 16 0
2.7780001 0.78500003 -0.333 150 16 0
2.7650001 0.79100001 -0.33399999 150 16 0
2.7609999 0.79799998 -0.336 150 16 0
2.7579999 0.80599999 -0.33899999 150 16 0
2.7520001 0.81400001 -0.34099999 150 16 0
2.75 0.82200003 -0.34299999 150 16 0
2.7420001 0.829 -0.345 150 16 0
2.7390001 0.83700001 -0.347 150 16 0
2.7349999 0.84399998 -0.34900001 150 16 0
2.734 0.85299999 -0.35100001 150 16 0
2.724 0.85799998 -0.352 150 16 0
2.721 0.86699998 -0.354 150 16 0
2.7149999 0.87400001 -0.35600001 150 16 0
2.7119999 0.88200003 -0.35800001 150 16 0
2.707 0.889 -0.36000001 142 16 0
2.6989999 0.89499998 -0.361 150 16 0
2.6930001 0.90200001 -0.36300001 150 16 0
2.6900001 0.91000003 -0.36500001 150 16 0
2.687 0.91799998 -0.366 150 16 0
2.681 0.92400002 -0.368 150 16 0
2.6800001 0.93300003 -0.37 150 16 0
2.675 0.94 -0.37099999 150 16 0
2.6689999 0.94700003 -0.373 150 16 0
2.6689999 0.95599997 -0.375 138 16 0
2.6819999 0.96899998 -0.37900001 52 16 0
2.6630001 0.97100002 -0.37799999 150 16 0
2.651 0.97600001 -0.37799999 150 16 0
2.6440001 0.98199999 -0.37900001 150 16 0
2.6489999 0.99299997 -0.382 150 16 0
2.6389999 0.99800003 -0.382 150 16 0
2.635 1.005 -0.384 150 16 0
2.6329999 1.013 -0.38499999 150 16 0
2.628 1.02 -0.38600001 150 16 0
2.6199999 1.026 -0.38699999 150 16 0
2.6159999 1.033 -0.38800001 150 16 0
2.6129999 1.04 -0.389 150 16 0
2.6099999 1.048 -0.38999999 150 16 0
2.6070001 1.0549999 -0.39199999 150 16 0
2.5999999 1.061 -0.39199999 150 16 0
2.5969999 1.069 -0.39300001 150 16 0
2.5929999 1.076 -0.39399999 150 16 0
2.5899999 1.0829999 -0.39500001 150 16 0
2.582 1.089 -0.396 150 16 0
2.576 1.094 -0.396 150 16 0
2.5810001 1.105 -0.398 150 16 0
2.573 1.11 -0.398 150 16 0
2.5699999 1.118 -0.39899999 150 16 0
2.562 1.123 -0.39899999 150 16 0
2.559 1.13 -0.40000001 150 16 0
2.556 1.137 -0.40000001 150 16 0
2.552 1.1440001 -0.40099999 150 16 0
2.5469999 1.15 -0.40099999 150 16 0
2.543 1.1569999 -0.40200001 150 16 0
2.5420001 1.165 -0.403 150 16 0
2.5339999 1.17 -0.40200001 150 16 0
2.5339999 1.178 -0.403 150 16 0
2.5309999 1.1849999 -0.40400001 150 16 0
2.526 1.191 -0.40400001 150 16 0
2.5209999 1.197 -0.40400001 150 16 0
2.5179999 1.204 -0.40400001 150 16 0
2.5109999 1.209 -0.40400001 150 16 0
2.513 1.2180001 -0.405 150 16 0
2.51 1.225 -0.405 150 16 0
2.5009999 1.229 -0.40400001 150 16 0
2.4979999 1.2359999 -0.40400001 150 16 0
2.4949999 1.242 -0.40400001 150 16 0
2.494 1.25 -0.405 150 16 0
2.4879999 1.255 -0.40400001 150 16 0
2.4849999 1.262 -0.40400001 150 16 0
2.4820001 1.268 -0.40400001 150 16 0
2.4809999 1.275 -0.40400001 150 16 0
2.4760001 1.281 -0.403 150 16 0
2.4719999 1.2869999 -0.403 150 16 0
2.471 1.294 -0.403 150 16 0
2.47 1.302 -0.403 150 16 0
2.4630001 1.306 -0.40200001 150 16 0
2.46 1.312 -0.40200001 150 16 0
2.4560001 1.318 -0.40099999 150 16 0
2.4549999 1.325 -0.40099999 150 16 0
2.4519999 1.331 -0.40000001 150 16 0
2.4489999 1.337 -0.40000001 150 16 0
2.4460001 1.3430001 -0.39899999 150 16 0
2.4430001 1.348 -0.398 150 16 0
2.438 1.353 -0.39700001 150 16 0
2.438 1.3609999 -0.39700001 150 16 0
2.4349999 1.367 -0.396 150 16 0
2.4300001 1.3710001 -0.39500001 150 16 0
2.431 1.3789999 -0.39399999 150 16 0
2.427 1.3839999 -0.39300001 150 16 0
2.425 1.39 -0.39199999 150 16 0
2.4200001 1.3940001 -0.391 150 16 0
2.4170001 1.4 -0.38999999 150 16 0
2.4159999 1.406 -0.389 150 16 0
2.4130001 1.411 -0.38800001 150 16 0
2.4119999 1.4170001 -0.38699999 150 16 0
2.4100001 1.423 -0.38600001 150 16 0
2.4030001 1.426 -0.384 150 16 0
2.408 1.4349999 -0.38299999 150 16 0
2.402 1.439 -0.382 150 16 0
2.405 1.447 -0.38100001 150 16 0
2.402 1.452 -0.37900001 150 16 0
2.398 1.456 -0.37799999 150 16 0
2.395 1.46 -0.37599999 150 16 0
2.3940001 1.466 -0.375 150 16 0
2.3900001 1.47 -0.373 150 16 0
2.391 1.477 -0.37200001 150 16 0
2.3889999 1.4809999 -0.37 150 16 0
2.388 1.487 -0.368 150 16 0
2.382 1.489 -0.366 150 16 0
2.3829999 1.4960001 -0.36500001 150 16 0
2.385 1.503 -0.36300001 150 16 0
2.378 1.5039999 -0.361 150 16 0
2.3770001 1.5089999 -0.359 150 16 0
2.378 1.515 -0.35699999 150 16 0
2.372 1.517 -0.35499999 150 16 0
2.3699999 1.521 -0.35299999 150 16 0
2.3710001 1.526 -0.35100001 150 16 0
2.369 1.531 -0.34900001 150 16 0
2.3699999 1.536 -0.347 150 16 0
2.365 1.538 -0.34400001 150 16 0
2.362 1.541 -0.34200001 150 16 0
2.365 1.548 -0.34 150 16 0
2.365 1.552 -0.338 150 16 0
2.365 1.557 -0.336 150 16 0
2.362 1.5599999 -0.33399999 150 16 0
2.362 1.564 -0.331 150 16 0
2.359 1.566 -0.329 150 16 0
2.3599999 1.571 -0.32600001 150 16 0
2.355 1.572 -0.32300001 150 16 0
2.358 1.5779999 -0.32100001 150 16 0
2.358 1.582 -0.31900001 150 16 0
2.3570001 1.584 -0.31600001 150 16 0
2.355 1.587 -0.31400001 150 16 0
2.3529999 1.589 -0.31099999 150 16 0
2.3559999 1.594 -0.30899999 150 16 0
2.3510001 1.595 -0.30500001 150 16 0
2.3540001 1.6 -0.303 150 16 0
2.3570001 1.605 -0.301 150 16 0
2.3529999 1.605 -0.29800001 150 16 0
2.3559999 1.61 -0.29499999 150 16 0
2.3540001 1.6109999 -0.292 150 16 0
2.3540001 1.614 -0.289 150 16 0
2.3529999 1.6160001 -0.28600001 150 16 0
2.3529999 1.618 -0.28299999 150 16 0
2.352 1.62 -0.28 150 16 0
2.3510001 1.6210001 -0.27700001 150 16 0
2.358 1.628 -0.27500001 150 16 0
2.355 1.628 -0.27200001 150 16 0
2.3570001 1.631 -0.26899999 150 16 0
2.358 1.633 -0.266 150 16 0
2.3559999 1.633 -0.26199999 150 16 0
2.358 1.636 -0.259 150 16 0
2.358 1.637 -0.25600001 150 16 0
2.3570001 1.638 -0.25299999 150 16 0
2.358 1.6390001 -0.25 150 16 0
2.359 1.641 -0.24600001 150 16 0
2.358 1.641 -0.243 150 16 0
2.362 1.645 -0.23999999 150 16 0
2.359 1.643 -0.237 150 16 0
2.3640001 1.647 -0.234 150 16 0
2.362 1.646 -0.23 150 16 0
2.3640001 1.647 -0.227 150 16 0
2.3629999 1.646 -0.22400001 150 16 0
2.3670001 1.649 -0.221 150 16 0
2.368 1.65 -0.21699999 150 16 0
2.369 1.649 -0.214 150 16 0
2.3710001 1.65 -0.211 150 16 0
2.3710001 1.65 -0.207 150 16 0
2.372 1.65 -0.204 150 16 0
2.3729999 1.649 -0.20100001 150 16 0
2.3770001 1.651 -0.197 150 16 0
2.3740001 1.648 -0.19400001 150 16 0
2.381 1.651 -0.191 150 16 0
2.3759999 1.646 -0.18700001 150 16 0
2.382 1.649 -0.184 150 16 0
2.3859999 1.65 -0.18099999 150 16 0
2.3900001 1.651 -0.177 150 16 0
2.388 1.647 -0.17399999 150 16 0
2.391 1.647 -0.17 150 16 0
2.395 1.648 -0.167 150 16 0
2.392 1.643 -0.163 150 16 0
2.3989999 1.646 -0.16 150 16 0
2.405 1.647 -0.15700001 150 16 0
2.402 1.643 -0.153 150 16 0
2.4070001 1.643 -0.15000001 150 16 0
2.4089999 1.642 -0.147 150 16 0
2.4070001 1.637 -0.14300001 150 16 0
2.4130001 1.638 -0.14 150 16 0
2.4170001 1.637 -0.13699999 150 16 0
2.418 1.6339999 -0.133 150 16 0
2.4189999 1.632 -0.13 150 16 0
2.4219999 1.63 -0.127 150 16 0
2.424 1.627 -0.123 150 16 0
2.427 1.625 -0.12 150 16 0
2.427 1.622 -0.117 150 16 0
2.4300001 1.619 -0.113 150 16 0
2.4330001 1.617 -0.11 150 16 0
2.4349999 1.614 -0.107 150 16 0
2.4389999 1.612 -0.104 150 16 0
2.4389999 1.608 -0.1 150 16 0
2.4430001 1.6059999 -0.097000003 150 16 0
2.4449999 1.603 -0.093999997 150 16 0
2.448 1.599 -0.090000004 150 16 0
2.4530001 1.597 -0.086999997 150 16 0
2.4549999 1.594 -0.083999999 150 16 0
2.4579999 1.591 -0.081 150 16 0
2.4619999 1.5880001 -0.078000002 150 16 0
2.4660001 1.585 -0.075000003 150 16 0
2.4679999 1.581 -0.071999997 150 16 0
2.473 1.579 -0.068999998 150 16 0
2.474 1.573 -0.066 150 16 0
2.4809999 1.573 -0.063000001 150 16 0
2.4820001 1.567 -0.059 150 16 0
2.484 1.563 -0.057 150 16 0
2.487 1.558 -0.054000001 150 16 0
2.4949999 1.557 -0.050999999 150 16 0
2.4990001 1.553 -0.048 150 16 0
2.5009999 1.549 -0.045000002 150 16 0
2.5039999 1.544 -0.041999999 150 16 0
2.5020001 1.536 -0.039000001 150 16 0
2.51 1.535 -0.035999998 150 16 0
2.5179999 1.533 -0.033 150 16 0
2.5120001 1.522 -0.029999999 150 16 0
2.5220001 1.522 -0.028000001 150 16 0
2.527 1.518 -0.025 150 16 0
2.5250001 1.51 -0.022 150 16 0
2.533 1.508 -0.02 150 16 0
2.5369999 1.503 -0.017000001 150 16 0
2.54 1.497 -0.014 150 16 0
2.5469999 1.495 -0.012 150 16 0
2.546 1.487 -0.0089999996 150 16 0
2.549 1.4809999 -0.0060000001 150 16 0
2.5569999 1.478 -0.0040000002 150 16 0
2.556 1.47 -0.0020000001 150 16 0
2.5599999 1.465 0 150 16 0
2.566 1.461 0.0020000001 150 16 0
2.573 1.457 0.0049999999 150 16 0
2.575 1.451 0.0070000002 150 16 0
2.5780001 1.4450001 0.0099999998 150 16 0
2.585 1.441 0.012 150 16 0
2.586 1.434 0.014 150 16 0
2.592 1.429 0.016000001 150 16 0
2.5940001 1.4220001 0.018999999 150 16 0
2.5969999 1.416 0.021 150 16 0
2.6010001 1.41 0.023 150 16 0
2.605 1.404 0.025 148 16 0
2.6110001 1.399 0.027000001 150 16 0
2.6140001 1.392 0.028999999 150 16 0
2.618 1.386 0.030999999 150 16 0
2.619 1.378 0.033 150 16 0
2.6259999 1.373 0.035 150 16 0
2.631 1.368 0.037 150 16 0
2.6340001 1.3609999 0.039000001 148 16 0
2.638 1.354 0.041000001 150 16 0
2.641 1.347 0.043000001 150 16 0
2.6459999 1.342 0.045000002 150 16 0
2.651 1.335 0.046999998 148 16 0
2.6530001 1.3279999 0.048 150 16 0
2.6570001 1.321 0.050000001 150 16 0
2.6619999 1.3150001 0.052000001 150 16 0
2.665 1.307 0.054000001 150 16 0
2.668 1.3 0.055 150 16 0
2.6730001 1.294 0.057 150 16 0
2.677 1.286 0.057999998 150 16 0
2.6830001 1.281 0.059999999 150 16 0
2.6830001 1.272 0.061000001 150 16 0
2.697 1.2690001 0.063000001 138 16 0
2.7 1.262 0.064999998 150 16 0
2.704 1.2539999 0.066 150 16 0
2.7079999 1.247 0.067000002 150 16 0
2.711 1.24 0.068999998 150 16 0
2.717 1.233 0.07 150 16 0
2.721 1.226 0.071999997 150 16 0
2.7249999 1.219 0.072999999 150 16 0
2.7320001 1.2130001 0.074000001 150 16 0
2.737 1.205 0.075000003 150 16 0
2.7420001 1.198 0.077 150 16 0
2.7449999 1.191 0.078000002 150 16 0
2.7490001 1.183 0.079000004 150 16 0
2.7520001 1.175 0.079999998 150 16 0
2.7550001 1.1670001 0.081 150 16 0
2.7620001 1.161 0.082000002 150 16 0
2.766 1.153 0.082999997 150 16 0
2.7690001 1.145 0.083999999 150 16 0
2.777 1.138 0.085000001 150 16 0
2.7839999 1.132 0.086000003 150 16 0
2.783 1.122 0.086999997 150 16 0
2.7880001 1.115 0.088 150 16 0
2.7939999 1.107 0.089000002 150 16 0
2.7939999 1.098 0.089000002 150 16 0
2.802 1.092 0.090000004 150 16 0
2.8050001 1.0829999 0.090999998 145 16 0
2.812 1.076 0.092 150 16 0
2.8150001 1.068 0.092 150 16 0
2.8180001 1.0599999 0.093000002 150 16 0
2.822 1.051 0.093000002 147 16 0
2.829 1.044 0.093999997 148 16 0
2.832 1.036 0.094999999 143 16 0
2.835 1.027 0.094999999 149 16 0
2.839 1.0190001 0.096000001 150 16 0
2.842 1.01 0.096000001 135 16 0
2.848 1.003 0.097000003 142 16 0
2.8540001 0.995 0.097000003 150 16 0
2.855 0.986 0.097000003 150 16 0
2.872 0.98199999 0.097999997 46 16 0
2.882 0.97600001 0.098999999 32 16 0
2.8699999 0.96200001 0.097999997 139 16 0
2.8770001 0.954 0.098999999 150 16 0
2.8800001 0.94599998 0.098999999 150 16 0
2.882 0.93599999 0.098999999 150 16 0
2.892 0.93000001 0.098999999 148 16 0
2.895 0.921 0.1 150 16 0
2.9000001 0.91299999 0.1 150 16 0
2.9000001 0.903 0.1 146 16 0
2.9030001 0.89399999 0.1 150 16 0
2.9089999 0.88599998 0.1 150 16 0
2.9159999 0.87800002 0.1 150 16 0
2.9189999 0.86900002 0.1 150 16 0
2.925 0.861 0.1 150 16 0
2.927 0.852 0.1 150 16 0
2.931 0.84299999 0.1 150 16 0
2.9330001 0.83399999 0.1 150 16 0
2.941 0.82599998 0.1 150 16 0
2.947 0.81800002 0.098999999 150 16 0
2.95 0.80900002 0.098999999 150 16 0
2.957 0.801 0.098999999 150 16 0
2.9549999 0.79000002 0.098999999 150 16 0
2.964 0.78299999 0.098999999 150 16 0
2.9690001 0.77399999 0.097999997 150 16 0
2.9809999 0.76700002 0.097999997 150 16 0
2.9790001 0.75700003 0.097999997 150 16 0
2.984 0.74800003 0.097000003 150 16 0
2.99 0.74000001 0.097000003 150 16 0
2.993 0.73100001 0.097000003 150 16 0
2.997 0.722 0.096000001 150 16 0
3 0.71200001 0.096000001 150 16 0
3.003 0.70300001 0.094999999 142 16 0
3.01 0.69499999 0.094999999 118 16 0
3.0139999 0.685 0.093999997 133 16 0
3.0150001 0.676 0.093000002 132 16 0
3.0250001 0.66799998 0.093000002 125 16 0
3.029 0.65899998 0.092 134 16 0
3.0309999 0.64899999 0.092 130 16 0
3.0409999 0.64099997 0.090999998 129 16 0
3.0469999 0.63200003 0.090999998 120 16 0
3.0450001 0.62199998 0.090000004 118 16 0
3.0569999 0.61400002 0.089000002 121 16 0
3.0599999 0.60500002 0.089000002 137 16 0
3.062 0.59500003 0.088 135 16 0
3.066 0.58499998 0.086999997 117 16 0
3.0710001 0.57599998 0.086000003 118 16 0
3.0780001 0.56800002 0.085000001 110 16 0
3.0799999 0.55800003 0.083999999 109 16 0
3.089 0.54900002 0.083999999 109 16 0
3.086 0.53899997 0.082999997 110 16 0
3.0940001 0.52999997 0.082000002 106 16 0
3.0999999 0.52100003 0.081 102 16 0
3.1010001 0.51099998 0.079999998 95 16 0
3.1110001 0.50199997 0.079000004 106 16 0
3.1199999 0.493 0.078000002 108 16 0
3.1199999 0.48300001 0.077 106 16 0
3.1259999 0.47400001 0.075999998 120 16 0
3.1300001 0.465 0.075000003 120 16 0
3.1370001 0.45500001 0.074000001 115 16 0
3.1389999 0.44499999 0.071999997 103 16 0
3.142 0.43599999 0.071000002 109 16 0
3.145 0.426 0.07 103 16 0
3.1489999 0.41600001 0.068999998 93 16 0
3.158 0.40700001 0.068000004 113 16 0
3.1589999 0.39700001 0.066 106 16 0
3.1670001 0.38800001 0.064999998 107 16 0
3.171 0.37799999 0.064000003 103 16 0
3.1730001 0.368 0.061999999 36 16 0
3.175 0.35800001 0.061000001 37 16 0
3.181 0.34799999 0.059999999 37 16 0
3.1800001 0.338 0.057999998 35 16 0
3.1849999 0.32800001 0.057 32 16 0
3.1900001 0.31900001 0.056000002 32 16 0
3.191 0.308 0.054000001 30 16 0
3.1949999 0.29800001 0.052999999 30 16 0
3.2 0.28799999 0.050999999 28 16 0
3.201 0.278 0.048999999 27 16 0
3.2049999 0.26800001 0.048 28 16 0
3.2090001 0.25799999 0.046 28 16 0
3.2119999 0.248 0.045000002 28 16 0
3.2 0.237 0.043000001 32 16 0
3.187 0.226 0.041000001 67 16 0
3.187 0.21600001 0.039000001 50 16 0
3.21 0.207 0.037999999 27 16 0
3.23 0.198 0.037 28 16 0
3.24 0.18799999 0.035 29 16 0
3.2409999 0.178 0.033 28 16 0
3.244 0.168 0.030999999 28 16 0
3.2490001 0.15700001 0.029999999 28 16 0
3.2609999 0.148 0.028000001 34 16 0
3.2780001 0.138 0.026000001 57 16 0
3.286 0.12800001 0.024 84 16 0
3.2880001 0.117 0.022 77 16 0
3.296 0.107 0.02 97 16 0
3.2920001 0.097000003 0.017999999 69 16 0
3.2980001 0.086000003 0.017000001 78 16 0
3.3099999 0.075999998 0.015 71 16 0
3.3139999 0.066 0.013 55 16 0
3.3180001 0.055 0.011 48 16 0
3.3180001 0.045000002 0.0089999996 73 16 0
3.3239999 0.034000002 0.0060000001 71 16 0
3.3269999 0.024 0.0040000002 31 16 0
3.3039999 0.013 0.0020000001 19 16 0
3.2809999 0.0020000001 0 19 16 0
3.257 -0.0070000002 -0.001 18 16 0
3.243 -0.017000001 -0.003 44 16 0
3.2479999 -0.028000001 -0.0049999999 150 16 0
3.253 -0.037999999 -0.0070000002 150 16 0
3.256 -0.048 -0.0099999998 150 16 0
3.263 -0.059 -0.012 150 16 0
3.2620001 -0.068999998 -0.014 79 16 0
3.2420001 -0.079000004 -0.016000001 31 16 0
3.2219999 -0.089000002 -0.017999999 28 16 0
3.1960001 -0.097999997 -0.02 28 16 0
3.178 -0.107 -0.023 29 16 0
3.151 -0.117 -0.025 29 16 0
3.135 -0.126 -0.027000001 28 16 0
3.108 -0.13500001 -0.028999999 27 16 0
3.0910001 -0.14399999 -0.030999999 27 16 0
3.066 -0.152 -0.033 27 16 0
3.0469999 -0.161 -0.035 28 16 0
3.0139999 -0.169 -0.037 26 16 0
3.0050001 -0.178 -0.039000001 26 16 0
2.987 -0.186 -0.041000001 26 16 0
2.9649999 -0.19400001 -0.043000001 26 16 0
2.9460001 -0.20200001 -0.045000002 25 16 0
2.928 -0.20999999 -0.046999998 28 16 0
2.9059999 -0.21799999 -0.048999999 27 16 0
2.8889999 -0.22499999 -0.050999999 27 16 0
2.8710001 -0.233 -0.052999999 27 16 0
2.849 -0.23999999 -0.054000001 27 16 0
2.8340001 -0.248 -0.056000002 27 16 0
2.8139999 -0.255 -0.057999998 29 16 0
2.8 -0.26300001 -0.059999999 27 16 0
2.7809999 -0.27000001 -0.061999999 28 16 0
2.767 -0.27700001 -0.064000003 29 16 0
2.747 -0.28400001 -0.066 28 16 0
2.734 -0.29100001 -0.068000004 28 16 0
2.723 -0.29800001 -0.07 30 16 0
2.7090001 -0.30500001 -0.071999997 30 16 0
2.6900001 -0.31200001 -0.074000001 31 16 0
2.6760001 -0.31900001 -0.075999998 28 16 0
2.6559999 -0.324 -0.077 29 16 0
2.641 -0.331 -0.079000004 30 16 0
2.6289999 -0.338 -0.081 31 16 0
2.612 -0.34400001 -0.082999997 34 16 0
2.5969999 -0.34999999 -0.085000001 34 16 0
2.585 -0.35600001 -0.086999997 35 16 0
2.5710001 -0.36300001 -0.089000002 44 16 0
2.553 -0.368 -0.090000004 41 16 0
2.5409999 -0.375 -0.092 50 16 0
2.53 -0.38100001 -0.093999997 44 16 0
2.513 -0.38600001 -0.096000001 50 16 0
2.503 -0.39199999 -0.097999997 50 16 0
2.49 -0.398 -0.1 51 16 0
2.47 -0.403 -0.101 47 16 0
2.461 -0.40900001 -0.103 47 16 0
2.451 -0.41499999 -0.105 53 16 0
2.437 -0.41999999 -0.107 59 16 0
2.4230001 -0.426 -0.109 56 16 0
2.4100001 -0.43099999 -0.11 52 16 0
2.398 -0.43599999 -0.112 53 16 0
2.3829999 -0.44100001 -0.114 60 16 0
2.375 -0.447 -0.116 46 16 0
2.3610001 -0.45199999 -0.118 45 16 0
2.349 -0.45699999 -0.119 53 16 0
2.3329999 -0.461 -0.121 56 16 0
2.322 -0.46599999 -0.123 54 16 0
2.3139999 -0.472 -0.125 57 16 0
2.3 -0.47600001 -0.127 63 16 0
2.2820001 -0.47999999 -0.12800001 58 16 0
2.277 -0.486 -0.13 68 16 0
2.263 -0.49000001 -0.132 73 16 0
2.25 -0.49399999 -0.133 62 16 0
2.2409999 -0.5 -0.13500001 58 16 0
2.234 -0.505 -0.13699999 66 16 0
2.223 -0.509 -0.139 67 16 0
2.2060001 -0.51300001 -0.141 69 16 0
2.198 -0.51700002 -0.14300001 71 16 0
2.184 -0.52100003 -0.14399999 76 16 0
2.1819999 -0.52700001 -0.147 74 16 0
2.1619999 -0.52899998 -0.148 79 16 0
2.154 -0.53399998 -0.15000001 80 16 0
2.141 -0.53799999 -0.15099999 72 16 0
2.1300001 -0.542 -0.153 78 16 0
2.1210001 -0.546 -0.155 82 16 0
2.1110001 -0.55000001 -0.15700001 80 16 0
2.1040001 -0.55500001 -0.15899999 90 16 0
2.095 -0.55900002 -0.16 90 16 0
2.085 -0.56300002 -0.162 87 16 0
2.0699999 -0.56599998 -0.164 89 16 0
2.0669999 -0.57099998 -0.16599999 91 16 0
2.0539999 -0.574 -0.167 88 16 0
2.05 -0.579 -0.17 99 16 0
2.0369999 -0.58200002 -0.171 93 16 0
2.0239999 -0.58399999 -0.17299999 96 16 0
2.0150001 -0.588 -0.17399999 99 16 0
2.01 -0.59299999 -0.177 97 16 0
2.0020001 -0.597 -0.178 96 16 0
1.9910001 -0.60000002 -0.18000001 100 16 0
1.984 -0.60399997 -0.182 96 16 0
1.972 -0.60600001 -0.184 90 16 0
1.965 -0.61000001 -0.186 97 16 0
1.9630001 -0.616 -0.18799999 99 16 0
1.941 -0.61500001 -0.189 109 19 0
1.9349999 -0.61900002 -0.191 102 16 0
1.926 -0.62199998 -0.192 94 16 0
1.92 -0.62599999 -0.19400001 105 16 0
1.913 -0.63 -0.19599999 103 16 0
1.9069999 -0.634 -0.198 102 16 0
1.902 -0.63800001 -0.2 107 16 0
1.891 -0.63999999 -0.20200001 99 16 0
1.882 -0.64300001 -0.204 114 16 0
1.873 -0.64600003 -0.206 112 16 0
1.87 -0.64999998 -0.208 114 16 0
1.8609999 -0.653 -0.20999999 111 16 0
1.855 -0.65700001 -0.212 135 16 0
1.847 -0.66000003 -0.213 150 16 0
1.837 -0.662 -0.215 137 16 0
1.827 -0.66299999 -0.21600001 143 16 0
1.821 -0.667 -0.219 145 16 0
1.819 -0.67199999 -0.221 150 16 0
1.809 -0.67400002 -0.223 150 16 0
1.799 -0.67500001 -0.22400001 150 16 0
1.798 -0.68000001 -0.227 138 16 0
1.788 -0.68199998 -0.228 150 16 0
1.7819999 -0.685 -0.23 150 16 0
1.77 -0.68599999 -0.23199999 150 16 0
1.7690001 -0.69099998 -0.234 1 0 0
