# .PCD v0.7 - Point Cloud Data file format
VERSION 0.7
FIELDS x y z intensity tag line
SIZE 4 4 4 4 1 1
TYPE F F F F U U
COUNT 1 1 1 1 1 1
WIDTH 1358
HEIGHT 1
VIEWPOINT 0 0 0 1 0 0 0
POINTS 1358
DATA ascii
2.8829999 0.88099998 0.546 42 16 0
2.878 0.88700002 0.551 43 16 0
2.8670001 0.89099997 0.55599999 44 16 0
2.858 0.89600003 0.56 43 16 0
2.846 0.89999998 0.56400001 44 16 0
2.8369999 0.90399998 0.56800002 44 16 0
2.823 0.90700001 0.57200003 43 16 0
2.8099999 0.91000003 0.57499999 44 16 0
2.8 0.91399997 0.579 44 16 0
2.7920001 0.91900003 0.58399999 43 16 0
2.7850001 0.92400002 0.58899999 42 16 0
2.776 0.92799997 0.59299999 45 16 0
2.763 0.93099999 0.59600002 42 16 0
2.756 0.935 0.60100001 46 16 0
2.747 0.93900001 0.60500002 44 16 0
2.733 0.94199997 0.60900003 44 16 0
2.723 0.94499999 0.61199999 60 16 0
2.7179999 0.94999999 0.61699998 69 16 0
2.7090001 0.954 0.62199998 68 16 0
2.6930001 0.95499998 0.62400001 70 16 0
2.6849999 0.95899999 0.62900001 66 16 0
2.6760001 0.96200001 0.63300002 65 16 0
2.665 0.96499997 0.63700002 71 16 0
2.658 0.96899998 0.64099997 69 16 0
2.652 0.97299999 0.64600003 68 16 0
2.641 0.97600001 0.64899999 70 16 0
2.631 0.97799999 0.653 70 16 0
2.622 0.98100001 0.65700001 67 16 0
2.6129999 0.98400003 0.66100001 65 16 0
2.6040001 0.98699999 0.66500002 67 16 0
2.5929999 0.98900002 0.66799998 73 16 0
2.586 0.99199998 0.67299998 76 16 0
2.575 0.99400002 0.676 70 16 0
2.5699999 0.99900001 0.68099999 78 16 0
2.5599999 1 0.685 69 16 0
2.5510001 1.003 0.68800002 74 16 0
2.5380001 1.0039999 0.69099998 78 16 0
2.5350001 1.0089999 0.69700003 74 16 0
2.526 1.011 0.69999999 77 16 0
2.5120001 1.011 0.70200002 77 16 0
2.5090001 1.015 0.708 73 16 0
2.4990001 1.017 0.71100003 67 16 0
2.4909999 1.0190001 0.71499997 78 16 0
2.4790001 1.02 0.71799999 77 16 0
2.467 1.02 0.72000003 70 16 0
2.4619999 1.023 0.72500002 73 16 0
2.4549999 1.026 0.72899997 69 16 0
2.45 1.029 0.73400003 78 16 0
2.441 1.03 0.73699999 74 16 0
2.434 1.033 0.741 74 16 0
2.4230001 1.033 0.74400002 77 16 0
2.4200001 1.0369999 0.74900001 70 16 0
2.411 1.038 0.75199997 68 16 0
2.405 1.04 0.75700003 77 16 0
2.391 1.039 0.75800002 85 16 0
2.385 1.041 0.76200002 73 16 0
2.3759999 1.0420001 0.76499999 73 16 0
2.3710001 1.045 0.76999998 61 16 0
2.3640001 1.046 0.77399999 59 16 0
2.359 1.048 0.778 71 16 0
2.345 1.046 0.77899998 68 16 0
2.336 1.0470001 0.78200001 81 16 0
2.3299999 1.048 0.78600001 79 16 0
2.322 1.049 0.78899997 80 16 0
2.3139999 1.05 0.792 76 16 0
2.309 1.052 0.79699999 85 16 0
2.299 1.051 0.79900002 82 16 0
2.2939999 1.053 0.80299997 84 16 0
2.2850001 1.053 0.80599999 89 16 0
2.277 1.053 0.80900002 87 16 0
2.2690001 1.053 0.81099999 84 16 0
2.2609999 1.053 0.815 92 16 0
2.2539999 1.053 0.81800002 87 16 0
2.25 1.0549999 0.82200003 77 16 0
2.244 1.0549999 0.82499999 89 16 0
2.233 1.054 0.82700002 79 16 0
2.2290001 1.0549999 0.83099997 84 16 0
2.224 1.056 0.83499998 85 16 0
2.217 1.056 0.838 80 16 0
2.2049999 1.053 0.83899999 78 16 0
2.1989999 1.053 0.84200001 82 16 0
2.194 1.054 0.84500003 80 16 0
2.188 1.054 0.84799999 84 16 0
2.181 1.053 0.85100001 81 16 0
2.1719999 1.052 0.85299999 87 16 0
2.1689999 1.053 0.85699999 89 16 0
2.1600001 1.051 0.85900003 78 16 0
2.154 1.051 0.86199999 78 16 0
2.1470001 1.05 0.86400002 87 16 0
2.1429999 1.05 0.86799997 91 16 0
2.1370001 1.05 0.87 78 16 0
2.132 1.05 0.87400001 86 16 0
2.125 1.048 0.87599999 87 16 0
2.118 1.0470001 0.87800002 89 16 0
2.115 1.0470001 0.88200003 88 16 0
2.108 1.045 0.88300002 96 16 0
2.1029999 1.045 0.88599998 92 16 0
2.0999999 1.045 0.88999999 87 16 0
2.0940001 1.044 0.89200002 87 16 0
2.086 1.041 0.89399999 86 16 0
2.0840001 1.0420001 0.89700001 82 16 0
2.0769999 1.04 0.89899999 84 16 0
2.075 1.04 0.903 85 16 0
2.0710001 1.039 0.90499997 86 16 0
2.0639999 1.0369999 0.90700001 89 16 0
2.056 1.034 0.90799999 84 16 0
2.053 1.033 0.91100001 94 16 0
2.046 1.031 0.912 111 16 0
2.0439999 1.03 0.91500002 109 16 0
2.04 1.029 0.91799998 112 16 0
2.033 1.027 0.91900003 113 16 0
2.029 1.025 0.921 100 16 0
2.023 1.022 0.92199999 101 16 0
2.0220001 1.022 0.926 103 16 0
2.0150001 1.0190001 0.92699999 100 16 0
2.0120001 1.017 0.92900002 104 16 0
2.0050001 1.0140001 0.93000001 102 16 0
1.998 1.011 0.93000001 89 16 0
1.997 1.01 0.93400002 89 16 0
1.994 1.0089999 0.93599999 93 16 0
1.992 1.007 0.93800002 92 16 0
1.9859999 1.0039999 0.93900001 89 16 0
1.982 1.002 0.94099998 98 16 0
1.979 1 0.94199997 95 16 0
1.976 0.99800003 0.94400001 108 16 0
1.974 0.99599999 0.94599998 108 16 0
1.971 0.99400002 0.94800001 99 16 0
1.9630001 0.98900002 0.94700003 98 19 0
1.962 0.98799998 0.94999999 103 16 0
1.954 0.98299998 0.949 92 19 0
1.954 0.98199999 0.95200002 102 16 0
1.954 0.98100001 0.954 97 16 0
1.95 0.97799999 0.95499998 96 16 0
1.947 0.97500002 0.95599997 90 16 0
1.942 0.97100002 0.95700002 92 16 0
1.9400001 0.96899998 0.958 93 16 0
1.9400001 0.96700001 0.96100003 103 16 0
1.9400001 0.96600002 0.963 105 16 0
1.9349999 0.96200001 0.96200001 99 16 0
1.932 0.95899999 0.963 102 16 0
1.931 0.95599997 0.96499997 103 16 0
1.927 0.95200002 0.96499997 98 16 0
1.926 0.94999999 0.96600002 102 16 0
1.926 0.94800001 0.96799999 105 16 0
1.924 0.94499999 0.96899998 117 16 0
1.924 0.94300002 0.97100002 109 16 0
1.9170001 0.93699998 0.96899998 107 19 0
1.915 0.93400002 0.96899998 109 16 0
1.913 0.93099999 0.97000003 108 16 0
1.91 0.92699999 0.97000003 111 16 0
1.911 0.92500001 0.97100002 110 16 0
1.911 0.92199999 0.97299999 118 16 0
1.911 0.92000002 0.97399998 107 16 0
1.91 0.91600001 0.97399998 113 16 0
1.906 0.912 0.97299999 109 16 0
1.909 0.91000003 0.97600001 112 16 0
1.906 0.90600002 0.97500002 112 16 0
1.906 0.903 0.97600001 115 16 0
1.9069999 0.90100002 0.977 112 16 0
1.906 0.89700001 0.977 112 16 0
1.903 0.89200002 0.97600001 117 16 0
1.9 0.88800001 0.97500002 110 16 0
1.9 0.88499999 0.97500002 112 16 0
1.902 0.88300002 0.977 113 16 0
1.902 0.87900001 0.977 117 16 0
1.901 0.875 0.97600001 119 16 0
1.902 0.87199998 0.977 117 16 0
1.901 0.86799997 0.97600001 118 16 0
1.902 0.86500001 0.97600001 126 16 0
1.901 0.861 0.97600001 114 16 0
1.904 0.85900003 0.977 125 16 0
1.905 0.85600001 0.977 128 16 0
1.905 0.852 0.977 128 16 0
1.906 0.84899998 0.977 120 16 0
1.91 0.84600002 0.97799999 129 16 0
1.905 0.83999997 0.97500002 126 16 0
1.9069999 0.83700001 0.97500002 143 16 0
1.908 0.83399999 0.97500002 119 16 0
1.91 0.82999998 0.97500002 132 16 0
1.911 0.82700002 0.97500002 131 16 0
1.911 0.82300001 0.97399998 128 16 0
1.914 0.81999999 0.97399998 132 16 0
1.916 0.81599998 0.97399998 140 16 0
1.918 0.81300002 0.97299999 144 16 0
1.919 0.80900002 0.972 149 16 0
1.921 0.80599999 0.972 149 16 0
1.923 0.80199999 0.972 149 16 0
1.925 0.79900002 0.97100002 149 16 0
1.926 0.79500002 0.97000003 142 16 0
1.929 0.79100001 0.96899998 150 16 0
1.9299999 0.787 0.96799999 150 16 0
1.933 0.78399998 0.96799999 150 16 0
1.934 0.77999997 0.96600002 150 16 0
1.938 0.77700001 0.96700001 150 16 0
1.938 0.77200001 0.96399999 141 16 0
1.941 0.76899999 0.963 149 16 0
1.943 0.76499999 0.96200001 150 16 0
1.947 0.76200002 0.96200001 149 16 0
1.946 0.75700003 0.95899999 118 16 0
1.949 0.75300002 0.958 124 16 0
1.954 0.75099999 0.958 130 16 0
1.955 0.74599999 0.95599997 120 16 0
1.959 0.74299997 0.95499998 130 16 0
1.961 0.73900002 0.954 127 16 0
1.962 0.73400003 0.95200002 127 16 0
1.965 0.73100001 0.94999999 134 16 0
1.97 0.727 0.949 129 16 0
1.973 0.72399998 0.94800001 133 16 0
1.98 0.72100002 0.949 127 16 0
1.9809999 0.71700001 0.94599998 139 16 0
1.983 0.713 0.94400001 129 16 0
1.9859999 0.70899999 0.94199997 132 16 0
1.993 0.70599997 0.94199997 136 16 0
1.992 0.70099998 0.93800002 130 16 0
1.997 0.69800001 0.93800002 135 16 0
1.999 0.69300002 0.935 134 16 0
2.006 0.69099998 0.935 130 16 0
2.0109999 0.68699998 0.93300003 138 16 0
2.0139999 0.68300003 0.93099999 130 16 0
2.016 0.67900002 0.92900002 139 16 0
2.0220001 0.676 0.92799997 142 16 0
2.026 0.67199999 0.92500001 135 16 0
2.0280001 0.66799998 0.92299998 133 16 0
2.0350001 0.66500002 0.92199999 136 16 0
2.04 0.66100001 0.92000002 134 16 0
2.0409999 0.65600002 0.917 134 16 0
2.0480001 0.653 0.91600001 143 16 0
2.052 0.64999998 0.91399997 138 16 0
2.0569999 0.64600003 0.912 135 16 0
2.0599999 0.64200002 0.90899998 138 16 0
2.066 0.639 0.90700001 150 16 0
2.0710001 0.63499999 0.90499997 129 16 0
2.0739999 0.63099998 0.90200001 141 16 0
2.0769999 0.62599999 0.89899999 137 16 0
2.0840001 0.62400001 0.898 134 16 0
2.0899999 0.62 0.89600003 147 16 0
2.098 0.61699998 0.89499998 150 16 0
2.105 0.61400002 0.89300001 146 16 0
2.108 0.61000001 0.88999999 142 16 0
2.115 0.60699999 0.88800001 147 16 0
2.1170001 0.602 0.884 150 16 0
2.1259999 0.59899998 0.88300002 133 16 0
2.1300001 0.59500003 0.88 130 16 0
2.1370001 0.59200001 0.87800002 132 16 0
2.145 0.58899999 0.87599999 129 16 0
2.1500001 0.58499998 0.87300003 150 16 0
2.152 0.57999998 0.86900002 150 16 0
2.1600001 0.57800001 0.86699998 140 16 0
2.1659999 0.574 0.86500001 150 16 0
2.1760001 0.57099998 0.86299998 143 16 0
2.1800001 0.56699997 0.86000001 149 16 0
2.188 0.56400001 0.85799998 145 16 0
2.1919999 0.56 0.85399997 147 16 0
2.1989999 0.55599999 0.852 144 16 0
2.2079999 0.55299997 0.85000002 138 16 0
2.214 0.55000001 0.847 136 16 0
2.2190001 0.546 0.84299999 135 16 0
2.2279999 0.54299998 0.84100002 135 16 0
2.23 0.53799999 0.83600003 134 16 0
2.24 0.53500003 0.83499998 125 16 0
2.243 0.53100002 0.82999998 134 16 0
2.2539999 0.528 0.829 128 16 0
2.2620001 0.52499998 0.82599998 131 16 0
2.273 0.52200001 0.824 124 16 0
2.279 0.51800001 0.82099998 122 16 0
2.286 0.51499999 0.81699997 127 16 0
2.2920001 0.51099998 0.81400001 115 16 0
2.3010001 0.50800002 0.81099999 109 16 0
2.3110001 0.505 0.80900002 136 16 0
2.3139999 0.5 0.80400002 111 16 0
2.3199999 0.49599999 0.80000001 101 16 0
2.332 0.49399999 0.79799998 109 16 0
2.3369999 0.49000001 0.79400003 98 16 0
2.348 0.48699999 0.79100001 110 16 0
2.3540001 0.48300001 0.787 105 16 0
2.362 0.479 0.78399998 107 16 0
2.368 0.47499999 0.77899998 94 16 0
2.3770001 0.472 0.77600002 99 16 0
2.385 0.46799999 0.77200001 104 16 0
2.3929999 0.465 0.76899999 98 16 0
2.3970001 0.461 0.76300001 94 16 0
2.408 0.45699999 0.76099998 93 16 0
2.4189999 0.454 0.75800002 94 16 0
2.4349999 0.45199999 0.75599998 92 16 0
2.4389999 0.44800001 0.75099999 93 16 0
2.447 0.44400001 0.74699998 90 16 0
2.461 0.442 0.745 90 16 0
2.47 0.43799999 0.74000001 83 16 0
2.473 0.433 0.73500001 82 16 0
2.4879999 0.43099999 0.73199999 83 16 0
2.4949999 0.42699999 0.72799999 68 16 0
2.5039999 0.42300001 0.72399998 68 16 0
2.516 0.41999999 0.72000003 72 16 0
2.5220001 0.41600001 0.71499997 61 16 0
2.5320001 0.41299999 0.71100003 64 16 0
2.543 0.40900001 0.70700002 60 16 0
2.55 0.405 0.70200002 64 16 0
2.559 0.40200001 0.69800001 54 16 0
2.573 0.39899999 0.69400001 62 16 0
2.5880001 0.396 0.69099998 67 16 0
2.596 0.39199999 0.68599999 60 16 0
2.5999999 0.38800001 0.68000001 56 16 0
2.612 0.384 0.676 56 16 0
2.6229999 0.38100001 0.67199999 47 16 0
2.635 0.377 0.66799998 53 16 0
2.6470001 0.37400001 0.66299999 49 16 0
2.654 0.37 0.65799999 41 16 0
2.6600001 0.366 0.65200001 47 16 0
2.668 0.36199999 0.64600003 46 16 0
2.688 0.359 0.64399999 31 16 0
2.7 0.35600001 0.639 43 16 0
2.707 0.352 0.63300002 68 16 0
2.72 0.34799999 0.62900001 48 16 0
2.7320001 0.345 0.62400001 38 16 0
2.743 0.34099999 0.61900002 39 16 0
2.7520001 0.33700001 0.61299998 36 16 0
2.7590001 0.333 0.60699999 38 16 0
2.78 0.33000001 0.60399997 39 16 0
2.7869999 0.32600001 0.59799999 39 16 0
2.8010001 0.32300001 0.59299999 39 16 0
2.813 0.31900001 0.58700001 38 16 0
2.8210001 0.315 0.58099997 37 16 0
2.836 0.31099999 0.57599998 35 16 0
2.8469999 0.308 0.56999999 38 16 0
2.862 0.30399999 0.565 37 16 0
2.8770001 0.301 0.56 37 16 0
2.8870001 0.29699999 0.55400002 37 16 0
2.9000001 0.29300001 0.54799998 36 16 0
2.9159999 0.289 0.54299998 35 16 0
2.928 0.285 0.537 35 16 0
2.9330001 0.28099999 0.52999997 37 16 0
2.9460001 0.27700001 0.52399999 37 16 0
2.964 0.27399999 0.51899999 38 16 0
2.9809999 0.27000001 0.51300001 39 16 0
2.983 0.26499999 0.505 37 16 0
3.01 0.26199999 0.50099999 35 16 0
3.0179999 0.25799999 0.49399999 33 16 0
3.0409999 0.255 0.48899999 35 16 0
3.0539999 0.25099999 0.48199999 34 16 0
3.0669999 0.24699999 0.47600001 34 16 0
3.0829999 0.243 0.46900001 33 16 0
3.102 0.23899999 0.463 31 16 0
3.112 0.235 0.456 31 16 0
3.132 0.23100001 0.44999999 34 16 0
3.1500001 0.228 0.44400001 32 16 0
3.168 0.22400001 0.43700001 31 16 0
3.1849999 0.22 0.43000001 33 16 0
3.197 0.215 0.42300001 33 16 0
3.21 0.211 0.41499999 32 16 0
3.233 0.208 0.40900001 32 16 0
3.243 0.20299999 0.40099999 33 16 0
3.26 0.199 0.39399999 32 16 0
3.2780001 0.19499999 0.38699999 33 16 0
3.2939999 0.191 0.37900001 56 16 0
3.299 0.186 0.37 150 16 0
3.3010001 0.18099999 0.361 144 16 0
3.299 0.175 0.35100001 131 16 0
3.2969999 0.17 0.34200001 117 16 0
3.2880001 0.16500001 0.331 122 16 0
3.29 0.16 0.322 129 16 0
3.2880001 0.155 0.31200001 139 16 0
3.2880001 0.149 0.303 132 16 0
3.286 0.14399999 0.29300001 127 16 0
3.2839999 0.139 0.28400001 125 16 0
3.2850001 0.134 0.27399999 124 16 0
3.2839999 0.12899999 0.26499999 125 16 0
3.277 0.124 0.255 138 16 0
3.2809999 0.119 0.245 113 16 0
3.2820001 0.115 0.236 135 16 0
3.277 0.11 0.226 139 16 0
3.2780001 0.105 0.21699999 131 16 0
3.276 0.1 0.207 139 16 0
3.27 0.094999999 0.197 150 16 0
3.2690001 0.090000004 0.18799999 143 16 0
3.2690001 0.085000001 0.178 126 16 0
3.2639999 0.079999998 0.168 129 16 0
3.2650001 0.075999998 0.15899999 141 16 0
3.2590001 0.071000002 0.149 146 16 0
3.26 0.066 0.14 124 16 0
3.26 0.061999999 0.13 119 16 0
3.2650001 0.057 0.121 39 16 0
3.2850001 0.052999999 0.112 26 16 0
3.3110001 0.048999999 0.103 27 16 0
3.332 0.044 0.093999997 24 16 0
3.349 0.039999999 0.085000001 18 16 0
3.3599999 0.035 0.075999998 36 16 0
3.3610001 0.029999999 0.066 54 16 0
3.3559999 0.026000001 0.056000002 42 16 0
3.3440001 0.021 0.046 26 16 0
3.335 0.016000001 0.035999998 19 16 0
3.3139999 0.012 0.026000001 17 16 0
3.302 0.0070000002 0.016000001 16 16 0
3.2939999 0.003 0.0060000001 17 16 0
3.276 -0.001 -0.0020000001 16 16 0
3.2639999 -0.0049999999 -0.012 16 16 0
3.2490001 -0.0099999998 -0.021 17 16 0
3.2309999 -0.014 -0.030999999 21 16 0
3.2260001 -0.017999999 -0.039999999 32 16 0
3.2260001 -0.022 -0.050000001 52 16 0
3.2160001 -0.027000001 -0.059 96 16 0
3.217 -0.030999999 -0.068999998 113 16 0
3.2179999 -0.035 -0.078000002 136 16 0
3.214 -0.039000001 -0.086999997 109 16 0
3.2160001 -0.043000001 -0.097000003 112 16 0
3.2130001 -0.048 -0.107 106 16 0
3.211 -0.052000001 -0.116 120 16 0
3.2060001 -0.056000002 -0.125 124 16 0
3.2049999 -0.059999999 -0.13500001 129 16 0
3.1930001 -0.064000003 -0.14399999 150 16 0
3.2019999 -0.068000004 -0.154 150 16 0
3.1949999 -0.071999997 -0.163 88 16 0
3.187 -0.075999998 -0.17200001 40 16 0
3.177 -0.079000004 -0.18099999 28 16 0
3.164 -0.082999997 -0.19 25 16 0
3.151 -0.086999997 -0.198 25 16 0
3.135 -0.090000004 -0.207 25 16 0
3.131 -0.093999997 -0.21600001 25 16 0
3.1170001 -0.097000003 -0.22499999 24 16 0
3.0999999 -0.101 -0.233 24 16 0
3.095 -0.104 -0.242 25 16 0
3.085 -0.108 -0.25 24 16 0
3.073 -0.111 -0.25799999 24 16 0
3.062 -0.114 -0.26699999 24 16 0
3.049 -0.118 -0.27500001 23 16 0
3.0380001 -0.121 -0.28299999 24 16 0
3.027 -0.124 -0.29100001 24 16 0
3.0120001 -0.127 -0.29899999 23 16 0
3.003 -0.13 -0.30700001 26 16 0
2.993 -0.133 -0.315 27 16 0
2.9849999 -0.13600001 -0.32300001 26 16 0
2.9749999 -0.139 -0.331 26 16 0
2.967 -0.142 -0.33899999 27 16 0
2.954 -0.145 -0.347 25 16 0
2.9449999 -0.148 -0.35499999 26 16 0
2.938 -0.15099999 -0.36300001 26 16 0
2.9260001 -0.154 -0.37099999 26 16 0
2.9200001 -0.15700001 -0.37900001 26 16 0
2.9059999 -0.15899999 -0.38600001 26 16 0
2.8929999 -0.162 -0.39300001 27 16 0
2.892 -0.16500001 -0.40200001 26 16 0
2.881 -0.168 -0.40900001 26 16 0
2.8670001 -0.17 -0.41600001 26 16 0
2.8640001 -0.17299999 -0.42500001 26 16 0
2.8570001 -0.176 -0.43200001 27 16 0
2.8429999 -0.178 -0.43900001 25 16 0
2.8340001 -0.18099999 -0.447 26 16 0
2.8239999 -0.183 -0.454 25 16 0
2.816 -0.186 -0.461 26 16 0
2.809 -0.18799999 -0.46900001 25 16 0
2.8039999 -0.191 -0.477 25 16 0
2.7909999 -0.193 -0.48300001 26 16 0
2.78 -0.19499999 -0.49000001 25 16 0
2.7720001 -0.197 -0.49700001 25 16 0
2.767 -0.2 -0.505 26 16 0
2.7609999 -0.20200001 -0.51300001 25 16 0
2.7509999 -0.204 -0.51899999 25 16 0
2.743 -0.207 -0.52600002 26 16 0
2.7379999 -0.20900001 -0.53399998 25 16 0
2.73 -0.211 -0.54100001 25 16 0
2.721 -0.213 -0.54799998 26 16 0
2.7160001 -0.21600001 -0.55599999 26 16 0
2.711 -0.21799999 -0.56300002 27 16 0
2.7030001 -0.22 -0.56999999 26 16 0
2.6889999 -0.221 -0.57599998 25 16 0
2.684 -0.22400001 -0.583 25 16 0
2.677 -0.226 -0.58999997 25 16 0
2.674 -0.228 -0.59799999 25 16 0
2.6670001 -0.23 -0.60500002 26 16 0
2.6600001 -0.23199999 -0.61199999 25 16 0
2.655 -0.234 -0.62 27 16 0
2.6440001 -0.235 -0.625 25 16 0
2.642 -0.23800001 -0.63300002 26 16 0
2.6340001 -0.23899999 -0.63999999 27 16 0
2.628 -0.241 -0.64700001 30 16 0
2.6229999 -0.243 -0.65399998 28 16 0
2.608 -0.244 -0.65899998 29 16 0
2.6029999 -0.24600001 -0.66600001 29 16 0
2.6010001 -0.248 -0.67400002 29 16 0
2.596 -0.25 -0.68099999 29 16 0
2.586 -0.25099999 -0.68699998 28 16 0
2.5840001 -0.25299999 -0.69499999 28 16 0
2.5739999 -0.25400001 -0.69999999 30 16 0
2.569 -0.25600001 -0.708 30 16 0
2.556 -0.257 -0.71200001 29 16 0
2.553 -0.259 -0.72000003 34 16 0
2.5469999 -0.25999999 -0.727 35 16 0
2.5420001 -0.26199999 -0.73299998 34 16 0
2.536 -0.26300001 -0.74000001 34 16 0
2.5339999 -0.26499999 -0.74800003 36 16 0
2.526 -0.266 -0.75400001 33 16 0
2.5209999 -0.26699999 -0.75999999 35 16 0
2.513 -0.26899999 -0.76599997 35 16 0
2.5090001 -0.27000001 -0.773 34 16 0
2.503 -0.271 -0.77999997 34 16 0
2.5 -0.273 -0.787 34 16 0
2.4920001 -0.27399999 -0.79299998 33 16 0
2.49 -0.27500001 -0.801 33 16 0
2.4820001 -0.27599999 -0.80599999 34 16 0
2.4779999 -0.278 -0.81300002 38 16 0
2.4749999 -0.27900001 -0.81999999 36 16 0
2.467 -0.28 -0.82599998 37 16 0
2.4590001 -0.28099999 -0.83200002 34 16 0
2.4590001 -0.28200001 -0.83999997 36 16 0
2.448 -0.28299999 -0.84399998 33 16 0
2.4489999 -0.28400001 -0.85299999 33 16 0
2.4389999 -0.285 -0.85799998 33 16 0
2.4389999 -0.28600001 -0.86500001 34 16 0
2.431 -0.287 -0.87099999 33 16 0
2.428 -0.28799999 -0.87800002 37 16 0
2.425 -0.289 -0.88499999 37 16 0
2.4170001 -0.289 -0.88999999 34 16 0
2.414 -0.28999999 -0.89700001 33 16 0
2.411 -0.29100001 -0.90399998 33 16 0
2.4030001 -0.292 -0.90899998 35 16 0
2.401 -0.29300001 -0.917 34 16 0
2.3940001 -0.29300001 -0.92199999 33 16 0
2.3940001 -0.294 -0.93000001 34 16 0
2.388 -0.29499999 -0.93599999 33 16 0
2.385 -0.296 -0.94300002 57 16 0
2.3770001 -0.296 -0.94800001 58 16 0
2.3789999 -0.29699999 -0.95599997 50 16 0
2.372 -0.29699999 -0.96100003 56 16 0
2.369 -0.29800001 -0.96799999 55 16 0
2.369 -0.29899999 -0.97600001 58 16 0
2.3599999 -0.29899999 -0.98100001 57 16 0
2.3559999 -0.29899999 -0.98699999 61 16 0
2.3540001 -0.30000001 -0.99400002 53 16 0
2.352 -0.301 -1.001 58 16 0
2.345 -0.301 -1.006 53 16 0
2.3399999 -0.301 -1.012 54 16 0
2.3369999 -0.301 -1.018 61 16 0
2.3340001 -0.30199999 -1.025 61 16 0
2.3310001 -0.30199999 -1.0319999 58 16 0
2.3299999 -0.303 -1.039 54 16 0
2.3269999 -0.303 -1.045 56 16 0
2.323 -0.303 -1.051 56 16 0
2.3199999 -0.303 -1.058 57 16 0
2.316 -0.303 -1.064 48 16 0
2.313 -0.303 -1.0700001 51 16 0
2.3110001 -0.303 -1.077 57 16 0
2.3080001 -0.30399999 -1.0829999 58 16 0
2.3039999 -0.303 -1.089 54 16 0
2.302 -0.30399999 -1.096 55 16 0
2.299 -0.30399999 -1.102 43 16 0
2.296 -0.30399999 -1.108 43 16 0
2.2980001 -0.30399999 -1.117 50 16 0
2.2920001 -0.303 -1.1210001 50 16 0
2.289 -0.303 -1.127 50 16 0
2.286 -0.303 -1.133 52 16 0
2.2809999 -0.303 -1.1390001 45 16 0
2.2820001 -0.303 -1.147 54 16 0
2.28 -0.303 -1.153 54 16 0
2.28 -0.303 -1.161 46 16 0
2.277 -0.30199999 -1.1670001 45 16 0
2.276 -0.30199999 -1.173 43 16 0
2.273 -0.30199999 -1.179 65 16 0
2.2709999 -0.301 -1.186 64 16 0
2.2709999 -0.301 -1.193 64 16 0
2.2679999 -0.30000001 -1.199 57 16 0
2.2679999 -0.30000001 -1.206 58 16 0
2.2679999 -0.30000001 -1.2130001 63 16 0
2.2650001 -0.29899999 -1.219 56 16 0
2.2620001 -0.29800001 -1.224 55 16 0
2.2609999 -0.29800001 -1.2309999 54 16 0
2.2579999 -0.29699999 -1.2359999 60 16 0
2.2579999 -0.296 -1.243 63 16 0
2.2550001 -0.296 -1.249 61 16 0
2.256 -0.29499999 -1.256 68 16 0
2.25 -0.294 -1.26 65 16 0
2.2579999 -0.294 -1.271 74 16 0
2.253 -0.29300001 -1.275 59 16 0
2.25 -0.292 -1.28 56 16 0
2.2520001 -0.29100001 -1.288 61 16 0
2.2520001 -0.29100001 -1.295 50 16 0
2.2509999 -0.28999999 -1.301 58 16 0
2.2539999 -0.289 -1.3099999 54 16 0
2.2520001 -0.28799999 -1.3150001 54 16 0
2.2520001 -0.287 -1.321 50 16 0
2.2520001 -0.28600001 -1.3279999 52 16 0
2.25 -0.285 -1.3329999 48 16 0
2.2520001 -0.28400001 -1.341 52 16 0
2.2479999 -0.28200001 -1.345 45 16 0
2.25 -0.28099999 -1.352 48 16 0
2.247 -0.28 -1.357 49 16 0
2.247 -0.278 -1.363 47 16 0
2.247 -0.27700001 -1.369 42 16 0
2.2479999 -0.27599999 -1.376 50 16 0
2.247 -0.27399999 -1.381 41 16 0
2.2479999 -0.273 -1.388 40 16 0
2.2509999 -0.27200001 -1.395 38 16 0
2.25 -0.27000001 -1.401 35 16 0
2.2550001 -0.26899999 -1.409 37 16 0
2.2550001 -0.26800001 -1.415 42 16 0
2.253 -0.266 -1.42 41 16 0
2.257 -0.26499999 -1.427 37 16 0
2.2579999 -0.26300001 -1.433 35 16 0
2.2590001 -0.26100001 -1.4400001 36 16 0
2.2579999 -0.259 -1.4450001 36 16 0
2.2590001 -0.25799999 -1.451 36 16 0
2.2620001 -0.25600001 -1.4579999 35 16 0
2.263 -0.25400001 -1.4630001 37 16 0
2.267 -0.25299999 -1.471 35 16 0
2.2650001 -0.25 -1.474 35 16 0
2.2679999 -0.249 -1.4809999 35 16 0
2.2690001 -0.24699999 -1.4859999 34 16 0
2.2709999 -0.245 -1.492 34 16 0
2.2709999 -0.242 -1.497 34 16 0
2.273 -0.23999999 -1.503 33 16 0
2.273 -0.23800001 -1.507 34 16 0
2.2809999 -0.237 -1.517 32 19 0
2.2809999 -0.234 -1.522 34 16 0
2.2839999 -0.23199999 -1.527 34 16 0
2.2839999 -0.23 -1.531 32 16 0
2.286 -0.228 -1.5369999 33 16 0
2.2880001 -0.22499999 -1.5420001 33 16 0
2.2909999 -0.223 -1.548 33 16 0
2.2920001 -0.221 -1.552 32 16 0
2.296 -0.21799999 -1.558 31 16 0
2.303 -0.21600001 -1.566 32 16 0
2.3050001 -0.214 -1.571 31 16 0
2.3069999 -0.211 -1.575 32 16 0
2.3099999 -0.20900001 -1.581 32 16 0
2.312 -0.206 -1.585 31 16 0
2.316 -0.204 -1.591 30 16 0
2.3199999 -0.20100001 -1.596 30 16 0
2.3199999 -0.198 -1.599 30 16 0
2.3280001 -0.19599999 -1.607 31 16 0
2.329 -0.193 -1.61 33 16 0
2.3340001 -0.191 -1.6160001 32 16 0
2.339 -0.18799999 -1.622 33 16 0
2.3399999 -0.185 -1.625 32 16 0
2.348 -0.183 -1.632 32 19 0
2.352 -0.18000001 -1.637 33 16 0
2.3529999 -0.177 -1.6390001 32 16 0
2.3599999 -0.17399999 -1.646 31 16 0
2.3629999 -0.171 -1.65 32 16 0
2.369 -0.169 -1.655 31 16 0
2.3710001 -0.16500001 -1.6569999 32 16 0
2.378 -0.163 -1.663 32 16 0
2.385 -0.16 -1.669 32 16 0
2.3889999 -0.15700001 -1.673 31 16 0
2.395 -0.154 -1.678 32 16 0
2.3970001 -0.15099999 -1.6799999 31 16 0
2.404 -0.148 -1.6849999 31 16 0
2.4070001 -0.145 -1.688 31 16 0
2.414 -0.141 -1.692 32 16 0
2.4189999 -0.139 -1.697 31 16 0
2.424 -0.13500001 -1.699 32 16 0
2.4319999 -0.132 -1.705 32 16 0
2.4389999 -0.12899999 -1.71 32 16 0
2.4389999 -0.126 -1.709 32 16 0
2.4460001 -0.123 -1.714 32 16 0
2.451 -0.119 -1.716 31 16 0
2.461 -0.116 -1.722 32 16 0
2.4630001 -0.113 -1.722 31 16 0
2.4719999 -0.11 -1.728 31 19 0
2.4760001 -0.106 -1.729 32 16 0
2.484 -0.103 -1.734 32 16 0
2.4890001 -0.1 -1.735 41 16 0
2.4990001 -0.097000003 -1.7410001 87 16 0
2.4990001 -0.093000002 -1.739 150 16 0
2.5020001 -0.089000002 -1.739 150 16 0
2.4979999 -0.086000003 -1.734 150 16 0
2.4979999 -0.082000002 -1.7309999 150 16 0
2.4960001 -0.079000004 -1.728 150 16 0
2.503 -0.075000003 -1.73 150 16 0
2.4979999 -0.071999997 -1.724 150 16 0
2.497 -0.068000004 -1.721 150 16 0
2.4990001 -0.064999998 -1.719 150 16 0
2.4960001 -0.061000001 -1.714 150 16 0
2.494 -0.057 -1.709 150 16 0
2.497 -0.054000001 -1.7079999 150 16 0
2.49 -0.050000001 -1.7 134 16 0
2.4860001 -0.046999998 -1.694 92 16 0
2.49 -0.044 -1.693 44 16 0
2.4920001 -0.039999999 -1.6900001 29 16 0
2.5039999 -0.037 -1.6950001 24 19 0
2.506 -0.034000002 -1.692 20 16 0
2.516 -0.029999999 -1.6950001 21 16 0
2.526 -0.027000001 -1.697 21 16 0
2.536 -0.024 -1.7 20 16 0
2.5380001 -0.021 -1.697 21 16 0
2.5450001 -0.017000001 -1.696 22 16 0
2.55 -0.014 -1.6950001 22 16 0
2.5669999 -0.011 -1.702 24 19 0
2.573 -0.0080000004 -1.701 26 16 0
2.579 -0.0049999999 -1.699 32 16 0
2.5829999 -0.001 -1.697 46 16 0
2.585 0.001 -1.693 81 16 0
2.5880001 0.0040000002 -1.689 121 16 0
2.585 0.0070000002 -1.682 139 16 0
2.585 0.0099999998 -1.677 130 16 0
2.585 0.013 -1.67 121 16 0
2.5869999 0.017000001 -1.666 122 16 0
2.5829999 0.02 -1.658 115 16 0
2.586 0.022 -1.653 105 16 0
2.5910001 0.025 -1.651 89 16 0
2.5929999 0.028000001 -1.646 69 16 0
2.5940001 0.030999999 -1.64 79 16 0
2.5880001 0.034000002 -1.63 89 16 0
2.596 0.037 -1.628 107 16 0
2.599 0.039999999 -1.624 139 16 0
2.598 0.043000001 -1.617 150 16 0
2.598 0.045000002 -1.61 150 16 0
2.6010001 0.048 -1.605 150 16 0
2.6010001 0.050999999 -1.598 150 16 0
2.602 0.052999999 -1.592 150 16 0
2.605 0.056000002 -1.587 150 16 0
2.5999999 0.057999998 -1.577 150 16 0
2.6029999 0.061000001 -1.571 150 16 0
2.609 0.064000003 -1.568 150 16 0
2.609 0.066 -1.5599999 150 16 0
2.612 0.068000004 -1.5549999 150 16 0
2.612 0.071000002 -1.548 150 16 0
2.6159999 0.072999999 -1.5420001 150 16 0
2.615 0.075999998 -1.535 150 16 0
2.6159999 0.078000002 -1.527 150 16 0
2.6159999 0.079999998 -1.52 150 16 0
2.619 0.082000002 -1.5140001 150 16 0
2.6259999 0.085000001 -1.51 150 16 0
2.6259999 0.086999997 -1.502 150 16 0
2.6270001 0.089000002 -1.495 150 16 0
2.6259999 0.090999998 -1.487 150 16 0
2.632 0.093000002 -1.482 150 16 0
2.631 0.094999999 -1.473 150 16 0
2.6340001 0.097000003 -1.467 150 16 0
2.6370001 0.098999999 -1.46 150 16 0
2.641 0.101 -1.454 150 16 0
2.6370001 0.102 -1.444 150 16 0
2.641 0.104 -1.438 150 16 0
2.6440001 0.106 -1.431 150 16 0
2.6500001 0.108 -1.426 150 16 0
2.651 0.11 -1.418 150 16 0
2.654 0.111 -1.411 150 16 0
2.651 0.113 -1.401 150 16 0
2.6570001 0.115 -1.396 150 16 0
2.664 0.116 -1.391 150 16 0
2.664 0.118 -1.382 150 16 0
2.6670001 0.119 -1.375 150 16 0
2.6659999 0.121 -1.3660001 150 16 0
2.6730001 0.122 -1.3609999 150 16 0
2.6730001 0.124 -1.352 150 16 0
2.677 0.125 -1.345 150 16 0
2.678 0.126 -1.337 150 16 0
2.684 0.12800001 -1.331 150 16 0
2.6860001 0.12899999 -1.323 150 16 0
2.6849999 0.13 -1.314 150 16 0
2.6919999 0.132 -1.309 150 16 0
2.6900001 0.133 -1.299 150 16 0
2.694 0.134 -1.291 150 16 0
2.6989999 0.13500001 -1.285 150 16 0
2.7030001 0.13600001 -1.277 150 16 0
2.7060001 0.13699999 -1.27 150 16 0
2.707 0.138 -1.261 150 16 0
2.707 0.139 -1.252 150 16 0
2.71 0.14 -1.244 150 16 0
2.7090001 0.14 -1.235 150 16 0
2.7119999 0.141 -1.227 150 16 0
2.7190001 0.142 -1.221 150 16 0
2.7190001 0.14300001 -1.212 150 16 0
2.7260001 0.14399999 -1.206 150 16 0
2.721 0.14399999 -1.194 150 16 0
2.7249999 0.145 -1.187 150 16 0
2.733 0.146 -1.181 150 16 0
2.7309999 0.146 -1.171 150 16 0
2.7349999 0.147 -1.163 150 16 0
2.753 0.148 -1.161 150 16 0
2.7409999 0.148 -1.147 150 16 0
2.744 0.149 -1.1390001 150 16 0
2.756 0.15000001 -1.135 150 16 0
2.7509999 0.15000001 -1.123 150 16 0
2.7520001 0.15000001 -1.115 150 16 0
2.7709999 0.15099999 -1.113 150 16 0
2.777 0.152 -1.1059999 150 16 0
2.789 0.152 -1.101 62 16 0
2.829 0.155 -1.107 7 18 0
2.796 0.153 -1.084 0 16 0
2.8050001 0.153 -1.0779999 0 16 0
2.8310001 0.155 -1.079 0 16 0
2.9389999 0.161 -1.11 0 16 0
2.98 0.163 -1.115 0 16 0
2.984 0.163 -1.1059999 0 16 0
2.97 0.162 -1.091 0 16 0
2.9990001 0.164 -1.091 0 16 0
2.8410001 0.155 -1.024 1 16 0
2.849 0.155 -1.018 20 16 0
2.813 0.153 -0.995 150 18 0
2.825 0.153 -0.99000001 150 16 0
2.8280001 0.153 -0.98100001 150 16 0
2.8310001 0.153 -0.97299999 150 16 0
2.8340001 0.153 -0.96399999 150 16 0
2.8369999 0.153 -0.95499998 150 16 0
2.8429999 0.153 -0.94800001 150 16 0
2.8429999 0.152 -0.93800002 150 16 0
2.846 0.152 -0.92900002 150 16 0
2.848 0.152 -0.92000002 150 16 0
2.8559999 0.15099999 -0.91299999 150 16 0
2.8610001 0.15099999 -0.90499997 150 16 0
2.8659999 0.15099999 -0.89700001 150 16 0
2.8670001 0.15000001 -0.88800001 150 16 0
2.8729999 0.15000001 -0.88 150 16 0
2.8759999 0.149 -0.87099999 150 16 0
2.878 0.149 -0.86199999 150 16 0
2.885 0.149 -0.85399997 150 16 0
2.888 0.148 -0.84500003 150 16 0
2.895 0.148 -0.838 150 16 0
2.898 0.147 -0.829 150 16 0
2.9000001 0.146 -0.81999999 150 16 0
2.9030001 0.146 -0.81099999 150 16 0
2.9100001 0.145 -0.80299997 150 16 0
2.908 0.14399999 -0.79299998 150 16 0
2.9170001 0.14399999 -0.78600001 150 16 0
2.9200001 0.14300001 -0.77700001 150 16 0
2.9230001 0.142 -0.76800001 150 16 0
2.927 0.141 -0.759 150 16 0
2.934 0.141 -0.75099999 150 16 0
2.937 0.14 -0.74199998 150 16 0
2.9430001 0.139 -0.73400003 150 16 0
2.9489999 0.138 -0.72500002 150 16 0
2.95 0.13699999 -0.71600002 150 16 0
2.954 0.13600001 -0.70700002 150 16 0
2.9590001 0.13500001 -0.69800001 150 16 0
2.961 0.134 -0.68900001 150 16 0
2.9660001 0.133 -0.68000001 150 16 0
2.977 0.133 -0.67299998 150 16 0
2.98 0.131 -0.66399997 150 16 0
2.9820001 0.13 -0.65399998 150 16 0
2.984 0.12899999 -0.64499998 150 16 0
2.993 0.12800001 -0.63700002 150 16 0
2.9949999 0.127 -0.62699997 150 16 0
3.0020001 0.126 -0.61900002 150 16 0
3.0020001 0.124 -0.60900003 150 16 0
3.01 0.123 -0.60100001 150 16 0
3.0139999 0.122 -0.59200001 150 16 0
3.0220001 0.121 -0.58399999 150 16 0
3.0239999 0.119 -0.574 150 16 0
3.029 0.118 -0.565 150 16 0
3.03 0.117 -0.55500001 150 16 0
3.0350001 0.115 -0.54699999 150 16 0
3.04 0.114 -0.537 150 16 0
3.043 0.112 -0.528 150 16 0
3.05 0.111 -0.51999998 150 16 0
3.053 0.11 -0.50999999 150 16 0
3.0550001 0.108 -0.5 139 16 0
3.066 0.107 -0.49200001 150 16 0
3.073 0.105 -0.48300001 150 16 0
3.0769999 0.104 -0.47400001 150 16 0
3.0810001 0.102 -0.465 145 16 0
3.0880001 0.101 -0.456 150 16 0
3.0899999 0.098999999 -0.44600001 150 16 0
3.096 0.097000003 -0.43700001 145 16 0
3.1059999 0.096000001 -0.428 142 16 0
3.1099999 0.093999997 -0.419 143 16 0
3.1129999 0.092 -0.40900001 147 16 0
3.1159999 0.090000004 -0.40000001 129 16 0
3.118 0.089000002 -0.38999999 135 16 0
3.1259999 0.086999997 -0.38100001 150 16 0
3.135 0.085000001 -0.37200001 147 16 0
3.1389999 0.082999997 -0.36199999 147 16 0
3.1459999 0.082000002 -0.35299999 150 16 0
3.151 0.079999998 -0.34299999 150 16 0
3.155 0.078000002 -0.33399999 123 16 0
3.1600001 0.075999998 -0.324 150 16 0
3.165 0.074000001 -0.315 150 16 0
3.171 0.071999997 -0.30500001 129 16 0
3.174 0.07 -0.29499999 132 16 0
3.184 0.068000004 -0.28600001 148 16 0
3.1860001 0.066 -0.27599999 126 16 0
3.197 0.064000003 -0.26699999 118 16 0
3.201 0.061999999 -0.257 79 16 0
3.207 0.059999999 -0.24699999 67 16 0
3.2119999 0.057 -0.23800001 59 16 0
3.2179999 0.055 -0.228 58 16 0
3.2260001 0.052999999 -0.21799999 64 16 0
3.2260001 0.050999999 -0.208 79 16 0
3.2309999 0.048999999 -0.198 103 16 0
3.237 0.046 -0.18799999 118 16 0
3.24 0.044 -0.178 128 16 0
3.2539999 0.041999999 -0.169 141 16 0
3.253 0.039000001 -0.15800001 123 16 0
3.256 0.037 -0.148 146 16 0
3.263 0.035 -0.138 127 16 0
3.2709999 0.032000002 -0.12800001 96 16 0
3.277 0.029999999 -0.118 71 16 0
3.2850001 0.027000001 -0.108 47 16 0
3.2909999 0.025 -0.097999997 35 16 0
3.29 0.022 -0.088 26 16 0
3.286 0.02 -0.077 23 16 0
3.2839999 0.017000001 -0.067000002 21 16 0
3.286 0.014 -0.057 20 16 0
3.286 0.012 -0.046 20 16 0
3.2820001 0.0089999996 -0.035999998 20 16 0
3.277 0.0060000001 -0.026000001 19 16 0
3.277 0.0040000002 -0.015 19 16 0
3.276 0.001 -0.0049999999 19 16 0
3.2720001 -0.001 0.0040000002 19 16 0
3.277 -0.0040000002 0.015 19 16 0
3.2609999 -0.0060000001 0.025 23 16 0
3.2650001 -0.0089999996 0.035 27 16 0
3.27 -0.012 0.045000002 38 16 0
3.2690001 -0.015 0.055 74 16 0
3.277 -0.017000001 0.066 141 16 0
3.2820001 -0.02 0.075999998 150 16 0
3.2909999 -0.023 0.086999997 150 16 0
3.2939999 -0.026000001 0.097000003 150 16 0
3.3010001 -0.028999999 0.107 150 16 0
3.3050001 -0.032000002 0.118 150 16 0
3.3110001 -0.035 0.12800001 150 16 0
3.3239999 -0.037999999 0.139 150 16 0
3.326 -0.041000001 0.15000001 150 16 0
3.329 -0.044 0.16 150 16 0
3.339 -0.048 0.171 150 16 0
3.3440001 -0.050999999 0.182 150 16 0
3.349 -0.054000001 0.192 150 16 0
3.3570001 -0.057 0.20299999 150 16 0
3.3659999 -0.061000001 0.214 150 16 0
3.365 -0.064000003 0.22499999 70 16 0
3.3699999 -0.067000002 0.235 43 16 0
3.365 -0.07 0.245 33 16 0
3.3610001 -0.072999999 0.25600001 29 16 0
3.359 -0.075999998 0.266 30 16 0
3.352 -0.079999998 0.27599999 28 16 0
3.346 -0.082999997 0.28600001 27 16 0
3.3499999 -0.086000003 0.296 29 16 0
3.3429999 -0.089000002 0.30599999 28 16 0
3.3369999 -0.092 0.31600001 29 16 0
3.336 -0.096000001 0.32600001 29 16 0
3.3329999 -0.098999999 0.336 28 16 0
3.3310001 -0.102 0.34599999 29 16 0
3.326 -0.106 0.35600001 31 16 0
3.319 -0.109 0.366 40 16 0
3.3069999 -0.112 0.375 51 16 0
3.2969999 -0.115 0.384 49 16 0
3.279 -0.118 0.39199999 42 16 0
3.2609999 -0.121 0.40000001 40 16 0
3.2460001 -0.123 0.40799999 40 16 0
3.2260001 -0.126 0.41499999 39 16 0
3.2079999 -0.12899999 0.42300001 41 16 0
3.1919999 -0.132 0.43099999 41 16 0
3.1730001 -0.134 0.43799999 41 16 0
3.152 -0.13699999 0.44499999 39 16 0
3.1400001 -0.14 0.45300001 38 16 0
3.118 -0.142 0.45899999 38 16 0
3.1070001 -0.145 0.46700001 38 16 0
3.086 -0.148 0.47299999 37 16 0
3.069 -0.15000001 0.47999999 37 16 0
3.0539999 -0.153 0.48800001 37 16 0
3.04 -0.156 0.495 39 16 0
3.0179999 -0.15800001 0.5 39 16 0
3.007 -0.161 0.50800002 38 16 0
2.993 -0.164 0.51499999 39 16 0
2.973 -0.16599999 0.51999998 37 16 0
2.9630001 -0.169 0.528 38 16 0
2.9489999 -0.17200001 0.53500003 38 16 0
2.9349999 -0.17399999 0.54100001 38 16 0
2.924 -0.177 0.54799998 39 16 0
2.9130001 -0.18000001 0.55500001 37 16 0
2.8900001 -0.182 0.55900002 37 16 0
2.8800001 -0.185 0.56599998 36 16 0
2.8699999 -0.18799999 0.57300001 39 16 0
2.852 -0.19 0.57800001 39 16 0
2.842 -0.193 0.58499998 40 16 0
2.8299999 -0.19599999 0.59100002 39 16 0
2.816 -0.198 0.597 39 16 0
2.8010001 -0.20100001 0.60299999 39 16 0
2.7880001 -0.20299999 0.60799998 40 16 0
2.77 -0.206 0.61299998 39 16 0
2.76 -0.208 0.61900002 40 16 0
2.7509999 -0.211 0.62599999 43 16 0
2.737 -0.214 0.63099998 43 16 0
2.7219999 -0.21600001 0.63599998 49 16 0
2.714 -0.219 0.64200002 51 16 0
2.6889999 -0.221 0.64499998 53 16 0
2.6830001 -0.22400001 0.65100002 59 16 0
2.678 -0.227 0.65799999 55 16 0
2.665 -0.23 0.66399997 96 16 0
2.655 -0.23199999 0.66900003 84 16 0
2.6359999 -0.234 0.67199999 97 16 0
2.6300001 -0.237 0.67900002 84 16 0
2.6210001 -0.23999999 0.685 93 16 0
2.6159999 -0.243 0.69099998 89 16 0
2.6059999 -0.24600001 0.69599998 81 16 0
2.5869999 -0.248 0.699 94 16 0
2.579 -0.25099999 0.70499998 86 16 0
2.5669999 -0.25299999 0.70999998 105 16 0
2.5599999 -0.25600001 0.71600002 107 16 0
2.5480001 -0.259 0.72000003 119 16 0
2.536 -0.26100001 0.72399998 116 16 0
2.526 -0.264 0.72899997 107 16 0
2.5139999 -0.266 0.73299998 118 16 0
2.503 -0.26899999 0.73799998 117 16 0
2.5 -0.27200001 0.74400002 116 16 0
2.4879999 -0.27500001 0.74800003 122 16 0
2.4749999 -0.27700001 0.75199997 122 16 0
2.464 -0.27900001 0.75599998 121 16 0
2.4579999 -0.28299999 0.76200002 134 16 0
2.4430001 -0.285 0.764 127 16 0
2.437 -0.28799999 0.76999998 131 16 0
2.424 -0.28999999 0.773 134 16 0
2.4170001 -0.29300001 0.778 136 16 0
2.4089999 -0.296 0.78299999 135 16 0
2.3959999 -0.29800001 0.78600001 148 16 0
2.388 -0.301 0.79000002 133 16 0
2.3789999 -0.303 0.79500002 135 16 0
2.3710001 -0.30599999 0.79900002 141 16 0
2.362 -0.30899999 0.80299997 135 16 0
2.3529999 -0.31200001 0.80699998 143 16 0
2.352 -0.315 0.81400001 150 16 0
2.336 -0.317 0.815 146 16 0
2.3310001 -0.31999999 0.81999999 141 16 0
2.323 -0.32300001 0.82499999 136 16 0
2.313 -0.32499999 0.82800001 139 16 0
2.3050001 -0.32800001 0.83200002 129 16 0
2.2980001 -0.331 0.83600003 145 16 0
2.2869999 -0.333 0.83899999 150 16 0
2.2780001 -0.336 0.84200001 146 16 0
2.267 -0.338 0.84500003 140 16 0
2.26 -0.34099999 0.84899998 142 16 0
2.2520001 -0.34400001 0.852 146 16 0
2.243 -0.347 0.85500002 150 16 0
2.233 -0.34900001 0.85799998 150 16 0
2.227 -0.352 0.86299998 150 16 0
2.2149999 -0.354 0.86400002 150 16 0
2.2130001 -0.35800001 0.87 150 16 0
2.2030001 -0.36000001 0.87199998 150 16 0
2.1949999 -0.36300001 0.875 150 16 0
2.1900001 -0.366 0.88 150 16 0
2.1789999 -0.368 0.88099998 150 16 0
2.175 -0.37099999 0.88599998 150 16 0
2.165 -0.37400001 0.88800001 150 16 0
2.1530001 -0.37599999 0.889 150 16 0
2.1500001 -0.37900001 0.89399999 150 16 0
2.141 -0.382 0.89600003 150 16 0
2.135 -0.38499999 0.89999998 150 16 0
2.128 -0.38699999 0.903 150 16 0
2.1199999 -0.38999999 0.90499997 150 16 0
2.112 -0.39300001 0.90799999 150 16 0
2.109 -0.396 0.912 150 16 0
2.0999999 -0.398 0.91399997 150 16 0
2.0910001 -0.40099999 0.91600001 150 16 0
2.0880001 -0.40400001 0.92000002 150 16 0
2.082 -0.40799999 0.92400002 150 16 0
2.075 -0.41 0.926 150 16 0
2.0739999 -0.414 0.93099999 150 16 0
2.0599999 -0.41499999 0.93000001 150 16 0
2.0569999 -0.419 0.93400002 150 16 0
2.0480001 -0.421 0.935 150 16 0
2.0420001 -0.42399999 0.93800002 150 16 0
2.036 -0.42699999 0.94099998 150 16 0
2.033 -0.43000001 0.94499999 150 16 0
2.0250001 -0.433 0.94599998 150 16 0
2.0239999 -0.43700001 0.95099998 150 16 0
2.0179999 -0.44 0.95300001 150 16 0
2.0090001 -0.442 0.954 150 16 0
2.0039999 -0.44499999 0.95700002 150 16 0
2.0009999 -0.449 0.95999998 150 16 0
1.9910001 -0.44999999 0.96100003 150 16 0
1.989 -0.454 0.96399999 150 16 0
1.984 -0.45699999 0.96700001 150 16 0
1.974 -0.45899999 0.96700001 150 16 0
1.971 -0.463 0.97000003 150 16 0
1.967 -0.46599999 0.97299999 150 16 0
1.959 -0.46799999 0.97399998 150 16 0
1.957 -0.472 0.97799999 150 16 0
1.95 -0.47400001 0.97899997 150 16 0
1.946 -0.477 0.98100001 150 16 0
1.944 -0.48100001 0.98400003 150 16 0
1.941 -0.48500001 0.98699999 150 16 0
1.931 -0.486 0.98699999 150 16 0
1.9299999 -0.49000001 0.99000001 150 16 0
1.926 -0.493 0.99299997 150 16 0
1.911 -0.493 0.98900002 150 19 0
1.918 -0.49900001 0.99699998 150 16 0
1.903 -0.5 0.99299997 150 16 0
1.904 -0.50400001 0.99699998 150 16 0
1.899 -0.50700003 0.99900001 150 16 0
1.8940001 -0.50999999 1 150 16 0
1.89 -0.51300001 1.002 150 16 0
1.886 -0.51599997 1.003 150 16 0
1.885 -0.51999998 1.007 150 16 0
1.8789999 -0.52200001 1.007 150 16 0
1.881 -0.52700001 1.011 150 16 0
1.877 -0.52999997 1.013 150 16 0
1.869 -0.53200001 1.012 150 16 0
1.869 -0.53600001 1.015 150 16 0
1.863 -0.53799999 1.016 150 16 0
1.858 -0.54100001 1.016 150 16 0
1.859 -0.54500002 1.02 150 16 0
1.8559999 -0.54799998 1.021 150 16 0
1.8559999 -0.55199999 1.025 150 16 0
1.8559999 -0.55599999 1.028 134 16 0
1.85 -0.55800003 1.027 150 16 0
1.845 -0.56099999 1.027 150 16 0
1.8380001 -0.56300002 1.026 150 16 0
1.837 -0.56699997 1.028 150 16 0
1.834 -0.56900001 1.029 150 16 0
1.832 -0.57300001 1.03 150 16 0
1.8279999 -0.57599998 1.031 150 16 0
1.826 -0.579 1.0319999 150 16 0
1.824 -0.58200002 1.034 150 16 0
1.817 -0.58399999 1.0319999 150 16 0
1.818 -0.588 1.034 150 16 0
1.816 -0.59100002 1.035 150 16 0
1.812 -0.59299999 1.035 150 16 0
1.812 -0.597 1.0369999 150 16 0
1.808 -0.60000002 1.0369999 150 16 0
1.808 -0.60299999 1.039 150 16 0
1.807 -0.60699999 1.04 150 16 0
1.804 -0.60900003 1.04 150 16 0
1.804 -0.61299998 1.041 150 16 0
1.801 -0.61500001 1.041 150 16 0
1.799 -0.61799997 1.0420001 150 16 0
1.8 -0.62199998 1.044 150 16 0
1.7970001 -0.625 1.043 150 16 0
1.795 -0.62800002 1.043 150 16 0
1.794 -0.63099998 1.044 150 16 0
1.793 -0.634 1.044 150 16 0
1.794 -0.63700002 1.046 150 16 0
1.794 -0.64099997 1.0470001 150 16 0
1.793 -0.64399999 1.0470001 150 16 0
1.794 -0.64700001 1.048 150 16 0
1.798 -0.65200001 1.051 150 16 0
1.7970001 -0.65499997 1.051 150 16 0
1.796 -0.65799999 1.051 126 16 0
1.796 -0.66100001 1.052 94 16 0
1.8 -0.66600001 1.0549999 73 16 0
1.8049999 -0.67000002 1.057 62 16 0
1.807 -0.67400002 1.059 68 16 0
1.809 -0.67799997 1.0599999 57 16 0
1.811 -0.68199998 1.061 59 16 0
1.818 -0.68699998 1.0650001 49 19 0
1.819 -0.69099998 1.0650001 47 16 0
1.821 -0.69400001 1.066 41 16 0
1.827 -0.69999999 1.0700001 43 19 0
1.829 -0.70300001 1.071 43 16 0
1.829 -0.70599997 1.0700001 42 16 0
1.836 -0.71100003 1.073 47 19 0
1.835 -0.713 1.072 41 16 0
1.8380001 -0.71700001 1.073 43 16 0
1.8380001 -0.72000003 1.072 41 16 0
1.8430001 -0.72399998 1.074 42 16 0
1.845 -0.727 1.074 41 16 0
1.845 -0.72899997 1.073 39 16 0
1.8430001 -0.73100001 1.071 36 16 0
1.847 -0.73500001 1.072 39 16 0
1.849 -0.73799998 1.072 43 16 0
1.849 -0.74000001 1.0700001 39 16 0
1.85 -0.74299997 1.069 37 16 0
1.849 -0.74400002 1.067 38 16 0
1.85 -0.74599999 1.0650001 38 16 0
1.85 -0.74800003 1.064 40 16 0
1.851 -0.75099999 1.062 37 16 0
1.85 -0.75199997 1.0599999 36 16 0
1.851 -0.75400001 1.058 37 16 0
1.851 -0.75599998 1.056 41 16 0
1.851 -0.75800002 1.054 40 16 0
1.849 -0.75800002 1.051 42 16 0
1.85 -0.75999999 1.049 45 16 0
1.85 -0.76099998 1.046 38 16 0
1.847 -0.76200002 1.0420001 47 16 0
1.845 -0.76200002 1.038 67 16 0
1.844 -0.76300001 1.035 79 16 0
1.847 -0.76499999 1.034 103 16 0
1.855 -0.76999998 1.035 132 19 0
1.851 -0.76899999 1.03 150 16 0
1.851 -0.76999998 1.027 150 16 0
1.857 -0.77399999 1.028 150 16 0
1.857 -0.77399999 1.024 150 16 0
1.858 -0.77499998 1.021 150 16 0
1.863 -0.778 1.022 150 16 0
1.8710001 -0.78200001 1.022 150 16 0
1.872 -0.78299999 1.0190001 150 16 0
1.873 -0.78399998 1.017 150 16 0
1.8789999 -0.787 1.016 150 16 0
1.88 -0.78799999 1.013 150 16 0
1.886 -0.79100001 1.013 150 16 0
1.887 -0.79100001 1.01 150 16 0
1.896 -0.79500002 1.01 150 16 0
1.898 -0.796 1.007 150 16 0
1.902 -0.79799998 1.005 150 16 0
1.91 -0.801 1.006 150 16 0
1.911 -0.80199999 1.002 150 16 0
1.919 -0.80500001 1.002 150 16 0
1.9220001 -0.80599999 0.99900001 150 16 0
1.925 -0.80699998 0.99699998 150 16 0
1.928 -0.80699998 0.99400002 150 16 0
1.9349999 -0.81 0.99299997 150 16 0
1.9400001 -0.81199998 0.991 150 16 0
1.947 -0.81400001 0.99000001 150 16 0
1.955 -0.81699997 0.99000001 150 16 0
1.957 -0.81699997 0.986 150 16 0
1.961 -0.81800002 0.98299998 150 16 0
1.964 -0.81800002 0.98000002 150 16 0
1.9630001 -0.81699997 0.97500002 140 16 0
1.965 -0.81699997 0.97100002 136 16 0
1.9630001 -0.815 0.96499997 140 16 0
1.965 -0.815 0.96100003 135 16 0
1.964 -0.81300002 0.95599997 128 16 0
1.9630001 -0.81099999 0.94999999 114 16 0
1.965 -0.81099999 0.94599998 112 16 0
1.964 -0.80900002 0.94099998 111 16 0
1.966 -0.80900002 0.93699998 116 16 0
1.969 -0.80800003 0.93300003 117 16 0
1.966 -0.80500001 0.926 115 16 0
1.969 -0.80500001 0.92199999 98 16 0
1.973 -0.80500001 0.91900003 93 16 0
1.967 -0.801 0.91100001 90 16 0
1.972 -0.801 0.90799999 97 16 0
1.973 -0.80000001 0.903 97 16 0
1.972 -0.79699999 0.89700001 80 16 0
1.977 -0.79799998 0.89399999 96 16 0
1.979 -0.796 0.88999999 95 16 0
1.979 -0.79400003 0.884 92 16 0
1.979 -0.792 0.87900001 99 16 0
1.9859999 -0.79299998 0.87699997 97 16 0
1.984 -0.79000002 0.87 93 16 0
1.987 -0.78899997 0.866 96 16 0
1.989 -0.787 0.861 88 16 0
1.992 -0.78600001 0.85699999 95 16 0
1.9910001 -0.78299999 0.85100001 94 16 0
1.993 -0.78200001 0.847 93 16 0
1.998 -0.78100002 0.84299999 96 16 0
1.998 -0.778 0.838 96 16 0
2.0009999 -0.77700001 0.833 98 16 0
2.0020001 -0.77399999 0.82800001 94 16 0
2.006 -0.773 0.824 96 16 0
2.007 -0.77100003 0.81800002 94 16 0
2.0109999 -0.76999998 0.815 98 16 0
2.0139999 -0.76800001 0.81 94 16 0
2.0179999 -0.76700002 0.80599999 99 16 0
2.017 -0.76300001 0.80000001 99 16 0
2.0209999 -0.76200002 0.796 99 16 0
2.0239999 -0.75999999 0.79100001 96 16 0
2.0250001 -0.75700003 0.78600001 93 16 0
2.033 -0.75700003 0.78299999 95 16 0
2.0320001 -0.75300002 0.77700001 92 16 0
2.0350001 -0.75099999 0.77200001 104 16 0
2.039 -0.75 0.76800001 103 16 0
2.046 -0.74900001 0.76499999 104 16 0
2.049 -0.74699998 0.75999999 95 16 0
2.0510001 -0.74400002 0.755 100 16 0
2.0510001 -0.741 0.74900001 95 16 0
2.059 -0.74000001 0.74599999 106 16 0
2.0610001 -0.73699999 0.741 104 16 0
2.0639999 -0.73500001 0.736 101 16 0
2.0669999 -0.73199999 0.73199999 97 16 0
2.072 -0.73000002 0.72799999 98 16 0
2.0769999 -0.72799999 0.72399998 101 16 0
2.076 -0.72399998 0.71700001 97 16 0
2.0829999 -0.72299999 0.71399999 97 16 0
2.092 -0.722 0.71100003 88 16 0
2.0910001 -0.71799999 0.70499998 86 16 0
2.096 -0.71600002 0.70099998 78 16 0
2.102 -0.71399999 0.69700003 81 16 0
2.0999999 -0.70899999 0.69 86 16 0
2.108 -0.708 0.68699998 74 16 0
2.1110001 -0.70499998 0.68199998 81 16 0
2.1140001 -0.70200002 0.67699999 77 16 0
2.1170001 -0.699 0.67199999 82 16 0
2.125 -0.69700003 0.66900003 78 16 0
2.122 -0.69199997 0.662 75 16 0
2.131 -0.69099998 0.65899998 86 16 0
2.138 -0.68900001 0.65499997 81 16 0
2.141 -0.685 0.64999998 80 16 0
2.1440001 -0.68199998 0.64499998 76 16 0
2.154 -0.68099999 0.64200002 81 16 0
2.1570001 -0.67699999 0.63800001 71 16 0
2.1559999 -0.67299998 0.63099998 78 16 0
2.1659999 -0.671 0.62900001 78 16 0
2.174 -0.66900003 0.625 77 16 0
2.1800001 -0.66600001 0.62099999 50 16 0
2.181 -0.662 0.61500001 43 16 0
2.1900001 -0.66000003 0.61199999 44 16 0
2.1919999 -0.65600002 0.60600001 40 16 0
2.2 -0.65399998 0.60299999 46 16 0
2.2030001 -0.64999998 0.59799999 36 16 0
2.2060001 -0.64700001 0.59299999 40 16 0
2.2130001 -0.64399999 0.588 41 16 0
2.22 -0.64099997 0.58499998 42 16 0
2.2219999 -0.63700002 0.579 39 16 0
2.2260001 -0.63300002 0.574 36 16 0
2.2309999 -0.63 0.56999999 40 16 0
2.2479999 -0.63 0.56800002 43 16 0
2.253 -0.62599999 0.56400001 47 16 0
2.2550001 -0.62199998 0.55800003 38 16 0
2.2639999 -0.61900002 0.55500001 41 16 0
2.266 -0.61500001 0.54900002 40 16 0
2.2709999 -0.611 0.54500002 33 16 0
2.2750001 -0.60699999 0.54000002 35 16 0
2.2820001 -0.60399997 0.53600001 31 16 0
2.2880001 -0.60000002 0.53100002 29 16 0
2.296 -0.597 0.52700001 29 16 0
2.3010001 -0.59299999 0.523 40 16 0
2.309 -0.58999997 0.51899999 35 16 0
2.3150001 -0.58600003 0.514 38 16 0
2.3239999 -0.583 0.50999999 30 16 0
2.329 -0.579 0.505 30 16 0
2.3380001 -0.57599998 0.50099999 30 16 0
2.342 -0.57200003 0.49599999 30 16 0
2.348 -0.56800002 0.49200001 35 16 0
2.3570001 -0.56400001 0.48800001 30 16 0
2.3670001 -0.56099999 0.484 30 16 0
2.3729999 -0.55699998 0.479 28 16 0
2.3759999 -0.55299997 0.47400001 29 16 0
2.3870001 -0.54900002 0.47099999 29 16 0
2.391 -0.54500002 0.46599999 28 16 0
2.4000001 -0.54100001 0.461 29 16 0
2.408 -0.53799999 0.45699999 30 16 0
2.4159999 -0.53399998 0.45300001 30 16 0
2.4189999 -0.52899998 0.44800001 28 16 0
2.4300001 -0.52499998 0.44400001 29 16 0
2.4330001 -0.51999998 0.43900001 27 16 0
2.4430001 -0.51599997 0.43399999 28 16 0
2.451 -0.51200002 0.43000001 28 16 0
2.46 -0.50800002 0.426 28 16 0
2.464 -0.50300002 0.421 28 16 0
2.4719999 -0.49900001 0.41600001 29 16 0
2.4749999 -0.49399999 0.41100001 27 16 0
2.4890001 -0.491 0.40700001 28 16 0
2.4979999 -0.486 0.403 28 16 0
2.5020001 -0.48100001 0.398 27 16 0
2.516 -0.47799999 0.39399999 28 16 0
2.5209999 -0.47299999 0.389 28 16 0
2.529 -0.46799999 0.38499999 27 16 0
2.54 -0.46399999 0.38 28 16 0
2.546 -0.45899999 0.375 28 16 0
2.5539999 -0.454 0.37099999 27 16 0
2.5669999 -0.44999999 0.36700001 27 16 0
2.576 -0.44499999 0.36199999 28 16 0
2.5810001 -0.44 0.35699999 28 16 0
2.592 -0.43599999 0.35299999 28 16 0
2.602 -0.43099999 0.34799999 28 16 0
2.6070001 -0.42500001 0.34299999 28 16 0
2.619 -0.421 0.33899999 26 16 0
2.6340001 -0.417 0.33500001 28 16 0
2.6400001 -0.41100001 0.33000001 27 16 0
2.6489999 -0.40599999 0.32499999 28 16 0
2.6559999 -0.40099999 0.31999999 27 16 0
2.668 -0.396 0.31600001 28 16 0
2.6789999 -0.391 0.31099999 29 16 0
2.6900001 -0.38600001 0.30599999 28 16 0
2.697 -0.38 0.301 23 16 0
2.7060001 -0.375 0.296 23 16 0
2.7119999 -0.36899999 0.29100001 23 16 0
2.723 -0.36399999 0.28600001 23 16 0
2.737 -0.359 0.28200001 23 16 0
2.744 -0.35299999 0.27700001 24 16 0
2.75 -0.347 0.27200001 23 16 0
2.7650001 -0.34200001 0.26699999 23 16 0
2.7750001 -0.336 0.26199999 23 16 0
2.7850001 -0.33000001 0.257 23 16 0
2.793 -0.324 0.252 23 16 0
2.8050001 -0.31900001 0.24699999 23 16 0
2.812 -0.31200001 0.242 23 16 0
2.8269999 -0.30700001 0.237 22 16 0
2.839 -0.301 0.23199999 23 16 0
2.842 -0.294 0.227 23 16 0
2.8629999 -0.289 0.222 23 16 0
