# .PCD v0.7 - Point Cloud Data file format
VERSION 0.7
FIELDS x y z intensity tag line
SIZE 4 4 4 4 1 1
TYPE F F F F U U
COUNT 1 1 1 1 1 1
WIDTH 1362
HEIGHT 1
VIEWPOINT 0 0 0 1 0 0 0
POINTS 1362
DATA ascii
1.701 -0.141 1.074 150 16 0
1.7029999 -0.14300001 1.071 150 16 0
1.71 -0.145 1.071 150 16 0
1.716 -0.147 1.0700001 150 16 0
1.717 -0.149 1.067 150 16 0
1.724 -0.15000001 1.066 150 16 0
1.726 -0.152 1.063 150 16 0
1.7309999 -0.154 1.061 150 16 0
1.7359999 -0.155 1.0599999 150 16 0
1.74 -0.15700001 1.058 150 16 0
1.742 -0.15800001 1.054 150 16 0
1.747 -0.16 1.052 150 16 0
1.751 -0.161 1.049 150 16 0
1.753 -0.163 1.046 150 16 0
1.758 -0.164 1.044 150 16 0
1.761 -0.16599999 1.04 150 16 0
1.7640001 -0.167 1.0369999 150 16 0
1.783 -0.17 1.043 150 18 0
1.7869999 -0.171 1.04 150 16 0
1.791 -0.17299999 1.0369999 150 16 0
1.795 -0.17399999 1.034 150 16 0
1.808 -0.176 1.036 150 16 0
1.808 -0.177 1.03 150 16 0
1.814 -0.178 1.029 150 16 0
1.824 -0.18000001 1.028 150 16 0
1.826 -0.18099999 1.024 150 16 0
1.832 -0.182 1.022 150 16 0
1.841 -0.184 1.021 150 16 0
1.842 -0.185 1.016 150 16 0
1.851 -0.186 1.015 150 16 0
1.8559999 -0.18700001 1.012 150 16 0
1.863 -0.189 1.01 150 16 0
1.87 -0.19 1.008 150 16 0
1.8789999 -0.192 1.007 150 16 0
1.888 -0.193 1.006 150 16 0
1.891 -0.19400001 1.001 150 16 0
1.896 -0.19499999 0.99800003 150 16 0
1.905 -0.19599999 0.99599999 150 16 0
1.91 -0.197 0.99199998 150 16 0
1.918 -0.198 0.99000001 150 16 0
1.923 -0.199 0.98699999 150 16 0
1.931 -0.2 0.98400003 150 16 0
1.939 -0.20100001 0.98199999 150 16 0
1.942 -0.20200001 0.977 150 16 0
1.952 -0.20299999 0.97600001 150 16 0
1.961 -0.204 0.97399998 145 16 0
1.967 -0.205 0.97100002 150 16 0
1.977 -0.206 0.96899998 150 16 0
1.9809999 -0.207 0.96399999 150 16 0
1.987 -0.208 0.95999998 150 16 0
1.992 -0.208 0.95599997 150 16 0
2.003 -0.20900001 0.95499998 150 16 0
2.013 -0.20999999 0.95300001 149 16 0
2.0239999 -0.211 0.95099998 145 16 0
2.03 -0.212 0.94700003 150 16 0
2.0380001 -0.213 0.94400001 150 16 0
2.0439999 -0.213 0.94 141 16 0
2.0539999 -0.214 0.93800002 150 16 0
2.0569999 -0.214 0.93199998 150 16 0
2.0680001 -0.215 0.93000001 138 16 0
2.0780001 -0.21600001 0.92699999 137 16 0
2.0869999 -0.21699999 0.92400002 136 16 0
2.095 -0.21699999 0.921 147 16 0
2.0999999 -0.21699999 0.91600001 144 16 0
2.1099999 -0.21799999 0.91299999 143 16 0
2.1140001 -0.21799999 0.90799999 139 16 0
2.1259999 -0.219 0.90600002 148 16 0
2.1300001 -0.219 0.89999998 135 16 0
2.1400001 -0.219 0.89700001 136 16 0
2.1500001 -0.22 0.89399999 144 16 0
2.158 -0.22 0.88999999 138 16 0
2.1600001 -0.22 0.884 140 16 0
2.1760001 -0.221 0.88200003 138 16 0
2.187 -0.221 0.87900001 128 16 0
2.1930001 -0.221 0.875 131 16 0
2.201 -0.222 0.87 134 16 0
2.2119999 -0.222 0.86699998 133 16 0
2.22 -0.222 0.86299998 114 16 0
2.2260001 -0.222 0.85799998 106 16 0
2.2379999 -0.222 0.85500002 113 16 0
2.2490001 -0.223 0.85100001 139 16 0
2.2579999 -0.223 0.847 91 16 0
2.267 -0.223 0.84200001 94 16 0
2.2739999 -0.222 0.83700001 82 16 0
2.2869999 -0.223 0.83399999 83 16 0
2.2969999 -0.223 0.82999998 84 16 0
2.3039999 -0.222 0.82499999 87 16 0
2.3150001 -0.222 0.82099998 81 16 0
2.3310001 -0.223 0.81900001 91 16 0
2.3380001 -0.222 0.81400001 90 16 0
2.3499999 -0.223 0.81 90 16 0
2.3559999 -0.222 0.80400002 91 16 0
2.3670001 -0.222 0.80000001 81 16 0
2.3699999 -0.221 0.79299998 77 16 0
2.385 -0.221 0.79000002 84 16 0
2.395 -0.221 0.78500003 76 16 0
2.408 -0.221 0.78100002 79 16 0
2.4170001 -0.22 0.77600002 58 16 0
2.427 -0.22 0.77100003 62 16 0
2.4400001 -0.22 0.76700002 62 16 0
2.444 -0.21799999 0.75999999 50 16 0
2.46 -0.219 0.75700003 56 16 0
2.471 -0.21799999 0.75199997 55 16 0
2.483 -0.21799999 0.74800003 52 16 0
2.4949999 -0.21699999 0.74299997 51 16 0
2.5009999 -0.21600001 0.736 61 16 0
2.513 -0.21600001 0.73100001 52 16 0
2.5250001 -0.215 0.72600001 47 16 0
2.5369999 -0.214 0.722 33 16 0
2.5469999 -0.214 0.71600002 29 16 0
2.5599999 -0.213 0.71100003 31 16 0
2.569 -0.212 0.70499998 35 16 0
2.5799999 -0.211 0.69999999 47 16 0
2.5899999 -0.20999999 0.69400001 38 16 0
2.608 -0.20999999 0.69 53 16 0
2.619 -0.20900001 0.68400002 46 16 0
2.6270001 -0.208 0.67799997 40 16 0
2.642 -0.207 0.67299998 42 16 0
2.6530001 -0.206 0.667 46 16 0
2.6670001 -0.205 0.662 38 16 0
2.6760001 -0.204 0.65499997 38 16 0
2.6930001 -0.20299999 0.65100002 37 16 0
2.698 -0.20200001 0.64300001 32 16 0
2.7149999 -0.20100001 0.63800001 36 16 0
2.7279999 -0.2 0.63200003 35 16 0
2.7420001 -0.199 0.62699997 35 16 0
2.753 -0.197 0.62099999 35 16 0
2.7679999 -0.19599999 0.61500001 30 16 0
2.7780001 -0.19499999 0.60799998 30 16 0
2.7969999 -0.19400001 0.60299999 29 16 0
2.8099999 -0.193 0.597 29 16 0
2.8239999 -0.191 0.59100002 28 16 0
2.839 -0.19 0.58499998 30 16 0
2.849 -0.18799999 0.57800001 29 16 0
2.862 -0.18700001 0.57099998 30 16 0
2.881 -0.186 0.56599998 29 16 0
2.895 -0.184 0.55900002 29 16 0
2.9100001 -0.182 0.55299997 29 16 0
2.924 -0.18099999 0.546 29 16 0
2.9360001 -0.17900001 0.53899997 30 16 0
2.944 -0.177 0.53100002 29 16 0
2.9690001 -0.176 0.52600002 30 16 0
2.9849999 -0.17399999 0.51899999 30 16 0
2.994 -0.17200001 0.51099998 29 16 0
3.0150001 -0.171 0.505 29 16 0
3.0350001 -0.169 0.49900001 29 16 0
3.0409999 -0.167 0.491 28 16 0
3.0639999 -0.16500001 0.48500001 28 16 0
3.0780001 -0.163 0.477 29 16 0
3.095 -0.161 0.47 29 16 0
3.115 -0.15899999 0.463 30 16 0
3.1329999 -0.15700001 0.456 30 16 0
3.1500001 -0.155 0.44800001 30 16 0
3.168 -0.153 0.44100001 29 16 0
3.188 -0.15099999 0.43399999 30 16 0
3.201 -0.149 0.426 31 16 0
3.2219999 -0.146 0.41800001 32 16 0
3.2420001 -0.14399999 0.41100001 34 16 0
3.2550001 -0.142 0.40200001 38 16 0
3.2720001 -0.139 0.39399999 37 16 0
3.2739999 -0.13600001 0.384 30 16 0
3.28 -0.133 0.375 26 16 0
3.279 -0.13 0.36399999 25 16 0
3.2880001 -0.127 0.35499999 26 16 0
3.289 -0.124 0.345 25 16 0
3.2920001 -0.12 0.33500001 25 16 0
3.302 -0.117 0.32600001 27 16 0
3.2980001 -0.114 0.315 25 16 0
3.302 -0.111 0.30599999 23 16 0
3.306 -0.107 0.296 23 16 0
3.3080001 -0.104 0.285 24 16 0
3.3139999 -0.101 0.27599999 23 16 0
3.3150001 -0.097000003 0.266 23 16 0
3.3199999 -0.093999997 0.25600001 23 16 0
3.323 -0.090000004 0.24600001 23 16 0
3.3280001 -0.086999997 0.236 23 16 0
3.329 -0.083999999 0.226 24 16 0
3.335 -0.079999998 0.21600001 23 16 0
3.3410001 -0.077 0.206 24 16 0
3.3410001 -0.072999999 0.19599999 27 16 0
3.348 -0.07 0.186 38 16 0
3.348 -0.066 0.176 58 16 0
3.3380001 -0.061999999 0.16500001 97 16 0
3.3310001 -0.057999998 0.155 116 16 0
3.332 -0.055 0.145 85 16 0
3.3139999 -0.050999999 0.134 73 16 0
3.312 -0.046999998 0.124 75 16 0
3.303 -0.043000001 0.113 63 16 0
3.2980001 -0.039000001 0.103 71 16 0
3.296 -0.035 0.093000002 79 16 0
3.2909999 -0.032000002 0.082999997 76 16 0
3.2820001 -0.028000001 0.072999999 95 16 0
3.273 -0.024 0.063000001 62 16 0
3.2720001 -0.02 0.052999999 44 16 0
3.2639999 -0.016000001 0.043000001 27 16 0
3.26 -0.012 0.033 20 16 0
3.27 -0.0089999996 0.023 15 16 0
3.2720001 -0.0049999999 0.013 15 16 0
3.279 -0.001 0.003 15 16 0
3.2850001 0.0020000001 -0.0060000001 16 16 0
3.2869999 0.0060000001 -0.016000001 16 16 0
3.2909999 0.0099999998 -0.025 16 16 0
3.3010001 0.014 -0.035999998 17 16 0
3.3050001 0.017999999 -0.045000002 20 16 0
3.306 0.022 -0.055 28 16 0
3.3039999 0.026000001 -0.064999998 38 16 0
3.2920001 0.029999999 -0.075000003 48 16 0
3.286 0.034000002 -0.085000001 47 16 0
3.2780001 0.037999999 -0.093999997 47 16 0
3.27 0.041999999 -0.104 46 16 0
3.266 0.046 -0.114 38 16 0
3.263 0.050000001 -0.123 35 16 0
3.2550001 0.054000001 -0.133 33 16 0
3.2490001 0.057999998 -0.142 37 16 0
3.244 0.061999999 -0.15099999 45 16 0
3.2379999 0.066 -0.161 50 16 0
3.234 0.07 -0.17 49 16 0
3.2290001 0.074000001 -0.18000001 52 16 0
3.2190001 0.078000002 -0.189 61 16 0
3.214 0.082000002 -0.198 58 16 0
3.21 0.086000003 -0.207 57 16 0
3.2 0.090000004 -0.21600001 54 16 0
3.1919999 0.093999997 -0.22499999 54 16 0
3.1889999 0.097999997 -0.234 56 16 0
3.1789999 0.102 -0.243 51 16 0
3.1789999 0.106 -0.252 60 16 0
3.1670001 0.11 -0.26100001 56 16 0
3.161 0.114 -0.27000001 72 16 0
3.1559999 0.118 -0.27900001 62 16 0
3.155 0.122 -0.28799999 74 16 0
3.141 0.126 -0.296 49 16 0
3.1400001 0.13 -0.30500001 54 16 0
3.131 0.134 -0.31400001 52 16 0
3.1170001 0.13699999 -0.32100001 63 16 0
3.1159999 0.142 -0.331 68 16 0
3.112 0.146 -0.33899999 58 16 0
3.1070001 0.15000001 -0.34799999 64 16 0
3.102 0.154 -0.35699999 69 16 0
3.096 0.15800001 -0.36500001 69 16 0
3.0899999 0.162 -0.373 64 16 0
3.085 0.16599999 -0.382 82 16 0
3.076 0.17 -0.38999999 94 16 0
3.069 0.17399999 -0.398 85 16 0
3.0639999 0.178 -0.40599999 79 16 0
3.0539999 0.182 -0.414 90 16 0
3.052 0.186 -0.42300001 75 16 0
3.0450001 0.19 -0.43099999 85 16 0
3.0409999 0.19499999 -0.43900001 91 16 0
3.0380001 0.199 -0.44800001 91 16 0
3.03 0.20299999 -0.45500001 82 16 0
3.0239999 0.207 -0.463 99 16 0
3.0179999 0.211 -0.47099999 81 16 0
3.0079999 0.215 -0.479 80 16 0
3.0050001 0.219 -0.48699999 79 16 0
3.0009999 0.223 -0.495 90 16 0
2.9949999 0.227 -0.50300002 84 16 0
2.994 0.23199999 -0.51200002 79 16 0
2.983 0.236 -0.51800001 79 16 0
2.9790001 0.23999999 -0.52600002 80 16 0
2.971 0.244 -0.53399998 89 16 0
2.9649999 0.248 -0.54100001 91 16 0
2.9630001 0.252 -0.55000001 81 16 0
2.9549999 0.25600001 -0.55699998 91 16 0
2.9530001 0.26100001 -0.565 90 16 0
2.9449999 0.26499999 -0.57200003 114 16 0
2.944 0.26899999 -0.57999998 111 16 0
2.9330001 0.273 -0.58700001 114 16 0
2.9260001 0.27700001 -0.59399998 121 16 0
2.9260001 0.28200001 -0.602 124 16 0
2.914 0.285 -0.60799998 132 16 0
2.9100001 0.28999999 -0.616 124 16 0
2.9000001 0.29300001 -0.62199998 116 16 0
2.8929999 0.29699999 -0.62900001 129 16 0
2.8889999 0.30199999 -0.63700002 120 16 0
2.8840001 0.30599999 -0.64399999 129 16 0
2.878 0.31 -0.65100002 122 16 0
2.8759999 0.315 -0.65899998 125 16 0
2.8699999 0.31900001 -0.66600001 128 16 0
2.8640001 0.32300001 -0.67299998 125 16 0
2.8610001 0.32800001 -0.68000001 132 16 0
2.8529999 0.33199999 -0.68699998 136 16 0
2.846 0.336 -0.69300002 129 16 0
2.8440001 0.34 -0.70099998 128 16 0
2.835 0.34400001 -0.70700002 138 16 0
2.8280001 0.34799999 -0.713 130 16 0
2.8280001 0.35299999 -0.72100002 131 16 0
2.819 0.35699999 -0.727 134 16 0
2.8150001 0.361 -0.73400003 123 16 0
2.8080001 0.366 -0.74000001 139 16 0
2.8050001 0.37 -0.74800003 134 16 0
2.8 0.37400001 -0.75400001 127 16 0
2.7980001 0.37900001 -0.76200002 148 16 0
2.79 0.38299999 -0.76800001 148 16 0
2.783 0.38699999 -0.77399999 132 16 0
2.779 0.39199999 -0.77999997 142 16 0
2.7720001 0.396 -0.78600001 138 16 0
2.7690001 0.40099999 -0.79299998 150 16 0
2.766 0.405 -0.80000001 150 16 0
2.7620001 0.41 -0.80699998 148 16 0
2.7509999 0.41299999 -0.81199998 149 16 0
2.7460001 0.41800001 -0.81800002 149 16 0
2.7409999 0.42199999 -0.824 150 16 0
2.7360001 0.42699999 -0.82999998 150 16 0
2.7290001 0.43099999 -0.83600003 147 16 0
2.7249999 0.435 -0.84200001 150 16 0
2.7219999 0.44 -0.84899998 147 16 0
2.7160001 0.44400001 -0.85500002 146 16 0
2.71 0.449 -0.86000001 150 16 0
2.7060001 0.45300001 -0.86699998 150 16 0
2.704 0.458 -0.87400001 150 16 0
2.6949999 0.46200001 -0.87800002 150 16 0
2.6919999 0.46700001 -0.88499999 150 16 0
2.688 0.47099999 -0.89099997 150 16 0
2.6819999 0.47600001 -0.89600003 150 16 0
2.6730001 0.47999999 -0.90100002 150 16 0
2.668 0.484 -0.90600002 150 16 0
2.665 0.48899999 -0.91299999 150 16 0
2.6619999 0.49399999 -0.91900003 150 16 0
2.6589999 0.49900001 -0.92500001 150 16 0
2.6570001 0.50400001 -0.93199998 92 16 0
2.6589999 0.509 -0.93900001 14 16 0
2.6530001 0.514 -0.94400001 1 16 0
0 0 0 0 16 0
2.674 0.52899998 -0.96700001 0 16 0
2.694 0.53899997 -0.98100001 0 16 0
0 0 0 0 16 0
0 0 0 0 16 0
0 0 0 0 16 0
0 0 0 0 16 0
0 0 0 0 16 0
0 0 0 0 16 0
0 0 0 0 16 0
0 0 0 0 16 0
2.6570001 0.58200002 -1.031 0 16 0
2.5880001 0.57300001 -1.011 4 17 0
2.5840001 0.57800001 -1.016 27 16 0
2.576 0.58099997 -1.0190001 150 16 0
2.569 0.58499998 -1.023 150 16 0
2.5599999 0.58899999 -1.026 150 16 0
2.5569999 0.59399998 -1.031 150 16 0
2.552 0.59899998 -1.036 150 16 0
2.5469999 0.60299999 -1.04 150 16 0
2.543 0.60799998 -1.045 150 16 0
2.54 0.61299998 -1.05 150 16 0
2.536 0.61799997 -1.0549999 150 16 0
2.533 0.62300003 -1.0599999 150 16 0
2.527 0.62699997 -1.063 150 16 0
2.5239999 0.63200003 -1.068 150 16 0
2.52 0.63700002 -1.073 150 16 0
2.517 0.64200002 -1.0779999 150 16 0
2.5109999 0.64600003 -1.081 150 16 0
2.5079999 0.65100002 -1.086 150 16 0
2.507 0.65700001 -1.091 150 16 0
2.497 0.66000003 -1.0930001 150 16 0
2.493 0.66500002 -1.097 150 16 0
2.49 0.67000002 -1.101 150 16 0
2.4779999 0.67199999 -1.102 150 16 0
2.4809999 0.67900002 -1.109 150 16 0
2.4809999 0.685 -1.114 150 16 0
2.467 0.68699998 -1.113 150 16 0
2.464 0.69199997 -1.118 150 16 0
2.4579999 0.69599998 -1.12 150 16 0
2.4560001 0.70099998 -1.125 150 16 0
2.45 0.70499998 -1.127 150 16 0
2.448 0.71100003 -1.132 150 16 0
2.4449999 0.71499997 -1.136 150 16 0
2.438 0.71899998 -1.138 150 16 0
2.4349999 0.72399998 -1.141 150 16 0
2.4319999 0.72899997 -1.145 150 16 0
2.4289999 0.73400003 -1.148 150 16 0
2.4260001 0.73900002 -1.152 150 16 0
2.421 0.74299997 -1.154 150 16 0
2.4159999 0.74800003 -1.1569999 150 16 0
2.4170001 0.75300002 -1.1619999 150 16 0
2.4089999 0.75700003 -1.163 150 16 0
2.4070001 0.76200002 -1.166 150 16 0
2.404 0.76700002 -1.169 150 16 0
2.4000001 0.77100003 -1.1720001 150 16 0
2.398 0.77700001 -1.175 150 16 0
2.3940001 0.78100002 -1.178 150 16 0
2.3900001 0.78600001 -1.1799999 150 16 0
2.388 0.79100001 -1.183 150 16 0
2.3840001 0.79500002 -1.1849999 150 16 0
2.381 0.80000001 -1.188 150 16 0
2.3789999 0.80500001 -1.191 150 16 0
2.3770001 0.81 -1.194 150 16 0
2.368 0.81199998 -1.193 150 16 0
2.368 0.81800002 -1.197 150 16 0
2.3670001 0.82300001 -1.2 150 16 0
2.362 0.82700002 -1.201 150 16 0
2.3570001 0.83099997 -1.202 150 16 0
2.3570001 0.83600003 -1.205 150 16 0
2.352 0.83999997 -1.206 150 16 0
2.3469999 0.84399998 -1.207 150 16 0
2.3440001 0.84799999 -1.2079999 150 16 0
2.3410001 0.85299999 -1.21 150 16 0
2.3440001 0.85900003 -1.215 150 16 0
2.336 0.86199999 -1.214 150 16 0
2.3299999 0.86500001 -1.2130001 150 16 0
2.3299999 0.87 -1.216 150 16 0
2.329 0.875 -1.2180001 150 16 0
2.3269999 0.88 -1.219 150 16 0
2.323 0.884 -1.22 150 16 0
2.322 0.88800001 -1.222 150 16 0
2.316 0.89099997 -1.221 150 16 0
2.3169999 0.89700001 -1.224 150 16 0
2.3110001 0.89999998 -1.223 150 16 0
2.3069999 0.903 -1.223 150 16 0
2.309 0.90899998 -1.225 150 16 0
2.3069999 0.91299999 -1.226 150 16 0
2.303 0.917 -1.226 150 16 0
2.303 0.921 -1.228 150 16 0
2.299 0.92500001 -1.227 150 16 0
2.293 0.92699999 -1.226 150 16 0
2.2939999 0.93199998 -1.227 150 16 0
2.29 0.935 -1.227 150 16 0
2.2920001 0.94099998 -1.229 150 16 0
2.2920001 0.94499999 -1.23 150 16 0
2.303 0.95499998 -1.237 150 19 0
2.3039999 0.95999998 -1.238 151 16 0
2.303 0.96399999 -1.239 151 16 0
2.296 0.96499997 -1.2359999 151 16 0
2.28 0.963 -1.228 150 16 0
2.277 0.96600002 -1.227 150 16 0
2.2750001 0.97000003 -1.226 150 16 0
2.2739999 0.97299999 -1.226 150 16 0
2.2720001 0.977 -1.225 150 16 0
2.2720001 0.98100001 -1.225 150 16 0
2.2709999 0.98400003 -1.224 150 16 0
2.27 0.98799998 -1.224 150 16 0
2.2690001 0.991 -1.223 150 16 0
2.263 0.99199998 -1.22 150 16 0
2.2650001 0.99699998 -1.22 150 16 0
2.2609999 0.99900001 -1.2180001 150 16 0
2.2609999 1.002 -1.217 150 16 0
2.2590001 1.005 -1.216 150 16 0
2.263 1.01 -1.217 150 16 0
2.256 1.011 -1.212 150 16 0
2.2550001 1.0140001 -1.211 150 16 0
2.257 1.018 -1.211 150 16 0
2.26 1.022 -1.211 150 16 0
2.253 1.022 -1.206 150 16 0
2.253 1.025 -1.205 150 16 0
2.2520001 1.028 -1.2029999 150 16 0
2.2520001 1.031 -1.202 150 16 0
2.253 1.034 -1.2 150 16 0
2.2509999 1.036 -1.198 150 16 0
2.2520001 1.039 -1.196 150 16 0
2.2520001 1.041 -1.194 150 16 0
2.2490001 1.0420001 -1.191 150 16 0
2.2520001 1.046 -1.1900001 150 16 0
2.253 1.049 -1.188 150 16 0
2.25 1.05 -1.1849999 150 16 0
2.25 1.052 -1.182 150 16 0
2.2509999 1.054 -1.1799999 150 16 0
2.2509999 1.056 -1.178 150 16 0
2.247 1.056 -1.173 150 16 0
2.2479999 1.058 -1.17 150 16 0
2.2479999 1.0599999 -1.168 150 16 0
2.2520001 1.064 -1.1670001 150 16 0
2.2490001 1.064 -1.1619999 150 16 0
2.25 1.066 -1.16 150 16 0
2.25 1.067 -1.1569999 150 16 0
2.2509999 1.069 -1.154 150 16 0
2.2509999 1.0700001 -1.151 150 16 0
2.253 1.072 -1.148 150 16 0
2.2539999 1.074 -1.145 150 16 0
2.2550001 1.075 -1.142 150 16 0
2.256 1.076 -1.1390001 150 16 0
2.257 1.0779999 -1.136 150 16 0
2.2550001 1.077 -1.131 150 16 0
2.26 1.08 -1.1289999 150 16 0
2.2590001 1.08 -1.125 150 16 0
2.26 1.081 -1.1210001 150 16 0
2.263 1.0829999 -1.119 150 16 0
2.263 1.0829999 -1.115 150 16 0
2.2590001 1.081 -1.108 150 16 0
2.266 1.084 -1.107 150 16 0
2.267 1.085 -1.104 150 16 0
2.2679999 1.085 -1.099 150 16 0
2.2709999 1.086 -1.096 150 16 0
2.27 1.085 -1.091 150 16 0
2.27 1.085 -1.086 150 16 0
2.2709999 1.085 -1.082 150 16 0
2.279 1.0880001 -1.081 150 16 0
2.28 1.0880001 -1.077 150 16 0
2.279 1.087 -1.072 151 16 0
2.2809999 1.087 -1.068 150 16 0
2.2809999 1.086 -1.062 150 16 0
2.283 1.085 -1.058 150 16 0
2.2869999 1.086 -1.0549999 150 16 0
2.289 1.086 -1.051 151 16 0
2.2909999 1.086 -1.0470001 151 16 0
2.2909999 1.084 -1.041 151 16 0
2.296 1.085 -1.038 151 16 0
2.299 1.085 -1.034 150 16 0
2.3 1.084 -1.029 150 16 0
2.306 1.085 -1.026 150 16 0
2.3050001 1.0829999 -1.02 150 16 0
2.3069999 1.082 -1.016 151 16 0
2.309 1.081 -1.011 151 16 0
2.312 1.08 -1.007 150 16 0
2.3139999 1.079 -1.002 150 16 0
2.3139999 1.077 -0.99599999 150 16 0
2.323 1.079 -0.99400002 150 16 0
2.3239999 1.077 -0.98900002 150 16 0
2.325 1.075 -0.98299998 150 16 0
2.332 1.076 -0.98100001 150 16 0
2.3329999 1.073 -0.97500002 150 16 0
2.335 1.072 -0.97000003 151 16 0
2.342 1.072 -0.96700001 151 16 0
2.3429999 1.0700001 -0.96100003 151 16 0
2.346 1.068 -0.95599997 151 16 0
2.349 1.066 -0.95099998 150 16 0
2.3559999 1.067 -0.94800001 150 16 0
2.3540001 1.063 -0.94099998 150 16 0
2.3610001 1.063 -0.93800002 151 16 0
2.3659999 1.062 -0.93400002 150 16 0
2.3729999 1.062 -0.93099999 24 16 0
2.3740001 1.059 -0.92500001 3 16 0
2.381 1.058 -0.921 1 16 0
2.388 1.058 -0.91799998 3 16 0
2.398 1.058 -0.91500002 7 16 0
2.3889999 1.051 -0.90499997 18 16 0
2.3929999 1.049 -0.90100002 32 16 0
2.392 1.045 -0.89399999 118 16 0
2.3929999 1.041 -0.88800001 150 16 0
2.3929999 1.0369999 -0.88200003 151 16 0
2.3959999 1.035 -0.87699997 150 16 0
2.4070001 1.035 -0.87400001 150 16 0
2.4059999 1.031 -0.86699998 151 16 0
2.405 1.026 -0.861 150 16 0
2.414 1.026 -0.85699999 151 16 0
2.4170001 1.023 -0.852 150 16 0
2.421 1.02 -0.847 150 16 0
2.425 1.018 -0.84200001 150 16 0
2.4289999 1.015 -0.83700001 150 16 0
2.4330001 1.012 -0.83200002 150 16 0
2.4349999 1.008 -0.82599998 150 16 0
2.438 1.005 -0.82099998 150 16 0
2.4419999 1.002 -0.81599998 150 16 0
2.4460001 0.99900001 -0.81099999 150 16 0
2.45 0.99599999 -0.80500001 150 16 0
2.4590001 0.995 -0.80199999 150 16 0
2.4560001 0.98900002 -0.79500002 150 16 0
2.4649999 0.98699999 -0.79100001 150 16 0
2.4679999 0.98299998 -0.78600001 150 16 0
2.4719999 0.98000002 -0.77999997 150 16 0
2.4779999 0.977 -0.77600002 150 16 0
2.484 0.97399998 -0.77100003 150 16 0
2.4979999 0.97500002 -0.76899999 151 16 0
2.5150001 0.97600001 -0.76800001 151 16 0
2.517 0.972 -0.76200002 151 16 0
2.513 0.96499997 -0.75400001 150 16 0
2.5020001 0.95499998 -0.74400002 150 16 0
2.5079999 0.95200002 -0.74000001 150 16 0
2.507 0.94599998 -0.73299998 150 16 0
2.513 0.94300002 -0.72799999 150 16 0
2.517 0.93900001 -0.72299999 150 16 0
2.5239999 0.93599999 -0.71899998 150 16 0
2.5280001 0.93199998 -0.713 150 16 0
2.5309999 0.92699999 -0.708 150 16 0
2.5350001 0.92299998 -0.70300001 150 16 0
2.5380001 0.91799998 -0.69700003 150 16 0
2.5420001 0.91399997 -0.69199997 150 16 0
2.55 0.91100001 -0.68800002 150 16 0
2.5539999 0.90700001 -0.68199998 150 16 0
2.559 0.90200001 -0.67699999 150 16 0
2.559 0.89700001 -0.671 150 16 0
2.562 0.89200002 -0.66500002 150 16 0
2.5680001 0.88800001 -0.66000003 150 16 0
2.572 0.88300002 -0.65499997 150 16 0
2.575 0.87800002 -0.64999998 150 16 0
2.579 0.87400001 -0.64399999 150 16 0
2.582 0.86799997 -0.639 150 16 0
2.595 0.866 -0.63499999 150 16 0
2.598 0.861 -0.63 150 16 0
2.605 0.85699999 -0.625 150 16 0
2.6129999 0.85399997 -0.62099999 150 16 0
2.6159999 0.84799999 -0.61500001 150 16 0
2.6210001 0.84399998 -0.61000001 150 16 0
2.622 0.838 -0.60399997 150 16 0
2.628 0.833 -0.59899998 150 16 0
2.6340001 0.82800001 -0.59399998 150 16 0
2.6389999 0.82300001 -0.58899999 150 16 0
2.6459999 0.81900001 -0.58499998 150 16 0
2.6459999 0.81300002 -0.57800001 150 16 0
2.654 0.80900002 -0.574 150 16 0
2.655 0.80199999 -0.56800002 150 16 0
2.6600001 0.79699999 -0.56300002 150 16 0
2.6719999 0.79400003 -0.55900002 150 16 0
2.675 0.78799999 -0.55400002 150 16 0
2.678 0.78200001 -0.54799998 150 16 0
2.6800001 0.77600002 -0.542 150 16 0
2.6900001 0.77200001 -0.53799999 150 16 0
2.6949999 0.76700002 -0.53299999 150 16 0
2.7 0.76099998 -0.528 150 16 0
2.7049999 0.75599998 -0.523 150 16 0
2.7119999 0.75099999 -0.51800001 150 16 0
2.7119999 0.74400002 -0.51200002 150 16 0
2.7190001 0.73900002 -0.50700003 150 16 0
2.723 0.73299998 -0.50199997 150 16 0
2.7290001 0.72799999 -0.49700001 150 16 0
2.7309999 0.72100002 -0.49200001 150 16 0
2.74 0.71600002 -0.48699999 150 16 0
2.74 0.70999998 -0.48100001 150 16 0
2.75 0.70499998 -0.477 150 16 0
2.76 0.69999999 -0.47299999 150 16 0
2.76 0.69300002 -0.46700001 150 16 0
2.773 0.68900001 -0.463 150 16 0
2.776 0.68300003 -0.458 150 16 0
2.779 0.676 -0.45199999 150 16 0
2.783 0.67000002 -0.447 150 16 0
2.7869999 0.66299999 -0.44100001 150 16 0
2.7909999 0.65700001 -0.43599999 150 16 0
2.796 0.65100002 -0.43099999 150 16 0
2.806 0.64600003 -0.42699999 150 16 0
2.812 0.63999999 -0.42199999 150 16 0
2.8139999 0.63300002 -0.41600001 150 16 0
2.8239999 0.62800002 -0.412 150 16 0
2.8239999 0.62 -0.40599999 150 16 0
2.832 0.61500001 -0.40099999 150 16 0
2.8429999 0.60900003 -0.39700001 150 16 0
2.842 0.602 -0.391 150 16 0
2.849 0.59600002 -0.38600001 150 16 0
2.8510001 0.58899999 -0.38100001 150 16 0
2.859 0.58200002 -0.37599999 150 16 0
2.868 0.57700002 -0.37099999 150 16 0
2.8699999 0.56900001 -0.366 150 16 0
2.8789999 0.56300002 -0.361 150 16 0
2.881 0.55599999 -0.35600001 150 16 0
2.8900001 0.55000001 -0.35100001 150 16 0
2.8929999 0.54299998 -0.34599999 150 16 0
2.8989999 0.53600001 -0.34099999 150 16 0
2.911 0.53100002 -0.33700001 150 16 0
2.9159999 0.52399999 -0.33199999 150 16 0
2.918 0.51599997 -0.32600001 150 16 0
2.9289999 0.50999999 -0.322 150 16 0
2.931 0.50300002 -0.31600001 150 16 0
2.938 0.49599999 -0.31099999 150 16 0
2.9430001 0.48899999 -0.30599999 150 16 0
2.9460001 0.48199999 -0.301 150 16 0
2.9549999 0.47499999 -0.296 150 16 0
2.9619999 0.46799999 -0.29100001 150 16 0
2.9630001 0.46000001 -0.28600001 150 16 0
2.97 0.454 -0.28099999 150 16 0
2.9790001 0.447 -0.27599999 150 16 0
2.984 0.44 -0.271 150 16 0
2.99 0.43200001 -0.266 150 16 0
2.997 0.42500001 -0.26100001 150 16 0
2.9990001 0.417 -0.255 150 16 0
3.0050001 0.41 -0.25 150 16 0
3.013 0.403 -0.24600001 150 16 0
3.02 0.39500001 -0.241 150 16 0
3.027 0.38800001 -0.236 150 16 0
3.04 0.38100001 -0.23100001 150 16 0
3.039 0.373 -0.226 150 16 0
3.0450001 0.36500001 -0.221 150 16 0
3.0510001 0.35800001 -0.215 150 16 0
3.0550001 0.34999999 -0.20999999 150 16 0
3.062 0.34200001 -0.205 150 16 0
3.069 0.33500001 -0.2 150 16 0
3.069 0.32600001 -0.19499999 150 16 0
3.082 0.31900001 -0.19 150 16 0
3.0869999 0.31099999 -0.185 150 16 0
3.0940001 0.303 -0.18000001 150 16 0
3.1029999 0.296 -0.175 150 16 0
3.1110001 0.28799999 -0.17 150 16 0
3.115 0.28 -0.16500001 150 16 0
3.1229999 0.27200001 -0.16 132 16 0
3.1270001 0.26300001 -0.155 145 16 0
3.131 0.255 -0.15000001 120 16 0
3.1440001 0.248 -0.145 149 16 0
3.151 0.23899999 -0.14 139 16 0
3.161 0.23100001 -0.13500001 136 16 0
3.1659999 0.223 -0.13 116 16 0
3.1719999 0.215 -0.125 125 16 0
3.1760001 0.206 -0.119 107 16 0
3.1800001 0.197 -0.114 123 16 0
3.1900001 0.189 -0.109 113 16 0
3.2 0.18099999 -0.104 116 16 0
3.2090001 0.17299999 -0.098999999 109 16 0
3.22 0.164 -0.093999997 107 16 0
3.2219999 0.155 -0.089000002 109 16 0
3.23 0.146 -0.083999999 113 16 0
3.237 0.138 -0.078000002 98 16 0
3.2460001 0.12899999 -0.072999999 106 16 0
3.253 0.12 -0.068000004 109 16 0
3.2590001 0.111 -0.063000001 114 16 0
3.267 0.103 -0.057999998 101 16 0
3.2679999 0.093000002 -0.052999999 96 16 0
3.2809999 0.083999999 -0.046999998 95 16 0
3.283 0.075000003 -0.041999999 86 16 0
3.293 0.066 -0.037 72 16 0
3.302 0.057 -0.032000002 46 16 0
3.3 0.048 -0.027000001 100 16 0
3.313 0.039000001 -0.021 87 16 0
3.323 0.028999999 -0.016000001 50 16 0
3.313 0.02 -0.011 23 16 0
3.2980001 0.011 -0.0060000001 19 16 0
3.2780001 0.001 0 19 16 0
3.2609999 -0.0070000002 0.0040000002 20 16 0
3.2460001 -0.016000001 0.0089999996 48 16 0
3.2590001 -0.026000001 0.014 150 16 0
3.266 -0.035 0.018999999 150 16 0
3.2690001 -0.044 0.024 150 16 0
3.277 -0.054000001 0.028999999 150 16 0
3.286 -0.063000001 0.034000002 150 16 0
3.2750001 -0.071999997 0.039000001 36 16 0
3.256 -0.081 0.044 31 16 0
3.24 -0.090000004 0.048999999 30 16 0
3.224 -0.098999999 0.052999999 30 16 0
3.2049999 -0.107 0.057999998 29 16 0
3.187 -0.116 0.061999999 28 16 0
3.171 -0.124 0.067000002 30 16 0
3.155 -0.133 0.071000002 30 16 0
3.1289999 -0.141 0.075000003 29 16 0
3.122 -0.149 0.079999998 29 16 0
3.1040001 -0.15700001 0.083999999 29 16 0
3.089 -0.16599999 0.088 28 16 0
3.073 -0.17399999 0.092 28 16 0
3.0469999 -0.18099999 0.096000001 31 16 0
3.036 -0.189 0.1 31 16 0
3.0220001 -0.197 0.104 31 16 0
2.9979999 -0.204 0.107 32 16 0
2.9849999 -0.212 0.111 31 16 0
2.973 -0.22 0.115 31 16 0
2.9560001 -0.227 0.119 32 16 0
2.944 -0.235 0.122 32 16 0
2.9260001 -0.242 0.126 33 16 0
2.908 -0.249 0.12899999 33 16 0
2.8929999 -0.25600001 0.133 33 16 0
2.8829999 -0.264 0.13600001 34 16 0
2.8670001 -0.271 0.14 32 16 0
2.8469999 -0.27700001 0.14300001 32 16 0
2.8380001 -0.285 0.146 34 16 0
2.8210001 -0.29100001 0.149 35 16 0
2.8050001 -0.29800001 0.152 33 16 0
2.7950001 -0.30500001 0.156 36 16 0
2.7839999 -0.31200001 0.15899999 38 16 0
2.7650001 -0.31799999 0.162 36 16 0
2.757 -0.32600001 0.16500001 38 16 0
2.737 -0.331 0.168 37 16 0
2.7290001 -0.338 0.171 38 16 0
2.717 -0.345 0.17399999 43 16 0
2.7090001 -0.352 0.177 39 16 0
2.6949999 -0.35800001 0.18000001 44 16 0
2.681 -0.36399999 0.182 49 16 0
2.6700001 -0.37099999 0.185 50 16 0
2.651 -0.37599999 0.18700001 41 16 0
2.6370001 -0.382 0.19 42 16 0
2.6240001 -0.38800001 0.192 47 16 0
2.615 -0.39500001 0.19499999 52 16 0
2.598 -0.40000001 0.197 55 16 0
2.5869999 -0.40599999 0.2 49 16 0
2.575 -0.412 0.20200001 56 16 0
2.569 -0.419 0.205 60 16 0
2.553 -0.42399999 0.207 65 16 0
2.5420001 -0.43000001 0.20900001 65 16 0
2.526 -0.435 0.211 64 16 0
2.516 -0.44100001 0.214 65 16 0
2.503 -0.44600001 0.21600001 66 16 0
2.494 -0.45199999 0.21799999 68 16 0
2.4879999 -0.45899999 0.221 67 16 0
2.4719999 -0.46399999 0.223 70 16 0
2.4619999 -0.46900001 0.22499999 71 16 0
2.4530001 -0.47499999 0.227 77 16 0
2.441 -0.47999999 0.229 85 16 0
2.4330001 -0.486 0.23100001 88 16 0
2.4189999 -0.491 0.233 79 16 0
2.408 -0.49599999 0.235 81 16 0
2.3940001 -0.50099999 0.236 82 16 0
2.3840001 -0.50599998 0.23800001 88 16 0
2.369 -0.50999999 0.23899999 87 16 0
2.365 -0.51700002 0.242 91 16 0
2.3529999 -0.52100003 0.243 88 16 0
2.342 -0.52600002 0.245 93 16 0
2.3299999 -0.53100002 0.24600001 80 16 0
2.3180001 -0.53600001 0.248 87 16 0
2.3069999 -0.54000002 0.249 95 16 0
2.3010001 -0.546 0.25099999 94 16 0
2.2920001 -0.551 0.25299999 87 16 0
2.28 -0.55500001 0.25400001 94 16 0
2.263 -0.55800003 0.255 97 16 0
2.257 -0.56400001 0.257 102 16 0
2.2479999 -0.56900001 0.25799999 99 16 0
2.24 -0.574 0.25999999 95 16 0
2.2309999 -0.579 0.26100001 101 16 0
2.2190001 -0.583 0.26199999 103 16 0
2.21 -0.58700001 0.26300001 109 16 0
2.2060001 -0.59299999 0.26499999 110 16 0
2.1919999 -0.597 0.266 98 16 0
2.1830001 -0.60100001 0.26699999 100 16 0
2.1760001 -0.60600001 0.26899999 98 16 0
2.164 -0.61000001 0.27000001 114 16 0
2.1530001 -0.61400002 0.27000001 114 16 0
2.1459999 -0.61900002 0.27200001 112 16 0
2.135 -0.62199998 0.27200001 119 16 0
2.125 -0.62599999 0.273 127 16 0
2.109 -0.62800002 0.273 136 16 0
2.1029999 -0.63300002 0.27500001 122 16 0
2.099 -0.639 0.27599999 122 16 0
2.0880001 -0.64200002 0.27700001 119 16 0
2.0769999 -0.64600003 0.27700001 139 16 0
2.0710001 -0.65100002 0.27900001 150 16 0
2.0569999 -0.653 0.27900001 129 16 0
2.05 -0.65799999 0.28 138 16 0
2.0439999 -0.662 0.28099999 129 16 0
2.033 -0.66500002 0.28099999 132 16 0
2.0239999 -0.66900003 0.28200001 150 16 0
2.0179999 -0.67400002 0.28299999 138 16 0
2.0090001 -0.67699999 0.28299999 142 16 0
2 -0.68099999 0.28400001 148 16 0
1.994 -0.685 0.285 150 16 0
1.982 -0.68800002 0.285 150 16 0
1.974 -0.69199997 0.285 150 16 0
1.966 -0.69499999 0.28600001 150 16 0
1.959 -0.699 0.28600001 150 16 0
1.949 -0.70200002 0.287 150 16 0
1.9450001 -0.70700002 0.28799999 150 16 0
1.933 -0.70899999 0.287 150 16 0
1.927 -0.713 0.28799999 150 16 0
1.9170001 -0.71600002 0.28799999 150 16 0
1.913 -0.72100002 0.289 150 16 0
1.897 -0.72100002 0.28799999 150 16 0
1.892 -0.72500002 0.28799999 150 16 0
1.887 -0.73000002 0.289 150 16 0
1.883 -0.73500001 0.28999999 150 16 0
1.872 -0.736 0.28999999 150 16 0
1.865 -0.74000001 0.28999999 150 16 0
1.862 -0.745 0.29100001 150 16 0
1.857 -0.74900001 0.29100001 150 16 0
1.842 -0.74900001 0.28999999 150 16 0
1.8380001 -0.75400001 0.28999999 150 16 0
1.83 -0.75599998 0.28999999 150 16 0
1.823 -0.75999999 0.28999999 2 0 0
1.8150001 -0.76300001 0.28999999 150 16 0
1.8099999 -0.76700002 0.29100001 150 16 0
1.808 -0.77200001 0.29100001 150 16 0
1.79 -0.76999998 0.289 150 19 0
1.785 -0.77399999 0.289 3 0 0
1.779 -0.77700001 0.289 3 0 0
1.772 -0.77999997 0.289 4 0 0
1.768 -0.78399998 0.289 2 0 0
1.758 -0.78600001 0.289 2 0 0
1.7539999 -0.79000002 0.289 3 0 0
1.747 -0.792 0.28799999 2 0 0
1.7410001 -0.79500002 0.28799999 111 0 0
1.7309999 -0.796 0.287 84 0 0
1.727 -0.80000001 0.28799999 94 0 0
1.72 -0.80199999 0.287 149 0 0
1.712 -0.80500001 0.28600001 109 0 0
1.71 -0.80900002 0.287 95 0 0
1.7 -0.81 0.28600001 103 0 0
1.689 -0.81099999 0.28400001 120 0 0
1.686 -0.815 0.28400001 106 0 0
1.684 -0.81900001 0.285 125 0 0
1.679 -0.82200003 0.28400001 142 0 0
1.676 -0.82599998 0.28400001 117 0 0
1.663 -0.82499999 0.28299999 97 0 0
1.66 -0.829 0.28200001 150 16 0
1.6569999 -0.833 0.28200001 111 0 0
1.641 -0.82999998 0.28 150 3 0
1.6390001 -0.83499998 0.28 133 0 0
1.633 -0.83700001 0.27900001 150 16 0
1.6289999 -0.83999997 0.27900001 150 0 0
1.618 -0.83899999 0.27700001 108 0 0
1.617 -0.84399998 0.27700001 150 16 0
1.607 -0.84399998 0.27500001 150 16 0
1.605 -0.84799999 0.27500001 150 16 0
1.598 -0.84899998 0.27399999 2 0 0
1.591 -0.85100001 0.273 150 16 0
1.589 -0.85399997 0.273 150 0 0
1.582 -0.85600001 0.27200001 150 0 0
1.579 -0.85900003 0.271 2 0 0
1.575 -0.86199999 0.27000001 150 16 0
1.573 -0.86500001 0.27000001 150 0 0
1.5650001 -0.866 0.26800001 115 0 0
1.553 -0.86400002 0.266 142 0 0
1.557 -0.87099999 0.26699999 150 16 0
1.546 -0.87 0.26499999 3 0 0
1.5420001 -0.87199998 0.264 150 0 0
1.539 -0.875 0.26300001 3 0 0
1.538 -0.87900001 0.26300001 150 16 0
1.531 -0.87900001 0.26100001 136 0 0
1.529 -0.88300002 0.25999999 150 16 0
1.524 -0.884 0.259 150 0 0
1.52 -0.88599998 0.25799999 150 0 0
1.515 -0.88800001 0.257 150 0 0
1.51 -0.889 0.255 150 0 0
1.5039999 -0.889 0.25400001 112 0 0
1.5039999 -0.89399999 0.25299999 146 0 0
1.498 -0.89399999 0.252 141 0 0
1.495 -0.89700001 0.25099999 150 0 0
1.488 -0.89700001 0.249 143 0 0
1.4809999 -0.89700001 0.24699999 138 0 0
1.483 -0.90200001 0.24699999 150 0 0
1.477 -0.90200001 0.245 150 0 0
1.473 -0.903 0.244 150 0 0
1.469 -0.90499997 0.242 139 0 0
1.466 -0.90600002 0.241 150 0 0
1.466 -0.91000003 0.23999999 150 0 0
1.4579999 -0.90899998 0.23800001 111 0 0
1.4579999 -0.912 0.237 150 0 0
1.449 -0.91000003 0.235 150 0 0
1.448 -0.91299999 0.234 150 0 0
1.444 -0.91399997 0.23199999 150 0 0
1.441 -0.91600001 0.23100001 144 0 0
1.438 -0.917 0.229 142 0 0
1.436 -0.91900003 0.228 150 0 0
1.4299999 -0.91799998 0.226 150 0 0
1.429 -0.92000002 0.22400001 150 0 0
1.426 -0.92199999 0.223 150 0 0
1.42 -0.921 0.221 115 0 0
1.42 -0.92400002 0.22 148 0 0
1.416 -0.92400002 0.21799999 145 0 0
1.415 -0.926 0.21600001 150 0 0
1.414 -0.92799997 0.215 128 0 0
1.41 -0.92799997 0.213 137 0 0
1.404 -0.92699999 0.211 140 0 0
1.403 -0.92900002 0.20999999 94 0 0
1.397 -0.92699999 0.207 129 3 0
1.393 -0.92699999 0.205 123 0 0
1.396 -0.93099999 0.204 127 0 0
1.393 -0.93199998 0.20299999 150 0 0
1.39 -0.93199998 0.20100001 132 0 0
1.387 -0.93199998 0.199 133 0 0
1.383 -0.93199998 0.197 129 0 0
1.383 -0.93400002 0.19499999 135 0 0
1.382 -0.935 0.193 141 0 0
1.378 -0.93400002 0.192 142 0 0
1.378 -0.93599999 0.19 124 0 0
1.377 -0.93699998 0.18799999 123 0 0
1.375 -0.93699998 0.186 109 0 0
1.373 -0.93800002 0.185 150 0 0
1.37 -0.93699998 0.182 125 0 0
1.37 -0.93800002 0.18099999 126 0 0
1.3660001 -0.93699998 0.17900001 132 0 0
1.3660001 -0.93800002 0.177 150 0 0
1.365 -0.93900001 0.175 108 0 0
1.365 -0.94 0.17299999 125 0 0
1.362 -0.93900001 0.171 104 0 0
1.363 -0.94099998 0.169 136 0 0
1.359 -0.93900001 0.167 129 0 0
1.362 -0.94199997 0.16599999 114 0 0
1.3609999 -0.94199997 0.164 123 0 0
1.357 -0.94 0.161 150 0 0
1.354 -0.93900001 0.15899999 120 0 0
1.354 -0.93900001 0.15700001 134 0 0
1.354 -0.94 0.156 127 0 0
1.353 -0.93900001 0.154 122 0 0
1.354 -0.94 0.152 106 0 0
1.351 -0.93900001 0.15000001 132 0 0
1.351 -0.93900001 0.148 113 0 0
1.351 -0.93900001 0.146 135 0 0
1.352 -0.93900001 0.14399999 105 0 0
1.353 -0.94099998 0.142 138 0 0
1.354 -0.94099998 0.14 134 0 0
1.354 -0.94099998 0.138 150 0 0
1.352 -0.93900001 0.13600001 127 0 0
1.353 -0.93900001 0.134 150 0 0
1.352 -0.93900001 0.132 150 0 0
1.352 -0.93800002 0.13 147 0 0
1.353 -0.93800002 0.12800001 135 0 0
1.353 -0.93800002 0.126 149 0 0
1.354 -0.93699998 0.124 150 0 0
1.354 -0.93699998 0.122 142 0 0
1.353 -0.935 0.12 98 0 0
1.354 -0.935 0.118 143 0 0
1.354 -0.93400002 0.116 139 0 0
1.353 -0.93199998 0.114 150 0 0
1.357 -0.93400002 0.113 150 0 0
1.358 -0.93300003 0.111 103 0 0
1.358 -0.93300003 0.109 150 0 0
1.359 -0.93199998 0.107 108 0 0
1.36 -0.93099999 0.105 150 0 0
1.359 -0.92900002 0.103 135 0 0
1.358 -0.92699999 0.101 127 0 0
1.362 -0.92799997 0.098999999 138 0 0
1.362 -0.926 0.097000003 128 0 0
1.362 -0.92400002 0.094999999 150 0 0
1.368 -0.926 0.093000002 130 0 0
1.364 -0.92199999 0.090999998 146 0 0
1.37 -0.92400002 0.089000002 122 0 0
1.37 -0.92199999 0.086999997 110 0 0
1.37 -0.92000002 0.085000001 130 0 0
1.373 -0.92000002 0.083999999 122 0 0
1.372 -0.917 0.081 150 0 0
1.376 -0.917 0.079999998 140 0 0
1.377 -0.91600001 0.078000002 120 0 0
1.378 -0.91399997 0.075999998 128 0 0
1.3789999 -0.912 0.074000001 115 0 0
1.38 -0.91100001 0.071999997 131 0 0
1.3839999 -0.91100001 0.07 150 0 0
1.385 -0.90899998 0.068000004 150 0 0
1.391 -0.91000003 0.067000002 98 0 0
1.391 -0.90700001 0.064999998 105 0 0
1.3940001 -0.90600002 0.063000001 124 0 0
1.396 -0.90399998 0.061000001 141 0 0
1.399 -0.903 0.059999999 117 0 0
1.404 -0.90399998 0.057999998 113 0 0
1.402 -0.89899999 0.056000002 123 0 0
1.4069999 -0.89899999 0.054000001 115 0 0
1.411 -0.89899999 0.052999999 104 0 0
1.41 -0.89499998 0.050999999 109 0 0
1.4119999 -0.89300001 0.048999999 150 0 0
1.418 -0.89300001 0.046999998 124 0 0
1.419 -0.89099997 0.046 99 0 0
1.421 -0.88800001 0.044 123 0 0
1.425 -0.88800001 0.041999999 142 0 0
1.427 -0.88499999 0.039999999 140 0 0
1.433 -0.88599998 0.039000001 107 0 0
1.4349999 -0.88300002 0.037 118 0 0
1.437 -0.88099998 0.035999998 118 0 0
1.442 -0.88 0.034000002 129 0 0
1.443 -0.87699997 0.032000002 146 0 0
1.443 -0.87300003 0.030999999 77 0 0
1.447 -0.87099999 0.028999999 100 0 0
1.454 -0.87199998 0.027000001 104 0 0
1.4579999 -0.87 0.026000001 113 0 0
1.4630001 -0.86900002 0.024 95 0 0
1.462 -0.86400002 0.023 141 0 0
1.469 -0.86400002 0.021 144 0 0
1.471 -0.86199999 0.02 90 0 0
1.475 -0.86000001 0.017999999 111 0 0
1.48 -0.85900003 0.017000001 75 0 0
1.482 -0.85500002 0.015 149 0 0
1.487 -0.85399997 0.014 124 0 0
1.4910001 -0.852 0.012 128 0 0
1.4960001 -0.85000002 0.011 99 0 0
1.498 -0.847 0.0089999996 129 0 0
1.502 -0.84500003 0.0080000004 123 0 0
1.5089999 -0.84399998 0.0070000002 78 0 0
1.511 -0.84100002 0.0049999999 120 0 0
1.513 -0.83700001 0.0040000002 114 0 0
1.524 -0.838 0.0020000001 73 0 0
1.528 -0.83600003 0.001 96 0 0
1.534 -0.83499998 0 102 0 0
1.536 -0.83099997 -0.001 83 0 0
1.541 -0.829 -0.0020000001 89 0 0
1.543 -0.82499999 -0.003 93 0 0
1.548 -0.82300001 -0.0049999999 61 0 0
1.552 -0.81999999 -0.0060000001 73 0 0
1.559 -0.81900001 -0.0070000002 69 0 0
1.5650001 -0.81699997 -0.0080000004 65 0 0
1.568 -0.81400001 -0.0099999998 61 0 0
1.577 -0.81300002 -0.011 77 0 0
1.5829999 -0.81099999 -0.012 89 0 0
1.585 -0.80699998 -0.013 61 0 0
1.589 -0.80400002 -0.014 97 0 0
1.5930001 -0.801 -0.016000001 83 0 0
1.598 -0.79799998 -0.017000001 69 0 0
1.603 -0.79500002 -0.017999999 58 0 0
1.615 -0.796 -0.018999999 62 0 0
1.619 -0.79299998 -0.02 59 0 0
1.623 -0.79000002 -0.021 61 0 0
1.63 -0.78799999 -0.022 76 0 0
1.6339999 -0.78399998 -0.023 74 0 0
1.641 -0.78200001 -0.025 65 0 0
1.649 -0.77999997 -0.026000001 71 0 0
1.652 -0.77600002 -0.027000001 60 0 0
1.654 -0.77200001 -0.028000001 65 0 0
1.664 -0.77100003 -0.028999999 72 0 0
1.6670001 -0.76700002 -0.029999999 72 0 0
1.677 -0.76599997 -0.030999999 64 0 0
1.682 -0.76200002 -0.032000002 1 0 0
1.6900001 -0.75999999 -0.033 2 0 0
1.6950001 -0.75700003 -0.033 1 0 0
1.701 -0.75400001 -0.034000002 5 0 0
1.7079999 -0.75099999 -0.035 150 16 0
1.717 -0.74900001 -0.035999998 150 16 0
1.722 -0.745 -0.037 50 0 0
1.734 -0.745 -0.037999999 150 16 0
1.737 -0.74000001 -0.039000001 150 16 0
1.744 -0.73799998 -0.039999999 150 16 0
1.747 -0.73299998 -0.039999999 150 16 0
1.761 -0.73299998 -0.041000001 54 0 0
1.766 -0.72899997 -0.041999999 45 0 0
1.772 -0.72500002 -0.043000001 150 16 0
1.775 -0.72100002 -0.044 150 16 0
1.781 -0.71700001 -0.044 34 0 0
1.7920001 -0.71499997 -0.045000002 45 0 0
1.799 -0.71200001 -0.046 39 0 0
1.8049999 -0.708 -0.046 1 0 0
1.813 -0.70499998 -0.046999998 1 0 0
1.819 -0.70099998 -0.048 1 0 0
1.827 -0.69800001 -0.048 1 0 0
1.834 -0.69400001 -0.048999999 2 0 0
1.842 -0.69099998 -0.050000001 2 0 0
1.853 -0.68900001 -0.050000001 2 0 0
1.859 -0.685 -0.050999999 1 0 0
1.865 -0.68099999 -0.050999999 1 0 0
1.874 -0.67799997 -0.052000001 1 0 0
1.876 -0.67199999 -0.052000001 1 0 0
1.888 -0.67000002 -0.052999999 1 0 0
1.899 -0.667 -0.054000001 1 0 0
1.91 -0.66500002 -0.054000001 1 0 0
1.913 -0.65899998 -0.055 137 16 0
1.92 -0.65499997 -0.055 125 16 0
1.927 -0.65100002 -0.056000002 120 16 0
1.9299999 -0.64600003 -0.056000002 112 16 0
1.939 -0.64200002 -0.056000002 111 16 0
1.957 -0.64099997 -0.057 119 19 0
1.965 -0.63700002 -0.057 115 16 0
1.972 -0.63300002 -0.057999998 112 16 0
1.983 -0.63 -0.057999998 112 16 0
1.99 -0.625 -0.057999998 108 16 0
1.998 -0.62099999 -0.059 121 16 0
2.01 -0.61799997 -0.059 122 16 0
2.0179999 -0.61400002 -0.059 116 16 0
2.023 -0.60799998 -0.059999999 121 16 0
2.036 -0.60500002 -0.059999999 108 16 0
2.0480001 -0.602 -0.059999999 105 16 0
2.0539999 -0.59600002 -0.059999999 108 16 0
2.0669999 -0.59299999 -0.061000001 101 16 0
2.0739999 -0.588 -0.061000001 98 16 0
2.0840001 -0.58399999 -0.061000001 101 16 0
2.095 -0.57999998 -0.061000001 98 16 0
2.0999999 -0.57499999 -0.061000001 94 16 0
2.1159999 -0.57200003 -0.061999999 92 16 0
2.1240001 -0.56699997 -0.061999999 90 16 0
2.138 -0.56400001 -0.061999999 97 16 0
2.145 -0.55800003 -0.061999999 89 16 0
2.154 -0.55299997 -0.061999999 85 16 0
2.161 -0.54799998 -0.061999999 86 16 0
2.1819999 -0.546 -0.061999999 94 19 0
2.1930001 -0.54100001 -0.061999999 81 16 0
2.204 -0.537 -0.061999999 83 16 0
2.2119999 -0.53100002 -0.061999999 79 16 0
2.2219999 -0.52600002 -0.061999999 73 16 0
2.234 -0.52200001 -0.061999999 77 16 0
2.2449999 -0.51700002 -0.061999999 72 16 0
2.2550001 -0.51200002 -0.061999999 73 16 0
2.2679999 -0.50700003 -0.061999999 54 16 0
2.277 -0.50099999 -0.061999999 58 16 0
2.286 -0.49599999 -0.061999999 50 16 0
2.3039999 -0.49200001 -0.061999999 52 16 0
2.3139999 -0.48699999 -0.061999999 53 16 0
2.3299999 -0.48199999 -0.061999999 53 16 0
2.336 -0.47600001 -0.061000001 48 16 0
2.3529999 -0.47099999 -0.061000001 57 16 0
2.3599999 -0.465 -0.061000001 48 16 0
2.3740001 -0.46000001 -0.059999999 36 16 0
2.3900001 -0.45500001 -0.059999999 54 16 0
2.405 -0.44999999 -0.059999999 46 16 0
2.414 -0.44400001 -0.059999999 54 16 0
2.425 -0.43799999 -0.059 54 16 0
2.4400001 -0.43200001 -0.059 50 16 0
2.4560001 -0.42699999 -0.059 48 16 0
2.467 -0.421 -0.057999998 43 16 0
2.4809999 -0.41499999 -0.057999998 45 16 0
2.4909999 -0.40900001 -0.057 36 16 0
2.507 -0.403 -0.057 38 16 0
2.52 -0.39700001 -0.056000002 32 16 0
2.5320001 -0.391 -0.056000002 34 16 0
2.5469999 -0.38499999 -0.055 32 16 0
2.5610001 -0.37799999 -0.055 33 16 0
2.5710001 -0.37099999 -0.054000001 30 16 0
2.5899999 -0.366 -0.054000001 33 16 0
2.6010001 -0.359 -0.052999999 33 16 0
2.618 -0.35299999 -0.052000001 31 16 0
2.632 -0.34599999 -0.052000001 33 16 0
2.6459999 -0.33899999 -0.050999999 33 16 0
2.671 -0.33399999 -0.050000001 33 16 0
2.678 -0.32600001 -0.050000001 32 16 0
2.6960001 -0.31900001 -0.048999999 33 16 0
2.7179999 -0.31299999 -0.048 32 16 0
2.724 -0.30500001 -0.046999998 31 16 0
2.737 -0.29800001 -0.046 31 16 0
2.756 -0.29100001 -0.046 30 16 0
2.77 -0.28299999 -0.045000002 28 16 0
2.7869999 -0.27599999 -0.044 28 16 0
2.803 -0.26899999 -0.043000001 29 16 0
2.823 -0.26100001 -0.041999999 28 16 0
2.842 -0.25400001 -0.041000001 28 16 0
2.8559999 -0.24600001 -0.039999999 27 16 0
2.8740001 -0.23800001 -0.039000001 28 16 0
2.8889999 -0.23 -0.037999999 28 16 0
2.9100001 -0.222 -0.037 26 16 0
2.9260001 -0.214 -0.035 25 16 0
2.95 -0.207 -0.034000002 26 16 0
2.9630001 -0.198 -0.033 25 16 0
2.9820001 -0.19 -0.032000002 25 16 0
3.003 -0.18099999 -0.030999999 25 16 0
3.017 -0.17200001 -0.028999999 25 16 0
3.0510001 -0.16500001 -0.028000001 26 16 0
3.073 -0.156 -0.027000001 26 16 0
3.089 -0.147 -0.025 25 16 0
3.112 -0.138 -0.024 25 16 0
3.1289999 -0.12899999 -0.022 27 16 0
3.1570001 -0.12 -0.021 27 16 0
3.178 -0.11 -0.018999999 26 16 0
3.197 -0.101 -0.017999999 26 16 0
3.2190001 -0.090999998 -0.016000001 26 16 0
3.244 -0.082000002 -0.014 28 16 0
3.2650001 -0.071999997 -0.013 47 16 0
3.263 -0.061000001 -0.011 150 16 0
3.2609999 -0.050999999 -0.0089999996 130 16 0
3.257 -0.041000001 -0.0070000002 126 16 0
3.2539999 -0.029999999 -0.0049999999 129 16 0
3.2449999 -0.02 -0.003 49 16 0
3.2590001 -0.0099999998 -0.001 19 16 0
3.276 0 0 17 16 0
3.3080001 0.0099999998 0.0020000001 18 16 0
3.3299999 0.021 0.0040000002 25 16 0
3.3299999 0.032000002 0.0060000001 48 16 0
3.323 0.041999999 0.0080000004 51 16 0
3.3210001 0.052999999 0.0099999998 41 16 0
3.3180001 0.063000001 0.012 47 16 0
3.316 0.074000001 0.014 55 16 0
3.3080001 0.083999999 0.016000001 55 16 0
3.3039999 0.093999997 0.017999999 54 16 0
3.3 0.105 0.02 53 16 0
3.2920001 0.115 0.022 63 16 0
3.29 0.125 0.024 56 16 0
3.2739999 0.13500001 0.027000001 47 16 0
3.2490001 0.14399999 0.028999999 28 16 0
3.2409999 0.154 0.030999999 25 16 0
3.234 0.164 0.033 24 16 0
3.233 0.175 0.035 24 16 0
3.224 0.184 0.037 24 16 0
3.2190001 0.19400001 0.039000001 25 16 0
3.207 0.204 0.041000001 26 16 0
3.1930001 0.213 0.044 51 16 0
3.191 0.223 0.046 121 16 0
3.1930001 0.233 0.048 49 16 0
3.1919999 0.243 0.050000001 28 16 0
3.1830001 0.252 0.052999999 27 16 0
3.1800001 0.26199999 0.055 27 16 0
3.1730001 0.27200001 0.057 29 16 0
3.171 0.28200001 0.059999999 30 16 0
3.1659999 0.29100001 0.061999999 31 16 0
3.165 0.301 0.064000003 32 16 0
3.152 0.31 0.066 33 16 0
3.145 0.31900001 0.068999998 35 16 0
3.142 0.329 0.071000002 36 16 0
3.1370001 0.338 0.072999999 38 16 0
3.1329999 0.34799999 0.075999998 36 16 0
3.1470001 0.359 0.079000004 20 16 0
3.1849999 0.37400001 0.082000002 35 16 0
3.1860001 0.384 0.085000001 122 16 0
3.1830001 0.39300001 0.086999997 98 16 0
3.1789999 0.403 0.090000004 92 16 0
3.1730001 0.412 0.092 98 16 0
3.1700001 0.42199999 0.094999999 105 16 0
3.1689999 0.43200001 0.097999997 96 16 0
3.1670001 0.442 0.1 101 16 0
3.1600001 0.45100001 0.103 89 16 0
3.155 0.46000001 0.105 109 16 0
3.1530001 0.47 0.108 104 16 0
3.148 0.479 0.111 91 16 0
3.1440001 0.48800001 0.113 95 16 0
3.138 0.49700001 0.116 104 16 0
3.135 0.50599998 0.119 90 16 0
3.132 0.51599997 0.121 94 16 0
3.1300001 0.52600002 0.124 90 16 0
3.125 0.53500003 0.127 96 16 0
3.1229999 0.54400003 0.13 65 16 0
3.1210001 0.55400002 0.132 63 16 0
3.1099999 0.56199998 0.13500001 53 16 0
3.109 0.57099998 0.138 54 16 0
3.109 0.58099997 0.141 49 16 0
3.108 0.59100002 0.14399999 49 16 0
3.1029999 0.59899998 0.146 49 16 0
3.1010001 0.60900003 0.149 48 16 0
3.096 0.61799997 0.152 50 16 0
3.0940001 0.62699997 0.155 51 16 0
3.089 0.63599998 0.15800001 50 16 0
3.0840001 0.64499998 0.161 64 16 0
3.0799999 0.653 0.164 76 16 0
3.073 0.662 0.167 117 16 0
3.069 0.671 0.17 116 16 0
3.069 0.68000001 0.17299999 128 16 0
3.0550001 0.68699998 0.175 136 16 0
3.0569999 0.69700003 0.17900001 123 16 0
3.0550001 0.70599997 0.182 135 16 0
3.0480001 0.71399999 0.184 144 16 0
3.0480001 0.72399998 0.18799999 141 16 0
3.0420001 0.73199999 0.191 140 16 0
3.043 0.74199998 0.19400001 150 16 0
3.0409999 0.75099999 0.197 150 16 0
3.0380001 0.75999999 0.20100001 141 16 0
3.0380001 0.76899999 0.204 143 16 0
3.029 0.77700001 0.207 127 16 0
3.0220001 0.78500003 0.20999999 103 16 0
3.0220001 0.79400003 0.213 98 16 0
3.0139999 0.80199999 0.21600001 72 16 0
3.0079999 0.80900002 0.219 46 16 0
3.0020001 0.81699997 0.222 41 16 0
2.993 0.824 0.22499999 36 16 0
2.9879999 0.83200002 0.228 35 16 0
2.987 0.84200001 0.23199999 36 16 0
2.974 0.847 0.234 33 16 0
2.9679999 0.85500002 0.237 32 16 0
2.9619999 0.86199999 0.241 33 16 0
2.9530001 0.86900002 0.244 33 16 0
2.9449999 0.87599999 0.24600001 32 16 0
2.9360001 0.88300002 0.249 33 16 0
2.927 0.889 0.252 32 16 0
2.9219999 0.89700001 0.25600001 33 16 0
2.9130001 0.903 0.25799999 33 16 0
2.904 0.90899998 0.26199999 33 16 0
2.8989999 0.917 0.26499999 35 16 0
2.892 0.92400002 0.26800001 36 16 0
2.882 0.93000001 0.271 41 16 0
2.8759999 0.93699998 0.27399999 47 16 0
2.8710001 0.94400001 0.27700001 77 16 0
2.8599999 0.949 0.28 112 16 0
2.859 0.958 0.28400001 150 16 0
2.8570001 0.96600002 0.28799999 150 16 0
2.852 0.97299999 0.29100001 150 16 0
2.8529999 0.98199999 0.29499999 150 16 0
2.849 0.99000001 0.29899999 150 16 0
2.8469999 0.99800003 0.303 150 16 0
2.842 1.005 0.30599999 150 16 0
2.8410001 1.013 0.31 150 16 0
2.8369999 1.021 0.31400001 150 16 0
2.8340001 1.028 0.317 150 16 0
2.8310001 1.036 0.32100001 150 16 0
2.832 1.045 0.32499999 150 16 0
2.832 1.054 0.33000001 150 16 0
2.8269999 1.061 0.333 150 16 0
2.8239999 1.068 0.33700001 150 16 0
2.825 1.077 0.34099999 150 16 0
2.8180001 1.0829999 0.345 150 16 0
2.8139999 1.09 0.34900001 150 16 0
2.8150001 1.099 0.35299999 150 16 0
2.8139999 1.107 0.35699999 150 16 0
2.8080001 1.114 0.361 150 16 0
2.812 1.124 0.366 150 16 0
2.8099999 1.131 0.37 150 16 0
2.8039999 1.137 0.37400001 150 16 0
2.8010001 1.145 0.37799999 150 16 0
2.799 1.152 0.382 150 16 0
2.796 1.159 0.38600001 150 16 0
2.7950001 1.1670001 0.391 150 16 0
2.7920001 1.174 0.39500001 150 16 0
2.7880001 1.181 0.39899999 150 16 0
2.7880001 1.189 0.403 150 16 0
2.7869999 1.197 0.40799999 150 16 0
2.783 1.2029999 0.412 150 16 0
2.78 1.21 0.41600001 150 16 0
2.7780001 1.217 0.421 150 16 0
2.773 1.223 0.42500001 150 16 0
2.7780001 1.234 0.43000001 150 16 0
2.777 1.2410001 0.435 150 16 0
2.7709999 1.247 0.43900001 150 16 0
2.776 1.257 0.44400001 150 16 0
2.7709999 1.263 0.449 150 16 0
2.7679999 1.2690001 0.45300001 150 16 0
2.767 1.276 0.458 150 16 0
2.7639999 1.283 0.46200001 150 16 0
2.763 1.29 0.46700001 150 16 0
2.7620001 1.2970001 0.472 150 16 0
2.7579999 1.303 0.47600001 150 16 0
2.7579999 1.311 0.48100001 150 16 0
2.757 1.318 0.486 150 16 0
2.7579999 1.326 0.491 150 16 0
2.753 1.331 0.49599999 150 16 0
2.757 1.34 0.50199997 150 16 0
2.7550001 1.347 0.50599998 150 16 0
2.7520001 1.352 0.51099998 150 16 0
