# .PCD v0.7 - Point Cloud Data file format
VERSION 0.7
FIELDS x y z intensity tag line
SIZE 4 4 4 4 1 1
TYPE F F F F U U
COUNT 1 1 1 1 1 1
WIDTH 1362
HEIGHT 1
VIEWPOINT 0 0 0 1 0 0 0
POINTS 1362
DATA ascii
2.579 1.679 0.667 34 16 0
2.5710001 1.674 0.66900003 34 16 0
2.5669999 1.671 0.671 34 16 0
2.5639999 1.669 0.67400002 34 16 0
2.5539999 1.6619999 0.67500001 34 19 0
2.5539999 1.661 0.67900002 34 16 0
2.5450001 1.655 0.68000001 34 16 0
2.5420001 1.652 0.68300003 35 16 0
2.5380001 1.649 0.685 34 16 0
2.5339999 1.645 0.68800002 34 16 0
2.529 1.64 0.69 34 16 0
2.5250001 1.636 0.69199997 34 16 0
2.5220001 1.633 0.69400001 36 16 0
2.51 1.624 0.69400001 34 18 0
2.51 1.622 0.69700003 35 16 0
2.507 1.618 0.69999999 36 16 0
2.503 1.613 0.70099998 35 16 0
2.497 1.608 0.70300001 36 16 0
2.494 1.604 0.70499998 36 16 0
2.4879999 1.597 0.70599997 35 16 0
2.487 1.594 0.708 36 16 0
2.4760001 1.585 0.708 34 18 0
2.4719999 1.579 0.70899999 35 16 0
2.4719999 1.577 0.71200001 35 16 0
2.4679999 1.571 0.713 37 16 0
2.4679999 1.568 0.71600002 37 16 0
2.464 1.562 0.71700001 37 16 0
2.4649999 1.5599999 0.71899998 38 16 0
2.4590001 1.553 0.72000003 36 16 0
2.4579999 1.548 0.722 37 16 0
2.4549999 1.543 0.72299999 38 16 0
2.4489999 1.535 0.72299999 38 16 0
2.448 1.531 0.72500002 38 16 0
2.448 1.527 0.727 39 16 0
2.441 1.5190001 0.72600001 38 16 0
2.4419999 1.516 0.72799999 38 16 0
2.444 1.512 0.73100001 39 16 0
2.4389999 1.505 0.73100001 39 16 0
2.437 1.499 0.73199999 39 16 0
2.438 1.495 0.73299998 40 16 0
2.428 1.485 0.73199999 39 19 0
2.4300001 1.482 0.73400003 37 16 0
2.427 1.475 0.73400003 41 16 0
2.424 1.4680001 0.73400003 41 16 0
2.4230001 1.4630001 0.73500001 41 16 0
2.425 1.459 0.73699999 43 16 0
2.424 1.454 0.73699999 42 16 0
2.4200001 1.446 0.73699999 42 16 0
2.4219999 1.441 0.73799998 43 16 0
2.414 1.432 0.73699999 41 16 0
2.421 1.4299999 0.73900002 42 16 0
2.4260001 1.428 0.74199998 43 16 0
2.415 1.416 0.73900002 42 19 0
2.4189999 1.4119999 0.741 46 16 0
2.4189999 1.406 0.741 41 16 0
2.4189999 1.401 0.741 42 16 0
2.421 1.396 0.74199998 45 16 0
2.4200001 1.39 0.74199998 47 16 0
2.415 1.381 0.741 39 16 0
2.4189999 1.377 0.74199998 38 16 0
2.418 1.37 0.74199998 38 16 0
2.4170001 1.364 0.741 38 16 0
2.4219999 1.36 0.74299997 39 16 0
2.4170001 1.351 0.741 39 16 0
2.418 1.345 0.741 39 16 0
2.4200001 1.34 0.741 43 16 0
2.4219999 1.335 0.74199998 41 16 0
2.4200001 1.327 0.74000001 40 16 0
2.4219999 1.321 0.74000001 38 16 0
2.4230001 1.3150001 0.74000001 42 16 0
2.424 1.3099999 0.74000001 39 16 0
2.425 1.303 0.73900002 41 16 0
2.4260001 1.2970001 0.73900002 40 16 0
2.4260001 1.29 0.73799998 40 16 0
2.431 1.286 0.73900002 40 16 0
2.434 1.28 0.73900002 40 16 0
2.4300001 1.272 0.73699999 43 16 0
2.4330001 1.266 0.736 48 16 0
2.4360001 1.261 0.736 43 16 0
2.4389999 1.255 0.736 47 16 0
2.4349999 1.2460001 0.73299998 42 16 0
2.444 1.243 0.73400003 45 16 0
2.441 1.235 0.73199999 46 16 0
2.447 1.23 0.73299998 47 16 0
2.448 1.223 0.73100001 45 16 0
2.448 1.216 0.73000002 47 16 0
2.451 1.21 0.72899997 52 16 0
2.457 1.206 0.72899997 45 16 0
2.457 1.199 0.72799999 51 16 0
2.46 1.193 0.727 48 16 0
2.4630001 1.186 0.72600001 50 16 0
2.461 1.178 0.72299999 48 16 0
2.467 1.174 0.72299999 56 16 0
2.47 1.1670001 0.722 61 16 0
2.4749999 1.1619999 0.72100002 57 16 0
2.477 1.155 0.72000003 57 16 0
2.4790001 1.149 0.71799999 58 16 0
2.483 1.143 0.71700001 54 16 0
2.4879999 1.138 0.71600002 54 16 0
2.4890001 1.13 0.71399999 62 16 0
2.4949999 1.125 0.713 61 16 0
2.4979999 1.119 0.71200001 58 16 0
2.5039999 1.114 0.71100003 68 16 0
2.5079999 1.108 0.70999998 74 16 0
2.5079999 1.1 0.70700002 55 16 0
2.5109999 1.0930001 0.70499998 58 16 0
2.5139999 1.087 0.704 58 16 0
2.5209999 1.082 0.70300001 63 16 0
2.5250001 1.076 0.70099998 69 16 0
2.5250001 1.068 0.69800001 57 16 0
2.533 1.063 0.69800001 66 16 0
2.536 1.057 0.69599998 65 16 0
2.539 1.05 0.69300002 64 16 0
2.5450001 1.044 0.69199997 65 16 0
2.5480001 1.038 0.69 68 16 0
2.552 1.0319999 0.68800002 62 16 0
2.5569999 1.026 0.68599999 70 16 0
2.562 1.02 0.68400002 69 16 0
2.5650001 1.013 0.68199998 67 16 0
2.569 1.006 0.67900002 58 16 0
2.575 1.001 0.67799997 53 16 0
2.5780001 0.99400002 0.67500001 52 16 0
2.5840001 0.98799998 0.67299998 64 16 0
2.5929999 0.98299998 0.67199999 56 16 0
2.599 0.97799999 0.67000002 59 16 0
2.602 0.97100002 0.66799998 60 16 0
2.6070001 0.96499997 0.66500002 60 16 0
2.608 0.95700002 0.662 58 16 0
2.619 0.95300001 0.66100001 63 16 0
2.622 0.94599998 0.65799999 41 16 0
2.6270001 0.94 0.65600002 42 16 0
2.6340001 0.93400002 0.65399998 42 16 0
2.642 0.92799997 0.65200001 41 16 0
2.645 0.921 0.64899999 41 16 0
2.652 0.91600001 0.64700001 41 16 0
2.6559999 0.90899998 0.64399999 42 16 0
2.6619999 0.903 0.64099997 40 16 0
2.671 0.898 0.639 47 16 0
2.674 0.88999999 0.63599998 41 16 0
2.6819999 0.88499999 0.634 41 16 0
2.691 0.88 0.63200003 43 16 0
2.6949999 0.87300003 0.62800002 41 16 0
2.698 0.866 0.625 42 16 0
2.707 0.86000001 0.62300003 42 16 0
2.7160001 0.85500002 0.62099999 51 16 0
2.7190001 0.84799999 0.61699998 41 16 0
2.727 0.84200001 0.61400002 41 16 0
2.74 0.838 0.61299998 42 16 0
2.737 0.829 0.60799998 40 16 0
2.7479999 0.824 0.60600001 42 16 0
2.7579999 0.81800002 0.60299999 44 16 0
2.763 0.81199998 0.60000002 41 16 0
2.77 0.80599999 0.597 41 16 0
2.773 0.79799998 0.59299999 41 16 0
2.7839999 0.79299998 0.59100002 40 16 0
2.7880001 0.78600001 0.58700001 40 16 0
2.8 0.78100002 0.58499998 40 16 0
2.803 0.77399999 0.58099997 39 16 0
2.816 0.76899999 0.579 42 16 0
2.823 0.76200002 0.57499999 40 16 0
2.829 0.75599998 0.57099998 39 16 0
2.8380001 0.75 0.56800002 39 16 0
2.8410001 0.74199998 0.56400001 42 16 0
2.8499999 0.736 0.56099999 41 16 0
2.8610001 0.73100001 0.55800003 40 16 0
2.8710001 0.72500002 0.55500001 35 16 0
2.8759999 0.71799999 0.551 34 16 0
2.8900001 0.71399999 0.54799998 37 16 0
2.8959999 0.70700002 0.54400003 36 16 0
2.905 0.69999999 0.54100001 35 16 0
2.9130001 0.69400001 0.537 33 16 0
2.921 0.68699998 0.53299999 35 16 0
2.928 0.68099999 0.52899998 35 16 0
2.9430001 0.676 0.52700001 35 16 0
2.947 0.66799998 0.52200001 35 16 0
2.96 0.66299999 0.51899999 33 16 0
2.9660001 0.65600002 0.51499999 35 16 0
2.9809999 0.65100002 0.51200002 35 16 0
2.9860001 0.64300001 0.50700003 34 16 0
2.9949999 0.63700002 0.50300002 34 16 0
3.0039999 0.63 0.49900001 34 16 0
3.013 0.62400001 0.495 34 16 0
3.0239999 0.61799997 0.491 33 16 0
3.0320001 0.611 0.48699999 34 16 0
3.0439999 0.60500002 0.48300001 32 16 0
3.0539999 0.59799999 0.479 34 16 0
3.0639999 0.59200001 0.47499999 35 16 0
3.069 0.58399999 0.47 35 16 0
3.0869999 0.579 0.46700001 36 16 0
3.099 0.57300001 0.46200001 35 16 0
3.1010001 0.565 0.45699999 34 16 0
3.1170001 0.55900002 0.45300001 36 16 0
3.1270001 0.55299997 0.449 42 16 0
3.135 0.546 0.44400001 80 16 0
3.145 0.53899997 0.43900001 142 16 0
3.1459999 0.52999997 0.433 150 16 0
3.148 0.52200001 0.42699999 150 16 0
3.155 0.51499999 0.42199999 150 16 0
3.1570001 0.50700003 0.417 150 16 0
3.1559999 0.498 0.41 142 16 0
3.1589999 0.49000001 0.40400001 150 16 0
3.161 0.48199999 0.39899999 144 16 0
3.1619999 0.47400001 0.39300001 128 16 0
3.165 0.46599999 0.38699999 150 16 0
3.1670001 0.458 0.38100001 147 16 0
3.168 0.449 0.37400001 144 16 0
3.1689999 0.44100001 0.368 141 16 0
3.1719999 0.433 0.36300001 134 16 0
3.1719999 0.42500001 0.35600001 145 16 0
3.175 0.417 0.34999999 150 16 0
3.1760001 0.40900001 0.34400001 137 16 0
3.1719999 0.40000001 0.33700001 111 16 0
3.1800001 0.39300001 0.33199999 147 16 0
3.181 0.384 0.32499999 126 16 0
3.177 0.37599999 0.31900001 133 16 0
3.184 0.368 0.31299999 121 16 0
3.1819999 0.36000001 0.30599999 131 16 0
3.187 0.352 0.30000001 121 16 0
3.1889999 0.34400001 0.294 124 16 0
3.1900001 0.336 0.28799999 116 16 0
3.191 0.32800001 0.28099999 111 16 0
3.1930001 0.31999999 0.27500001 141 16 0
3.1889999 0.31099999 0.26800001 121 16 0
3.1900001 0.303 0.26199999 127 16 0
3.198 0.296 0.25600001 123 16 0
3.198 0.28799999 0.249 121 16 0
3.194 0.27900001 0.242 127 16 0
3.2 0.27200001 0.236 116 16 0
3.201 0.264 0.23 116 16 0
3.2019999 0.25600001 0.223 111 16 0
3.204 0.248 0.21600001 121 16 0
3.2049999 0.23999999 0.20999999 108 16 0
3.201 0.23199999 0.20299999 127 16 0
3.1800001 0.222 0.19499999 51 16 0
3.1289999 0.211 0.185 31 16 0
3.1760001 0.206 0.182 44 16 0
3.1300001 0.19499999 0.17200001 24 16 0
3.138 0.18799999 0.16599999 22 16 0
3.2 0.184 0.163 53 18 0
3.2119999 0.177 0.15700001 105 16 0
3.2130001 0.169 0.15000001 89 16 0
3.2149999 0.161 0.14300001 49 16 0
3.227 0.153 0.13699999 35 16 0
3.247 0.146 0.131 29 16 0
3.263 0.139 0.125 29 16 0
3.2780001 0.132 0.118 29 16 0
3.293 0.124 0.112 28 16 0
3.312 0.117 0.105 31 16 0
3.3199999 0.109 0.097999997 44 16 0
3.3329999 0.101 0.092 81 16 0
3.325 0.093000002 0.083999999 62 16 0
3.3340001 0.085000001 0.077 14 16 0
3.3069999 0.077 0.068999998 1 16 0
3.2969999 0.068000004 0.061999999 0 16 0
3.2950001 0.059999999 0.055 4 16 0
3.336 0.052999999 0.048 15 19 0
3.3310001 0.045000002 0.041000001 47 16 0
3.336 0.037 0.034000002 56 16 0
3.3410001 0.028999999 0.027000001 48 16 0
3.3329999 0.021 0.018999999 25 16 0
3.3080001 0.013 0.012 18 16 0
3.296 0.0049999999 0.0049999999 17 16 0
3.27 -0.0020000001 -0.001 16 16 0
3.25 -0.0089999996 -0.0089999996 17 16 0
3.233 -0.017000001 -0.016000001 31 16 0
3.2349999 -0.025 -0.023 91 16 0
3.2390001 -0.032000002 -0.029999999 103 16 0
3.2349999 -0.039999999 -0.037 110 16 0
3.24 -0.048 -0.044 114 16 0
3.2420001 -0.055 -0.052000001 119 16 0
3.2379999 -0.063000001 -0.059 150 16 0
3.2390001 -0.07 -0.066 73 16 0
3.221 -0.078000002 -0.072999999 29 16 0
3.207 -0.085000001 -0.079999998 26 16 0
3.1860001 -0.092 -0.086000003 26 16 0
3.1719999 -0.098999999 -0.093000002 26 16 0
3.1489999 -0.105 -0.1 26 16 0
3.1329999 -0.112 -0.106 26 16 0
3.1099999 -0.118 -0.112 24 16 0
3.0940001 -0.125 -0.119 25 16 0
3.079 -0.131 -0.125 25 16 0
3.0650001 -0.138 -0.132 25 16 0
3.0439999 -0.14399999 -0.138 25 16 0
3.026 -0.15000001 -0.14399999 25 16 0
3.0050001 -0.156 -0.15000001 25 16 0
2.994 -0.162 -0.156 25 16 0
2.971 -0.168 -0.162 24 16 0
2.9579999 -0.17399999 -0.168 24 16 0
2.9449999 -0.18000001 -0.17399999 25 16 0
2.925 -0.185 -0.18000001 25 16 0
2.9119999 -0.191 -0.186 25 16 0
2.8940001 -0.197 -0.191 26 16 0
2.885 -0.20299999 -0.197 25 16 0
2.8710001 -0.208 -0.20299999 25 16 0
2.852 -0.213 -0.208 25 16 0
2.8399999 -0.219 -0.214 26 16 0
2.8280001 -0.22400001 -0.22 26 16 0
2.8080001 -0.229 -0.22499999 25 16 0
2.796 -0.234 -0.23100001 26 16 0
2.783 -0.23899999 -0.236 26 16 0
2.77 -0.245 -0.241 27 16 0
2.756 -0.25 -0.24699999 26 16 0
2.7490001 -0.255 -0.25299999 27 16 0
2.7309999 -0.259 -0.25799999 26 16 0
2.717 -0.264 -0.26300001 26 16 0
2.711 -0.27000001 -0.26899999 27 16 0
2.698 -0.27399999 -0.27399999 28 16 0
2.6830001 -0.27900001 -0.27900001 28 16 0
2.6719999 -0.28400001 -0.28400001 27 16 0
2.6589999 -0.28799999 -0.289 27 16 0
2.645 -0.292 -0.294 27 16 0
2.6340001 -0.29699999 -0.29899999 27 16 0
2.6270001 -0.30199999 -0.30500001 28 16 0
2.612 -0.30599999 -0.31 27 16 0
2.598 -0.31 -0.31400001 27 16 0
2.589 -0.315 -0.31900001 27 16 0
2.5769999 -0.31900001 -0.324 27 16 0
2.566 -0.32300001 -0.329 27 16 0
2.552 -0.32699999 -0.33399999 27 16 0
2.5380001 -0.331 -0.338 26 16 0
2.5280001 -0.33500001 -0.34299999 26 16 0
2.5209999 -0.33899999 -0.34900001 28 16 0
2.5109999 -0.34299999 -0.35299999 27 16 0
2.4960001 -0.347 -0.35800001 28 16 0
2.4920001 -0.352 -0.36300001 29 16 0
2.48 -0.35499999 -0.368 27 16 0
2.467 -0.359 -0.37200001 27 16 0
2.457 -0.36300001 -0.377 28 16 0
2.4419999 -0.366 -0.38100001 27 16 0
2.4400001 -0.37099999 -0.38699999 28 16 0
2.4319999 -0.37400001 -0.391 28 16 0
2.424 -0.37799999 -0.396 26 16 0
2.4100001 -0.38100001 -0.40000001 29 16 0
2.402 -0.38499999 -0.405 29 16 0
2.391 -0.38800001 -0.40900001 28 16 0
2.3800001 -0.39199999 -0.414 26 16 0
2.3699999 -0.39500001 -0.41800001 27 16 0
2.3610001 -0.39899999 -0.42300001 28 16 0
2.3499999 -0.40200001 -0.42699999 25 16 0
2.3399999 -0.405 -0.43099999 26 16 0
2.3310001 -0.40799999 -0.43599999 27 16 0
2.323 -0.412 -0.44 27 16 0
2.3139999 -0.41499999 -0.44400001 26 16 0
2.3039999 -0.41800001 -0.449 39 16 0
2.2980001 -0.421 -0.45300001 36 16 0
2.2869999 -0.42399999 -0.45699999 37 16 0
2.276 -0.42699999 -0.461 37 16 0
2.2679999 -0.43000001 -0.46599999 52 16 0
2.2620001 -0.433 -0.47 53 16 0
2.25 -0.43599999 -0.47400001 53 16 0
2.243 -0.43900001 -0.479 56 16 0
2.2320001 -0.44100001 -0.48199999 56 16 0
2.2249999 -0.44400001 -0.48699999 57 16 0
2.221 -0.44800001 -0.49200001 53 16 0
2.21 -0.44999999 -0.495 52 16 0
2.2079999 -0.454 -0.50099999 54 16 0
2.197 -0.456 -0.50400001 50 16 0
2.1889999 -0.45899999 -0.50800002 57 16 0
2.1800001 -0.46200001 -0.51200002 55 16 0
2.1730001 -0.46399999 -0.51700002 50 16 0
2.168 -0.46799999 -0.52100003 61 16 0
2.1570001 -0.47 -0.52499998 58 16 0
2.148 -0.472 -0.52899998 60 16 0
2.1400001 -0.47400001 -0.53200001 58 16 0
2.138 -0.47799999 -0.53799999 66 16 0
2.1300001 -0.47999999 -0.542 69 16 0
2.1129999 -0.48100001 -0.54299998 69 16 0
2.1110001 -0.484 -0.54900002 64 16 0
2.099 -0.48500001 -0.55199999 67 16 0
2.0940001 -0.48800001 -0.55599999 63 16 0
2.0910001 -0.49200001 -0.56099999 69 16 0
2.0829999 -0.49399999 -0.565 70 16 0
2.073 -0.495 -0.56800002 72 16 0
2.069 -0.498 -0.57300001 71 16 0
2.059 -0.49900001 -0.57599998 73 16 0
2.0550001 -0.50199997 -0.58099997 77 16 0
2.0450001 -0.50400001 -0.58399999 69 16 0
2.04 -0.50599998 -0.588 75 16 0
2.0350001 -0.509 -0.59200001 70 16 0
2.027 -0.50999999 -0.59600002 68 16 0
2.0239999 -0.51300001 -0.60100001 70 16 0
2.0150001 -0.51499999 -0.60399997 68 16 0
2.01 -0.51700002 -0.60900003 78 16 0
2.0079999 -0.51999998 -0.61400002 82 16 0
1.995 -0.51999998 -0.61500001 69 16 0
1.992 -0.523 -0.62 73 16 0
1.989 -0.52600002 -0.625 83 16 0
1.977 -0.52600002 -0.62699997 82 16 0
1.972 -0.528 -0.63200003 75 16 0
1.97 -0.53100002 -0.63700002 82 16 0
1.961 -0.53200001 -0.63999999 74 16 0
1.9579999 -0.53399998 -0.64399999 75 16 0
1.947 -0.53500003 -0.64700001 85 16 0
1.9450001 -0.53799999 -0.65100002 120 16 0
1.941 -0.54000002 -0.65600002 111 16 0
1.934 -0.54100001 -0.65899998 118 16 0
1.928 -0.542 -0.66299999 117 16 0
1.9220001 -0.54400003 -0.667 114 16 0
1.915 -0.54500002 -0.67000002 112 16 0
1.91 -0.54699999 -0.67400002 116 16 0
1.908 -0.54900002 -0.67900002 111 16 0
1.903 -0.551 -0.68300003 108 16 0
1.901 -0.55299997 -0.68800002 126 16 0
1.893 -0.55400002 -0.69 114 16 0
1.888 -0.55500001 -0.69499999 126 16 0
1.883 -0.55699998 -0.69800001 118 16 0
1.88 -0.55900002 -0.70300001 113 16 0
1.872 -0.55900002 -0.70499998 113 16 0
1.872 -0.56199998 -0.71100003 121 16 0
1.867 -0.56300002 -0.71499997 111 16 0
1.86 -0.56300002 -0.71700001 111 16 0
1.855 -0.565 -0.72100002 118 16 0
1.852 -0.56599998 -0.72600001 111 16 0
1.848 -0.56800002 -0.73000002 116 16 0
1.8430001 -0.56900001 -0.73299998 123 16 0
1.84 -0.56999999 -0.73799998 144 16 0
1.834 -0.57099998 -0.741 140 16 0
1.832 -0.57300001 -0.74599999 146 16 0
1.826 -0.57300001 -0.74900001 146 16 0
1.8200001 -0.574 -0.75199997 142 16 0
1.806 -0.57200003 -0.75099999 138 16 0
1.808 -0.57499999 -0.75800002 141 16 0
1.802 -0.57499999 -0.75999999 138 16 0
1.802 -0.57700002 -0.76599997 150 16 0
1.795 -0.57700002 -0.76800001 149 16 0
1.793 -0.579 -0.773 150 16 0
1.791 -0.57999998 -0.77700001 145 16 0
1.785 -0.57999998 -0.77999997 148 16 0
1.784 -0.58200002 -0.78500003 150 16 0
1.78 -0.583 -0.78899997 150 16 0
1.777 -0.583 -0.79299998 143 16 0
1.774 -0.58399999 -0.796 142 16 0
1.771 -0.58499998 -0.801 139 16 0
1.77 -0.58700001 -0.80500001 149 16 0
1.767 -0.588 -0.80900002 150 16 0
1.7640001 -0.588 -0.81300002 150 16 0
1.76 -0.58899999 -0.81599998 150 16 0
1.758 -0.58999997 -0.82099998 150 16 0
1.756 -0.59100002 -0.82499999 150 16 0
1.7539999 -0.59100002 -0.829 150 16 0
1.7460001 -0.58999997 -0.82999998 150 16 0
1.745 -0.59100002 -0.83499998 150 16 0
1.743 -0.59200001 -0.83899999 150 16 0
1.739 -0.59200001 -0.84200001 150 16 0
1.737 -0.59299999 -0.84600002 150 16 0
1.733 -0.59299999 -0.84899998 150 16 0
1.733 -0.59399998 -0.85399997 150 16 0
1.733 -0.59500003 -0.85900003 150 16 0
1.727 -0.59399998 -0.861 150 16 0
1.725 -0.59500003 -0.86500001 150 16 0
1.725 -0.59600002 -0.87 150 16 0
1.721 -0.59500003 -0.87199998 150 16 0
1.719 -0.59600002 -0.87599999 150 16 0
1.717 -0.59600002 -0.88 150 16 0
1.717 -0.597 -0.88499999 150 16 0
1.715 -0.597 -0.88800001 150 16 0
1.711 -0.59600002 -0.89099997 150 16 0
1.711 -0.597 -0.89499998 150 16 0
1.707 -0.59600002 -0.898 150 16 0
1.709 -0.59799999 -0.903 150 16 0
1.704 -0.59600002 -0.90499997 150 16 0
1.702 -0.59600002 -0.90899998 150 16 0
1.7 -0.59600002 -0.912 150 16 0
1.7 -0.59600002 -0.91600001 150 16 0
1.7 -0.597 -0.921 150 16 0
1.698 -0.59600002 -0.92400002 150 16 0
1.693 -0.59500003 -0.92500001 150 16 0
1.696 -0.59600002 -0.93099999 150 16 0
1.693 -0.59500003 -0.93400002 150 16 0
1.692 -0.59500003 -0.93699998 150 16 0
1.693 -0.59600002 -0.94199997 150 16 0
1.692 -0.59500003 -0.94499999 150 16 0
1.691 -0.59500003 -0.949 150 16 0
1.689 -0.59399998 -0.95099998 150 16 0
1.689 -0.59399998 -0.95499998 150 16 0
1.687 -0.59299999 -0.958 150 16 0
1.6900001 -0.59399998 -0.963 150 16 0
1.686 -0.59200001 -0.96499997 150 16 0
1.684 -0.59100002 -0.96700001 150 16 0
1.684 -0.58999997 -0.97100002 150 16 0
1.683 -0.58999997 -0.97299999 150 16 0
1.681 -0.58899999 -0.97600001 150 16 0
1.681 -0.588 -0.97899997 150 16 0
1.681 -0.588 -0.98299998 150 16 0
1.681 -0.58700001 -0.986 150 16 0
1.681 -0.58600003 -0.98900002 150 16 0
1.681 -0.58499998 -0.99199998 150 16 0
1.683 -0.58499998 -0.99599999 150 16 0
1.683 -0.58399999 -1 150 16 0
1.678 -0.58200002 -1 150 16 0
1.682 -0.58200002 -1.0039999 150 16 0
1.691 -0.58399999 -1.012 150 16 0
1.694 -0.58399999 -1.017 150 16 0
1.693 -0.583 -1.0190001 150 16 0
1.6950001 -0.58200002 -1.023 150 16 0
1.698 -0.58200002 -1.028 150 16 0
1.6950001 -0.579 -1.028 150 16 0
1.694 -0.57800001 -1.03 150 16 0
1.697 -0.57700002 -1.034 150 16 0
1.698 -0.57599998 -1.0369999 150 16 0
1.701 -0.57599998 -1.041 150 16 0
1.702 -0.574 -1.043 150 16 0
1.701 -0.57300001 -1.045 150 16 0
1.7029999 -0.57200003 -1.048 150 16 0
1.707 -0.57099998 -1.053 150 16 0
1.709 -0.56999999 -1.056 150 16 0
1.71 -0.56900001 -1.058 150 16 0
1.709 -0.56599998 -1.059 150 16 0
1.712 -0.565 -1.062 150 16 0
1.716 -0.565 -1.066 150 16 0
1.711 -0.56099999 -1.0650001 150 16 0
1.719 -0.56199998 -1.071 150 16 0
1.716 -0.55900002 -1.0700001 150 16 0
1.722 -0.55900002 -1.075 150 16 0
1.725 -0.55699998 -1.0779999 150 16 0
1.729 -0.55599999 -1.082 150 16 0
1.729 -0.55400002 -1.0829999 150 16 0
1.733 -0.55299997 -1.086 150 16 0
1.735 -0.551 -1.087 150 16 0
1.735 -0.54900002 -1.0880001 150 16 0
1.743 -0.54900002 -1.094 150 19 0
1.744 -0.546 -1.095 150 16 0
1.748 -0.54500002 -1.098 150 16 0
1.749 -0.54299998 -1.099 150 16 0
1.752 -0.54100001 -1.101 150 16 0
1.758 -0.54000002 -1.105 150 16 0
1.758 -0.53799999 -1.105 150 16 0
1.7640001 -0.537 -1.108 150 16 0
1.768 -0.53500003 -1.1109999 150 16 0
1.768 -0.53200001 -1.1109999 150 16 0
1.771 -0.52999997 -1.112 150 16 0
1.772 -0.528 -1.113 150 16 0
1.783 -0.528 -1.119 150 18 0
1.785 -0.52600002 -1.119 150 16 0
1.786 -0.523 -1.119 150 16 0
1.788 -0.52100003 -1.12 147 16 0
1.7920001 -0.51899999 -1.122 146 16 0
1.798 -0.51700002 -1.124 150 16 0
1.801 -0.51499999 -1.125 138 16 0
1.8049999 -0.51300001 -1.126 150 16 0
1.811 -0.51099998 -1.1289999 147 16 0
1.808 -0.50700003 -1.126 139 16 0
1.819 -0.50700003 -1.131 140 19 0
1.8200001 -0.50400001 -1.131 138 16 0
1.827 -0.50300002 -1.133 150 16 0
1.83 -0.5 -1.1339999 146 16 0
1.836 -0.498 -1.135 147 16 0
1.837 -0.495 -1.1339999 140 16 0
1.848 -0.495 -1.1390001 148 19 0
1.852 -0.49200001 -1.1390001 147 16 0
1.854 -0.48899999 -1.1390001 150 16 0
1.859 -0.48699999 -1.1390001 150 16 0
1.862 -0.484 -1.1390001 142 16 0
1.875 -0.484 -1.1440001 150 19 0
1.881 -0.48199999 -1.146 150 16 0
1.887 -0.47999999 -1.147 150 16 0
1.888 -0.477 -1.145 149 16 0
1.893 -0.47400001 -1.145 147 16 0
1.9 -0.472 -1.147 125 16 0
1.906 -0.47 -1.148 126 16 0
1.91 -0.46700001 -1.147 125 16 0
1.916 -0.465 -1.147 115 16 0
1.926 -0.46399999 -1.15 120 16 0
1.929 -0.461 -1.149 115 16 0
1.934 -0.458 -1.148 119 16 0
1.9400001 -0.456 -1.149 112 16 0
1.944 -0.45300001 -1.148 114 16 0
1.952 -0.45100001 -1.149 114 16 0
1.956 -0.44800001 -1.148 119 16 0
1.959 -0.44499999 -1.146 120 16 0
1.966 -0.44299999 -1.146 121 16 0
1.973 -0.44 -1.147 119 16 0
1.978 -0.43799999 -1.145 122 16 0
1.985 -0.435 -1.145 115 16 0
1.989 -0.43200001 -1.1440001 117 16 0
1.9960001 -0.43000001 -1.1440001 113 16 0
2.0020001 -0.42699999 -1.143 103 16 0
2.0090001 -0.42500001 -1.143 105 16 0
2.016 -0.42199999 -1.142 108 16 0
2.0239999 -0.41999999 -1.143 96 16 0
2.027 -0.417 -1.1390001 108 16 0
2.036 -0.41499999 -1.14 106 16 0
2.046 -0.41299999 -1.141 105 16 0
2.05 -0.41 -1.138 100 16 0
2.053 -0.40700001 -1.136 102 16 0
2.0580001 -0.40400001 -1.1339999 102 16 0
2.0650001 -0.40099999 -1.132 100 16 0
2.0710001 -0.398 -1.131 109 16 0
2.082 -0.396 -1.131 107 16 0
2.085 -0.39300001 -1.128 105 16 0
2.0929999 -0.391 -1.127 99 16 0
2.1010001 -0.38800001 -1.126 96 16 0
2.1070001 -0.38600001 -1.124 91 16 0
2.1140001 -0.38299999 -1.123 90 16 0
2.1199999 -0.38 -1.1210001 106 16 0
2.1300001 -0.37799999 -1.12 104 16 0
2.1329999 -0.375 -1.1160001 96 16 0
2.145 -0.373 -1.117 111 16 0
2.148 -0.36899999 -1.113 101 16 0
2.158 -0.36700001 -1.112 112 16 0
2.164 -0.36399999 -1.11 123 16 0
2.1670001 -0.361 -1.105 115 16 0
2.1760001 -0.359 -1.104 108 16 0
2.188 -0.35699999 -1.104 118 16 0
2.1919999 -0.354 -1.1 118 16 0
2.2030001 -0.35100001 -1.099 111 16 0
2.211 -0.34900001 -1.097 112 16 0
2.2149999 -0.34599999 -1.0930001 115 16 0
2.221 -0.34299999 -1.09 112 16 0
2.23 -0.34 -1.0880001 116 16 0
2.2320001 -0.33700001 -1.082 110 16 0
2.244 -0.33500001 -1.082 114 16 0
2.247 -0.33199999 -1.077 114 16 0
2.256 -0.329 -1.075 113 16 0
2.2639999 -0.32699999 -1.072 109 16 0
2.2709999 -0.324 -1.069 105 16 0
2.279 -0.32100001 -1.066 111 16 0
2.2850001 -0.31799999 -1.062 109 16 0
2.29 -0.315 -1.058 103 16 0
2.2980001 -0.31299999 -1.054 101 16 0
2.3099999 -0.31099999 -1.053 103 16 0
2.3139999 -0.308 -1.048 103 16 0
2.325 -0.30500001 -1.046 88 16 0
2.3280001 -0.30199999 -1.04 95 16 0
2.3380001 -0.30000001 -1.038 106 16 0
2.3429999 -0.29699999 -1.033 93 16 0
2.3510001 -0.294 -1.03 92 16 0
2.3540001 -0.29100001 -1.024 89 16 0
2.3699999 -0.289 -1.023 91 16 0
2.3759999 -0.28600001 -1.0190001 56 16 0
2.382 -0.28400001 -1.0140001 59 16 0
2.388 -0.28099999 -1.01 61 16 0
2.3970001 -0.278 -1.006 60 16 0
2.4059999 -0.27599999 -1.003 63 16 0
2.4119999 -0.273 -0.99699998 60 16 0
2.4189999 -0.27000001 -0.99299997 59 16 0
2.4260001 -0.26800001 -0.98799998 53 16 0
2.4319999 -0.26499999 -0.98299998 56 16 0
2.444 -0.26300001 -0.98000002 58 16 0
2.4489999 -0.25999999 -0.97500002 60 16 0
2.457 -0.257 -0.97000003 53 16 0
2.467 -0.255 -0.96600002 58 16 0
2.47 -0.252 -0.95999998 58 16 0
2.4779999 -0.249 -0.95499998 59 16 0
2.4860001 -0.24699999 -0.95099998 53 16 0
2.4960001 -0.244 -0.94700003 57 16 0
2.5109999 -0.243 -0.94400001 52 16 0
2.513 -0.23999999 -0.93800002 59 16 0
2.5190001 -0.237 -0.93199998 49 16 0
2.5239999 -0.234 -0.92500001 44 16 0
2.5369999 -0.23199999 -0.92199999 57 16 0
2.5439999 -0.229 -0.917 60 16 0
2.5539999 -0.227 -0.912 56 16 0
2.5599999 -0.22400001 -0.90600002 47 16 0
2.572 -0.222 -0.90200001 49 16 0
2.5739999 -0.219 -0.89499998 49 16 0
2.582 -0.21699999 -0.889 45 16 0
2.589 -0.214 -0.884 53 16 0
2.595 -0.212 -0.87699997 45 16 0
2.602 -0.20900001 -0.87199998 47 16 0
2.609 -0.207 -0.86500001 44 16 0
2.6140001 -0.204 -0.85900003 47 16 0
2.6199999 -0.20100001 -0.852 45 16 0
2.638 -0.2 -0.85000002 48 16 0
2.642 -0.197 -0.84299999 50 16 0
2.6489999 -0.19400001 -0.83600003 39 16 0
2.658 -0.192 -0.83099997 42 16 0
2.6630001 -0.19 -0.824 34 16 0
2.671 -0.18700001 -0.81800002 36 16 0
2.6830001 -0.185 -0.81300002 36 16 0
2.6889999 -0.183 -0.80599999 35 16 0
2.697 -0.18000001 -0.80000001 36 16 0
2.7 -0.177 -0.792 36 16 0
2.7090001 -0.175 -0.78600001 36 16 0
2.7190001 -0.17299999 -0.77999997 36 16 0
2.7279999 -0.171 -0.77399999 36 16 0
2.7349999 -0.168 -0.76700002 34 16 0
2.7460001 -0.16599999 -0.76200002 35 16 0
2.75 -0.164 -0.75400001 35 16 0
2.7550001 -0.161 -0.74699998 34 16 0
2.763 -0.15899999 -0.74000001 36 16 0
2.773 -0.15700001 -0.73299998 34 16 0
2.783 -0.155 -0.727 34 16 0
2.7909999 -0.152 -0.72000003 35 16 0
2.793 -0.15000001 -0.71200001 35 16 0
2.806 -0.148 -0.70599997 35 16 0
2.812 -0.145 -0.699 35 16 0
2.8210001 -0.14300001 -0.69199997 36 16 0
2.8280001 -0.141 -0.685 35 16 0
2.835 -0.139 -0.67699999 35 16 0
2.8429999 -0.13600001 -0.67000002 35 16 0
2.8499999 -0.134 -0.662 36 16 0
2.858 -0.132 -0.65499997 35 16 0
2.868 -0.13 -0.648 35 16 0
2.875 -0.12800001 -0.63999999 34 16 0
2.8840001 -0.126 -0.63300002 35 16 0
2.8929999 -0.124 -0.62599999 35 16 0
2.898 -0.121 -0.61799997 34 16 0
2.9100001 -0.119 -0.611 33 16 0
2.9159999 -0.117 -0.60299999 35 16 0
2.9219999 -0.115 -0.59500003 34 16 0
2.9300001 -0.113 -0.58700001 29 16 0
2.938 -0.111 -0.579 30 16 0
2.9460001 -0.109 -0.57099998 29 16 0
2.9519999 -0.107 -0.56300002 31 16 0
2.9719999 -0.105 -0.55699998 31 16 0
2.9619999 -0.102 -0.546 29 16 0
2.9809999 -0.101 -0.54000002 30 16 0
2.9890001 -0.097999997 -0.53100002 30 16 0
2.997 -0.096000001 -0.523 30 16 0
3.0039999 -0.093999997 -0.51499999 30 16 0
3.0090001 -0.092 -0.50599998 30 16 0
3.017 -0.090000004 -0.498 30 16 0
3.029 -0.088 -0.49000001 27 16 0
3.04 -0.086000003 -0.48199999 28 16 0
3.0469999 -0.083999999 -0.47299999 29 16 0
3.052 -0.082000002 -0.46399999 31 16 0
3.063 -0.079999998 -0.456 36 16 0
3.069 -0.078000002 -0.447 48 16 0
3.0739999 -0.075999998 -0.43799999 90 16 0
3.079 -0.074000001 -0.42899999 150 16 0
3.0810001 -0.071999997 -0.41999999 150 16 0
3.0869999 -0.07 -0.41 150 16 0
3.0910001 -0.068000004 -0.40099999 150 16 0
3.0910001 -0.066 -0.391 150 16 0
3.099 -0.064000003 -0.382 150 16 0
3.1029999 -0.061999999 -0.373 150 16 0
3.1059999 -0.061000001 -0.36300001 150 16 0
3.108 -0.059 -0.354 150 16 0
3.115 -0.057 -0.34400001 150 16 0
3.115 -0.055 -0.33399999 150 16 0
3.1159999 -0.052999999 -0.32499999 150 16 0
3.1270001 -0.050999999 -0.31600001 150 16 0
3.1270001 -0.048999999 -0.30599999 150 16 0
3.131 -0.046999998 -0.296 150 16 0
3.132 -0.046 -0.28600001 150 16 0
3.1359999 -0.044 -0.27599999 150 16 0
3.1389999 -0.041999999 -0.26699999 150 16 0
3.138 -0.039999999 -0.25600001 150 16 0
3.145 -0.037999999 -0.24699999 150 16 0
3.1489999 -0.037 -0.237 150 16 0
3.1500001 -0.035 -0.227 150 16 0
3.158 -0.033 -0.21799999 150 16 0
3.161 -0.030999999 -0.208 150 16 0
3.1630001 -0.029999999 -0.198 150 16 0
3.1600001 -0.028000001 -0.18700001 150 16 0
3.1689999 -0.026000001 -0.178 150 16 0
3.181 -0.025 -0.168 150 16 0
3.181 -0.023 -0.15800001 150 16 0
3.1800001 -0.021 -0.148 120 16 0
3.181 -0.02 -0.138 84 16 0
3.188 -0.017999999 -0.12800001 51 16 0
3.1930001 -0.017000001 -0.118 43 16 0
3.2030001 -0.015 -0.108 37 16 0
3.2060001 -0.014 -0.097999997 30 16 0
3.2119999 -0.012 -0.088 26 16 0
3.2160001 -0.011 -0.077 23 16 0
3.2249999 -0.0089999996 -0.067000002 22 16 0
3.237 -0.0080000004 -0.057 21 16 0
3.24 -0.0060000001 -0.046999998 19 16 0
3.2490001 -0.0049999999 -0.037 18 16 0
3.257 -0.003 -0.026000001 18 16 0
3.2650001 -0.0020000001 -0.016000001 19 16 0
3.2709999 0 -0.0049999999 18 16 0
3.276 0 0.0040000002 18 16 0
3.2850001 0.0020000001 0.015 18 16 0
3.296 0.003 0.025 19 16 0
3.299 0.0040000002 0.035999998 19 16 0
3.3099999 0.0060000001 0.046 19 16 0
3.3169999 0.0070000002 0.057 19 16 0
3.326 0.0080000004 0.068000004 20 16 0
3.3310001 0.0099999998 0.079000004 21 16 0
3.3299999 0.011 0.090000004 33 16 0
3.3139999 0.012 0.1 39 16 0
3.2920001 0.013 0.11 49 16 0
3.283 0.015 0.12 150 16 0
3.283 0.016000001 0.131 150 16 0
3.29 0.017000001 0.142 150 16 0
3.2920001 0.017999999 0.152 150 16 0
3.2980001 0.018999999 0.163 150 16 0
3.3 0.021 0.17399999 150 16 0
3.306 0.022 0.185 150 16 0
3.3080001 0.023 0.19599999 150 16 0
3.3139999 0.024 0.207 150 16 0
3.3210001 0.025 0.21799999 150 16 0
3.322 0.026000001 0.229 150 16 0
3.329 0.027000001 0.23999999 150 16 0
3.3310001 0.028000001 0.25099999 150 16 0
3.335 0.028999999 0.26199999 150 16 0
3.3380001 0.029999999 0.273 150 16 0
3.3429999 0.030999999 0.28400001 150 16 0
3.352 0.032000002 0.296 150 16 0
3.3559999 0.033 0.30700001 150 16 0
3.3559999 0.034000002 0.31799999 150 16 0
3.365 0.035 0.33000001 150 16 0
3.3670001 0.035999998 0.34099999 150 16 0
3.3610001 0.037 0.35100001 74 16 0
3.342 0.037999999 0.36000001 38 16 0
3.323 0.037999999 0.36899999 39 16 0
3.3 0.039000001 0.377 37 16 0
3.28 0.039000001 0.38499999 35 16 0
3.2620001 0.039999999 0.39399999 38 16 0
3.2449999 0.039999999 0.403 38 16 0
3.2260001 0.041000001 0.41100001 38 16 0
3.2090001 0.041000001 0.419 38 16 0
3.1919999 0.041999999 0.42699999 43 16 0
3.1719999 0.041999999 0.435 44 16 0
3.155 0.041999999 0.44299999 42 16 0
3.1340001 0.043000001 0.44999999 41 16 0
3.112 0.043000001 0.45699999 39 16 0
3.102 0.043000001 0.46599999 41 16 0
3.079 0.043000001 0.472 40 16 0
3.0669999 0.044 0.47999999 40 16 0
3.0480001 0.044 0.48800001 43 16 0
3.029 0.044 0.495 43 16 0
3.016 0.044 0.50199997 41 16 0
3.003 0.044 0.50999999 43 16 0
2.9860001 0.045000002 0.51700002 38 16 0
2.9679999 0.045000002 0.52399999 42 16 0
2.948 0.045000002 0.52999997 41 16 0
2.937 0.045000002 0.537 42 16 0
2.9230001 0.045000002 0.54500002 43 16 0
2.898 0.045000002 0.55000001 43 16 0
2.881 0.045000002 0.55599999 43 16 0
2.8640001 0.045000002 0.56199998 65 16 0
2.849 0.045000002 0.56900001 53 16 0
2.8380001 0.045000002 0.57599998 61 16 0
2.8310001 0.045000002 0.58399999 68 16 0
2.8180001 0.045000002 0.58999997 48 16 0
2.8010001 0.044 0.59600002 51 16 0
2.79 0.044 0.60299999 44 16 0
2.7750001 0.044 0.60900003 50 16 0
2.7609999 0.044 0.61500001 47 16 0
2.75 0.044 0.62199998 58 16 0
2.7320001 0.044 0.62699997 58 16 0
2.721 0.043000001 0.63300002 66 16 0
2.701 0.043000001 0.63800001 71 16 0
2.691 0.043000001 0.64399999 76 16 0
2.678 0.043000001 0.64999998 85 16 0
2.6659999 0.041999999 0.65600002 85 16 0
2.6559999 0.041999999 0.662 74 16 0
2.645 0.041999999 0.66900003 61 16 0
2.6340001 0.041000001 0.67500001 67 16 0
2.6270001 0.041000001 0.68199998 74 16 0
2.609 0.041000001 0.68599999 113 16 0
2.596 0.039999999 0.69099998 119 16 0
2.5810001 0.039999999 0.69599998 135 16 0
2.5650001 0.039000001 0.69999999 131 16 0
2.552 0.039000001 0.70499998 142 16 0
2.54 0.037999999 0.70999998 149 16 0
2.5250001 0.037999999 0.71399999 150 16 0
2.5190001 0.037 0.72100002 150 16 0
2.506 0.037 0.72600001 150 16 0
2.493 0.035999998 0.73100001 150 16 0
2.48 0.035999998 0.73500001 150 16 0
2.4719999 0.035 0.741 150 16 0
2.4560001 0.034000002 0.74400002 150 16 0
2.4460001 0.034000002 0.75 150 16 0
2.437 0.033 0.755 150 16 0
2.427 0.033 0.75999999 150 16 0
2.414 0.032000002 0.764 150 16 0
2.408 0.030999999 0.77100003 150 16 0
2.395 0.030999999 0.77499998 150 16 0
2.388 0.029999999 0.77999997 150 16 0
2.3789999 0.028999999 0.78500003 150 16 0
2.369 0.028000001 0.79000002 150 16 0
2.362 0.028000001 0.796 150 16 0
2.352 0.027000001 0.80000001 150 16 0
2.345 0.026000001 0.80599999 150 16 0
2.3299999 0.025 0.80900002 150 16 0
2.326 0.025 0.815 150 16 0
2.3139999 0.024 0.81900001 150 16 0
2.3 0.023 0.82200003 150 16 0
2.2939999 0.022 0.82700002 150 16 0
2.286 0.021 0.83200002 150 16 0
2.2739999 0.02 0.83499998 150 16 0
2.267 0.018999999 0.84100002 150 16 0
2.2509999 0.017999999 0.84200001 150 16 0
2.244 0.017000001 0.847 150 16 0
2.2379999 0.016000001 0.85299999 150 16 0
2.2279999 0.015 0.85600001 150 16 0
2.2190001 0.014 0.861 150 16 0
2.2090001 0.013 0.86400002 150 16 0
2.1989999 0.012 0.86799997 150 16 0
2.1900001 0.011 0.87099999 150 16 0
2.1789999 0.0099999998 0.875 150 16 0
2.1700001 0.0089999996 0.87800002 150 16 0
2.165 0.0080000004 0.88300002 150 16 0
2.1530001 0.0070000002 0.88599998 150 16 0
2.148 0.0060000001 0.89099997 150 16 0
2.1359999 0.0049999999 0.89300001 150 16 0
2.1329999 0.003 0.89899999 150 16 0
2.122 0.0020000001 0.90100002 150 16 0
2.1129999 0.001 0.90499997 150 16 0
2.1059999 0 0.90899998 150 16 0
2.096 -0.001 0.91100001 150 16 0
2.0929999 -0.0020000001 0.917 150 16 0
2.086 -0.003 0.921 150 16 0
2.0769999 -0.0040000002 0.92400002 150 16 0
2.069 -0.0060000001 0.92699999 150 16 0
2.0610001 -0.0070000002 0.93099999 150 16 0
2.05 -0.0080000004 0.93300003 150 16 0
2.0450001 -0.0099999998 0.93699998 150 16 0
2.0380001 -0.011 0.94 150 16 0
2.027 -0.012 0.94199997 150 16 0
2.0179999 -0.014 0.94499999 150 16 0
2.016 -0.015 0.94999999 150 16 0
2.0079999 -0.017000001 0.95300001 150 16 0
1.993 -0.017999999 0.95300001 150 16 0
1.988 -0.02 0.95700002 150 16 0
1.982 -0.021 0.95999998 150 16 0
1.975 -0.023 0.963 150 16 0
1.969 -0.024 0.96700001 150 16 0
1.961 -0.026000001 0.96899998 150 16 0
1.951 -0.027000001 0.97100002 150 16 0
1.944 -0.028999999 0.97299999 150 16 0
1.942 -0.029999999 0.97799999 150 16 0
1.9299999 -0.032000002 0.97899997 150 16 0
1.928 -0.033 0.98400003 150 16 0
1.918 -0.035 0.98500001 150 16 0
1.914 -0.037 0.98900002 150 16 0
1.905 -0.037999999 0.99000001 150 16 0
1.902 -0.039999999 0.99400002 150 16 0
1.893 -0.041000001 0.99599999 150 16 0
1.891 -0.043000001 1 150 16 0
1.877 -0.045000002 0.99900001 150 16 0
1.8710001 -0.046 1.001 150 16 0
1.865 -0.048 1.0039999 150 16 0
1.859 -0.050000001 1.006 150 16 0
1.8559999 -0.052000001 1.011 150 16 0
1.851 -0.054000001 1.0140001 150 16 0
1.844 -0.055 1.016 150 16 0
1.839 -0.057 1.018 150 16 0
1.834 -0.059 1.021 150 16 0
1.827 -0.061000001 1.022 150 16 0
1.825 -0.063000001 1.026 150 16 0
1.8150001 -0.064000003 1.026 150 16 0
1.8099999 -0.066 1.029 150 16 0
1.803 -0.068000004 1.03 150 16 0
1.801 -0.07 1.034 150 16 0
1.7970001 -0.071999997 1.036 150 16 0
1.7920001 -0.074000001 1.039 150 16 0
1.789 -0.075999998 1.0420001 150 16 0
1.77 -0.077 1.036 150 18 0
1.767 -0.079000004 1.039 150 16 0
1.7640001 -0.081 1.0420001 150 16 0
1.76 -0.082999997 1.045 150 16 0
1.755 -0.085000001 1.046 150 16 0
1.753 -0.086999997 1.05 150 16 0
1.749 -0.089000002 1.052 150 16 0
1.744 -0.090999998 1.053 150 16 0
1.742 -0.093999997 1.057 150 16 0
1.74 -0.096000001 1.0599999 150 16 0
1.738 -0.097999997 1.063 150 16 0
1.73 -0.1 1.062 150 16 0
1.729 -0.102 1.066 150 16 0
1.724 -0.104 1.067 150 16 0
1.72 -0.106 1.069 150 16 0
1.7130001 -0.108 1.068 150 16 0
1.706 -0.11 1.068 150 16 0
1.705 -0.112 1.071 150 16 0
1.701 -0.114 1.073 150 16 0
1.7 -0.117 1.076 150 16 0
1.6900001 -0.118 1.073 150 16 0
1.691 -0.121 1.0779999 150 16 0
1.686 -0.123 1.0779999 150 16 0
1.684 -0.125 1.08 150 16 0
1.681 -0.12800001 1.082 150 16 0
1.6799999 -0.13 1.084 150 16 0
1.67 -0.132 1.082 150 16 0
1.669 -0.134 1.084 150 16 0
1.6670001 -0.13600001 1.086 150 16 0
1.666 -0.139 1.0880001 150 16 0
1.666 -0.141 1.091 150 16 0
1.669 -0.14399999 1.096 150 16 0
1.6670001 -0.146 1.098 146 16 0
1.66 -0.148 1.096 150 16 0
1.655 -0.15000001 1.095 150 16 0
1.653 -0.152 1.097 150 16 0
1.651 -0.155 1.098 150 16 0
1.64 -0.156 1.0930001 150 19 0
1.6390001 -0.15899999 1.095 150 16 0
1.638 -0.161 1.096 150 16 0
1.635 -0.163 1.097 150 16 0
1.636 -0.16599999 1.1 150 16 0
1.627 -0.168 1.096 150 19 0
1.631 -0.17 1.101 150 16 0
1.625 -0.17200001 1.098 150 16 0
1.623 -0.175 1.099 150 16 0
1.622 -0.177 1.1 150 16 0
1.6210001 -0.17900001 1.101 150 16 0
1.62 -0.182 1.102 150 16 0
1.62 -0.184 1.103 150 16 0
1.6160001 -0.186 1.102 150 16 0
1.6160001 -0.189 1.103 150 16 0
1.6160001 -0.191 1.105 150 16 0
1.617 -0.19400001 1.1059999 150 16 0
1.612 -0.19599999 1.104 150 16 0
1.614 -0.199 1.107 150 16 0
1.614 -0.20100001 1.107 150 16 0
1.6109999 -0.20299999 1.1059999 150 16 0
1.613 -0.206 1.108 150 16 0
1.612 -0.208 1.108 150 16 0
1.61 -0.20999999 1.107 150 16 0
1.6109999 -0.213 1.109 150 16 0
1.6109999 -0.215 1.109 150 16 0
1.609 -0.21699999 1.108 150 16 0
1.61 -0.22 1.109 150 16 0
1.61 -0.222 1.109 150 16 0
1.61 -0.22400001 1.109 150 16 0
1.613 -0.227 1.1109999 150 16 0
1.609 -0.229 1.108 150 16 0
1.607 -0.23100001 1.107 150 16 0
1.609 -0.233 1.108 150 16 0
1.609 -0.236 1.107 150 16 0
1.612 -0.23800001 1.109 150 16 0
1.615 -0.241 1.11 150 16 0
1.614 -0.243 1.109 150 16 0
1.614 -0.245 1.108 150 16 0
1.614 -0.24699999 1.108 150 16 0
1.6160001 -0.25 1.108 150 16 0
1.617 -0.252 1.108 150 16 0
1.617 -0.25400001 1.107 150 16 0
1.619 -0.25600001 1.1059999 150 16 0
1.618 -0.25799999 1.105 150 16 0
1.619 -0.26100001 1.104 150 16 0
1.62 -0.26300001 1.103 150 16 0
1.627 -0.266 1.107 150 19 0
1.633 -0.26899999 1.109 150 16 0
1.631 -0.27000001 1.1059999 150 16 0
1.633 -0.273 1.1059999 150 16 0
1.6339999 -0.27500001 1.104 150 16 0
1.635 -0.27700001 1.104 150 16 0
1.636 -0.27900001 1.102 150 16 0
1.6390001 -0.28099999 1.101 150 16 0
1.641 -0.28299999 1.101 150 16 0
1.642 -0.285 1.099 150 16 0
1.6440001 -0.287 1.098 150 16 0
1.645 -0.289 1.097 150 16 0
1.649 -0.29100001 1.097 150 16 0
1.652 -0.29300001 1.096 150 16 0
1.653 -0.29499999 1.094 150 16 0
1.655 -0.29699999 1.0930001 150 16 0
1.658 -0.29899999 1.092 150 16 0
1.66 -0.301 1.09 150 16 0
1.664 -0.303 1.09 150 16 0
1.669 -0.30599999 1.09 150 16 0
1.67 -0.30700001 1.087 150 16 0
1.668 -0.308 1.0829999 150 16 0
1.675 -0.31099999 1.084 150 16 0
1.679 -0.31299999 1.0829999 150 16 0
1.688 -0.31600001 1.086 150 16 0
1.692 -0.31799999 1.085 150 16 0
1.6950001 -0.31999999 1.084 150 16 0
1.6950001 -0.32100001 1.08 150 16 0
1.698 -0.322 1.0779999 150 16 0
1.702 -0.324 1.076 150 16 0
1.7029999 -0.32600001 1.073 150 16 0
1.707 -0.32699999 1.072 150 16 0
1.711 -0.329 1.071 150 16 0
1.7130001 -0.33000001 1.068 150 16 0
1.716 -0.33199999 1.066 150 16 0
1.719 -0.333 1.063 150 16 0
1.722 -0.33500001 1.061 150 16 0
1.725 -0.336 1.058 150 16 0
1.727 -0.33700001 1.0549999 150 16 0
1.749 -0.34200001 1.064 150 17 0
1.755 -0.34400001 1.063 123 16 0
1.758 -0.345 1.061 117 16 0
1.7640001 -0.347 1.059 142 16 0
1.766 -0.34799999 1.056 150 16 0
1.77 -0.34999999 1.053 150 16 0
1.772 -0.34999999 1.05 150 16 0
1.778 -0.352 1.049 150 16 0
1.78 -0.35299999 1.045 150 16 0
1.788 -0.35499999 1.045 150 16 0
1.794 -0.35600001 1.043 150 16 0
1.8 -0.35800001 1.041 150 16 0
1.803 -0.359 1.038 150 16 0
1.809 -0.36000001 1.036 150 16 0
1.811 -0.361 1.0319999 150 16 0
1.817 -0.36199999 1.03 150 16 0
1.821 -0.36300001 1.027 150 16 0
1.829 -0.36500001 1.026 150 16 0
1.835 -0.366 1.024 150 16 0
1.837 -0.36700001 1.02 150 16 0
1.846 -0.368 1.0190001 150 16 0
1.855 -0.37 1.018 150 16 0
1.859 -0.37099999 1.015 150 16 0
1.864 -0.37200001 1.012 150 16 0
1.873 -0.373 1.011 150 16 0
1.877 -0.37400001 1.008 150 16 0
1.8839999 -0.375 1.005 150 16 0
1.8890001 -0.37599999 1.002 150 16 0
1.899 -0.37799999 1.002 150 16 0
1.902 -0.37799999 0.99699998 150 16 0
1.9069999 -0.37799999 0.99400002 150 16 0
1.915 -0.37900001 0.99199998 150 16 0
1.921 -0.38 0.98900002 150 16 0
1.9299999 -0.38100001 0.98699999 150 16 0
1.934 -0.382 0.98299998 150 16 0
1.939 -0.382 0.97899997 150 16 0
1.951 -0.384 0.97899997 150 16 0
1.956 -0.384 0.97600001 150 16 0
1.96 -0.384 0.97100002 150 16 0
1.976 -0.38600001 0.97299999 150 16 0
1.98 -0.38600001 0.96799999 150 16 0
1.99 -0.38800001 0.96700001 150 16 0
1.997 -0.38800001 0.96399999 150 16 0
2.0039999 -0.389 0.96100003 150 16 0
2.0120001 -0.389 0.958 150 16 0
2.017 -0.389 0.95300001 148 16 0
2.0250001 -0.38999999 0.95099998 150 16 0
2.036 -0.391 0.949 150 16 0
2.039 -0.38999999 0.94400001 150 16 0
2.0480001 -0.391 0.94099998 150 16 0
2.0569999 -0.391 0.93900001 150 16 0
2.0639999 -0.391 0.935 150 16 0
2.0710001 -0.39199999 0.93199998 150 16 0
2.0799999 -0.39199999 0.92900002 150 16 0
2.0869999 -0.39199999 0.92500001 147 16 0
2.0940001 -0.39199999 0.921 140 16 0
2.102 -0.39199999 0.91799998 148 16 0
2.109 -0.39199999 0.91399997 150 16 0
2.1159999 -0.39199999 0.91000003 118 16 0
2.122 -0.39199999 0.90600002 118 16 0
2.128 -0.391 0.90100002 122 16 0
2.1429999 -0.39199999 0.89999998 118 16 0
2.155 -0.39300001 0.898 121 16 0
2.1600001 -0.39199999 0.89300001 113 16 0
2.171 -0.39300001 0.89099997 96 16 0
2.177 -0.39199999 0.88599998 81 16 0
2.1860001 -0.39199999 0.88200003 87 16 0
2.191 -0.391 0.87699997 80 16 0
2.2030001 -0.391 0.875 78 16 0
2.2130001 -0.391 0.87099999 88 16 0
2.22 -0.391 0.86699998 86 16 0
2.2320001 -0.391 0.86400002 96 16 0
2.2360001 -0.38999999 0.85799998 77 16 0
2.247 -0.38999999 0.85500002 84 16 0
2.2579999 -0.389 0.852 82 16 0
2.2639999 -0.38800001 0.847 77 16 0
2.2750001 -0.38800001 0.84299999 82 16 0
2.286 -0.38800001 0.83999997 75 16 0
2.2939999 -0.38699999 0.83499998 77 16 0
2.306 -0.38699999 0.83200002 81 16 0
2.3169999 -0.38699999 0.829 86 16 0
2.323 -0.38499999 0.82300001 78 16 0
2.332 -0.38499999 0.81800002 79 16 0
2.3410001 -0.384 0.81400001 79 16 0
2.349 -0.38299999 0.80900002 79 16 0
2.358 -0.382 0.80400002 75 16 0
2.3729999 -0.382 0.80199999 77 16 0
2.381 -0.38 0.79699999 66 16 0
2.388 -0.37900001 0.792 77 16 0
2.3970001 -0.37799999 0.787 70 16 0
2.4059999 -0.377 0.78200001 69 16 0
2.4170001 -0.37599999 0.778 66 16 0
2.427 -0.375 0.773 70 16 0
2.4330001 -0.373 0.76700002 68 16 0
2.4489999 -0.373 0.764 61 16 0
2.4660001 -0.373 0.76200002 69 16 0
2.4690001 -0.37099999 0.755 63 16 0
2.483 -0.37 0.75099999 63 16 0
2.4909999 -0.368 0.74599999 64 16 0
2.5009999 -0.36700001 0.741 62 16 0
2.5139999 -0.366 0.736 58 16 0
2.527 -0.36500001 0.73199999 57 16 0
2.5350001 -0.36300001 0.72600001 57 16 0
2.546 -0.36199999 0.722 49 16 0
2.559 -0.36000001 0.71700001 35 16 0
2.572 -0.359 0.713 35 16 0
2.5829999 -0.35800001 0.70700002 36 16 0
2.592 -0.35499999 0.70200002 35 16 0
2.6010001 -0.354 0.69599998 34 16 0
2.6159999 -0.352 0.69199997 36 16 0
2.6289999 -0.35100001 0.68699998 36 16 0
2.638 -0.34900001 0.68099999 34 16 0
2.6489999 -0.347 0.67500001 34 16 0
2.6559999 -0.345 0.66900003 34 16 0
2.6730001 -0.34299999 0.66500002 35 16 0
2.681 -0.34099999 0.65799999 35 16 0
2.6919999 -0.33899999 0.653 33 16 0
2.7030001 -0.33700001 0.64700001 33 16 0
2.7179999 -0.33500001 0.64200002 32 16 0
2.7290001 -0.333 0.63700002 33 16 0
2.7379999 -0.331 0.63 32 16 0
2.756 -0.329 0.62599999 33 16 0
2.7690001 -0.32699999 0.62 33 16 0
2.777 -0.324 0.61299998 31 16 0
2.793 -0.322 0.60799998 31 16 0
2.809 -0.32100001 0.60299999 32 16 0
2.8169999 -0.31799999 0.597 32 16 0
2.8269999 -0.315 0.58999997 32 16 0
2.8410001 -0.31299999 0.58399999 32 16 0
2.8559999 -0.31 0.579 32 16 0
2.8699999 -0.308 0.57300001 31 16 0
2.8840001 -0.30599999 0.56699997 32 16 0
2.8989999 -0.303 0.56099999 32 16 0
2.914 -0.301 0.55500001 32 16 0
2.927 -0.29800001 0.54900002 33 16 0
2.9319999 -0.294 0.54100001 30 16 0
2.9549999 -0.29300001 0.53600001 34 16 0
2.971 -0.28999999 0.52999997 38 16 0
2.9760001 -0.28600001 0.52200001 36 16 0
2.99 -0.28299999 0.51599997 33 16 0
3.0009999 -0.28 0.509 28 16 0
3 -0.27599999 0.49900001 25 16 0
3.007 -0.27200001 0.49200001 24 16 0
3.017 -0.26899999 0.484 24 16 0
3.0209999 -0.264 0.47600001 24 16 0
3.023 -0.25999999 0.46700001 23 16 0
3.0320001 -0.257 0.46000001 23 16 0
3.04 -0.25299999 0.45199999 23 16 0
3.046 -0.249 0.44400001 23 16 0
3.0539999 -0.245 0.43599999 24 16 0
3.056 -0.241 0.428 22 16 0
3.059 -0.236 0.419 21 16 0
3.0650001 -0.23199999 0.41100001 22 16 0
3.0669999 -0.228 0.40200001 22 16 0
3.0780001 -0.22400001 0.39500001 22 16 0
3.0880001 -0.22 0.38699999 22 16 0
3.0929999 -0.21600001 0.37799999 22 16 0
3.102 -0.212 0.37099999 23 16 0
3.1059999 -0.207 0.36199999 22 16 0
3.1129999 -0.20299999 0.354 23 16 0
3.115 -0.198 0.345 23 16 0
3.1289999 -0.19499999 0.338 23 16 0
3.1300001 -0.19 0.329 23 16 0
3.1359999 -0.185 0.31999999 23 16 0
3.145 -0.18099999 0.31200001 22 16 0
3.152 -0.176 0.30399999 22 16 0
3.161 -0.17200001 0.296 22 16 0
3.171 -0.168 0.287 23 16 0
3.1730001 -0.163 0.27900001 23 16 0
3.1819999 -0.15800001 0.27000001 23 16 0
3.1930001 -0.154 0.26199999 23 16 0
3.1960001 -0.149 0.25299999 23 16 0
3.204 -0.14399999 0.245 23 16 0
3.2079999 -0.139 0.236 22 16 0
3.2160001 -0.13500001 0.227 22 16 0
3.2249999 -0.13 0.219 23 16 0
3.2349999 -0.125 0.211 23 16 0
3.2390001 -0.12 0.20200001 24 16 0
3.2479999 -0.115 0.193 24 16 0
3.2590001 -0.11 0.184 24 16 0
3.2639999 -0.105 0.175 23 16 0
3.2709999 -0.1 0.167 24 16 0
3.279 -0.094999999 0.15800001 23 16 0
3.2880001 -0.090000004 0.149 23 16 0
3.2950001 -0.085000001 0.14 23 16 0
3.309 -0.079000004 0.132 24 16 0
3.309 -0.074000001 0.122 27 16 0
3.313 -0.068999998 0.113 45 16 0
3.312 -0.063000001 0.104 105 16 0
3.3099999 -0.057999998 0.094999999 86 16 0
3.2969999 -0.052000001 0.085000001 69 16 0
3.293 -0.046 0.075999998 70 16 0
3.283 -0.041000001 0.067000002 87 16 0
3.273 -0.035 0.057 84 16 0
3.273 -0.029999999 0.048 78 16 0
3.26 -0.024 0.039000001 57 16 0
3.2579999 -0.017999999 0.029999999 34 16 0
3.2579999 -0.013 0.021 19 16 0
3.266 -0.0070000002 0.012 15 16 0
3.277 -0.0020000001 0.003 15 16 0
3.289 0.003 -0.0049999999 16 16 0
3.2969999 0.0089999996 -0.014 16 16 0
3.302 0.014 -0.023 17 16 0
3.316 0.02 -0.032000002 23 16 0
3.312 0.026000001 -0.041000001 36 16 0
3.3050001 0.030999999 -0.050000001 46 16 0
3.293 0.037 -0.059 48 16 0
3.286 0.043000001 -0.068000004 49 16 0
3.2820001 0.048 -0.077 41 16 0
3.2780001 0.054000001 -0.086000003 36 16 0
3.27 0.059999999 -0.093999997 42 16 0
3.2620001 0.064999998 -0.103 50 16 0
3.253 0.071000002 -0.111 52 16 0
3.25 0.077 -0.12 51 16 0
3.2420001 0.082000002 -0.12800001 52 16 0
3.2390001 0.088 -0.13699999 53 16 0
3.2320001 0.093000002 -0.146 52 16 0
3.2279999 0.098999999 -0.154 52 16 0
3.2179999 0.105 -0.162 56 16 0
3.2079999 0.11 -0.171 55 16 0
3.201 0.116 -0.17900001 50 16 0
3.201 0.121 -0.18700001 59 16 0
3.1900001 0.127 -0.19499999 51 16 0
3.181 0.132 -0.20299999 50 16 0
3.1789999 0.138 -0.212 51 16 0
3.1689999 0.14300001 -0.22 51 16 0
3.1619999 0.149 -0.228 53 16 0
3.1589999 0.155 -0.236 58 16 0
3.145 0.16 -0.243 50 16 0
3.1440001 0.16599999 -0.252 52 16 0
3.1389999 0.171 -0.25999999 50 16 0
3.1240001 0.176 -0.26699999 50 16 0
3.1229999 0.182 -0.27500001 57 16 0
3.1140001 0.18700001 -0.28200001 54 16 0
3.1110001 0.193 -0.28999999 54 16 0
3.1059999 0.199 -0.29800001 48 16 0
3.099 0.204 -0.30599999 59 16 0
3.0910001 0.20900001 -0.31299999 67 16 0
3.0799999 0.214 -0.31999999 56 16 0
3.0799999 0.22 -0.32800001 68 16 0
3.073 0.226 -0.336 71 16 0
3.062 0.23100001 -0.34299999 79 16 0
3.0580001 0.237 -0.34999999 80 16 0
3.05 0.242 -0.35699999 86 16 0
3.0450001 0.24699999 -0.36500001 84 16 0
3.0439999 0.25299999 -0.373 86 16 0
3.0320001 0.25799999 -0.37900001 69 16 0
3.03 0.264 -0.38699999 80 16 0
3.0179999 0.26899999 -0.39300001 86 16 0
3.0139999 0.27399999 -0.40099999 76 16 0
3.0090001 0.28 -0.40799999 88 16 0
3.0039999 0.28600001 -0.41499999 71 16 0
3 0.29100001 -0.42300001 92 16 0
2.9909999 0.296 -0.42899999 75 16 0
2.987 0.30199999 -0.43599999 78 16 0
2.9790001 0.30700001 -0.44299999 87 16 0
2.97 0.31200001 -0.449 81 16 0
2.967 0.31799999 -0.456 89 16 0
2.96 0.32300001 -0.463 95 16 0
2.957 0.329 -0.47 83 16 0
2.95 0.33399999 -0.477 94 16 0
2.9449999 0.33899999 -0.484 86 16 0
2.9419999 0.345 -0.491 94 16 0
2.9300001 0.34999999 -0.49599999 104 16 0
2.928 0.35600001 -0.50400001 102 16 0
2.914 0.36000001 -0.509 96 16 0
2.908 0.36500001 -0.51499999 103 16 0
2.904 0.37099999 -0.52200001 101 16 0
2.898 0.37599999 -0.528 99 16 0
2.8940001 0.382 -0.53500003 96 16 0
2.8900001 0.38699999 -0.542 101 16 0
2.882 0.39300001 -0.54799998 111 16 0
2.8789999 0.398 -0.55500001 113 16 0
2.8729999 0.40400001 -0.56099999 103 16 0
2.8659999 0.40900001 -0.56699997 109 16 0
2.859 0.414 -0.57300001 99 16 0
2.8529999 0.419 -0.579 110 16 0
2.8469999 0.42500001 -0.58499998 104 16 0
2.8410001 0.43000001 -0.59100002 131 16 0
2.839 0.43599999 -0.597 144 16 0
2.8299999 0.44100001 -0.60299999 145 16 0
2.8199999 0.44499999 -0.60799998 134 16 0
2.8210001 0.45199999 -0.61500001 121 16 0
2.8139999 0.45699999 -0.62099999 132 16 0
2.8110001 0.463 -0.62699997 145 16 0
2.8080001 0.46799999 -0.63300002 140 16 0
2.7980001 0.47299999 -0.63800001 134 16 0
2.7950001 0.479 -0.64499998 150 16 0
2.7869999 0.484 -0.64999998 150 16 0
2.7880001 0.49000001 -0.65700001 150 16 0
2.773 0.49399999 -0.66000003 150 16 0
2.77 0.5 -0.66600001 150 16 0
2.767 0.505 -0.67299998 150 16 0
2.7639999 0.51099998 -0.67900002 150 16 0
2.7550001 0.51599997 -0.68300003 150 16 0
2.7509999 0.52200001 -0.68900001 150 16 0
