# .PCD v0.7 - Point Cloud Data file format
VERSION 0.7
FIELDS x y z intensity tag line
SIZE 4 4 4 4 1 1
TYPE F F F F U U
COUNT 1 1 1 1 1 1
WIDTH 1362
HEIGHT 1
VIEWPOINT 0 0 0 1 0 0 0
POINTS 1362
DATA ascii
2.484 -0.45500001 0.204 76 16 0
2.4719999 -0.461 0.206 72 16 0
2.4590001 -0.46599999 0.208 83 16 0
2.4519999 -0.472 0.20999999 80 16 0
2.4430001 -0.47799999 0.212 84 16 0
2.4300001 -0.48300001 0.214 83 16 0
2.421 -0.48899999 0.21600001 88 16 0
2.405 -0.493 0.21699999 81 16 0
2.3940001 -0.498 0.219 81 16 0
2.382 -0.50300002 0.221 84 16 0
2.368 -0.50800002 0.222 77 16 0
2.362 -0.514 0.22400001 86 16 0
2.3499999 -0.51899999 0.22499999 92 16 0
2.3399999 -0.52399999 0.227 75 16 0
2.323 -0.52700001 0.228 75 16 0
2.3180001 -0.53299999 0.23 89 16 0
2.309 -0.53899997 0.23199999 96 16 0
2.2980001 -0.54299998 0.233 84 16 0
2.2839999 -0.54699999 0.234 95 16 0
2.2720001 -0.55199999 0.235 99 16 0
2.263 -0.55699998 0.237 89 16 0
2.2550001 -0.56199998 0.23800001 96 16 0
2.2449999 -0.56699997 0.23899999 97 16 0
2.233 -0.57099998 0.23999999 92 16 0
2.2249999 -0.57599998 0.242 101 16 0
2.214 -0.57999998 0.243 100 16 0
2.201 -0.58399999 0.244 97 16 0
2.197 -0.58999997 0.245 110 16 0
2.1860001 -0.59399998 0.24600001 105 16 0
2.177 -0.59799999 0.24699999 102 16 0
2.1719999 -0.60399997 0.249 116 16 0
2.1559999 -0.60699999 0.249 120 16 0
2.148 -0.611 0.25 123 16 0
2.1389999 -0.616 0.25099999 110 16 0
2.132 -0.62 0.252 120 16 0
2.115 -0.62300003 0.252 123 16 0
2.1070001 -0.62699997 0.25400001 118 16 0
2.1029999 -0.63300002 0.255 119 16 0
2.0929999 -0.63599998 0.25600001 129 16 0
2.0829999 -0.63999999 0.25600001 140 16 0
2.072 -0.64399999 0.257 131 16 0
2.0680001 -0.64899999 0.25799999 127 16 0
2.0539999 -0.65200001 0.25799999 136 16 0
2.0450001 -0.65600002 0.259 137 16 0
2.0380001 -0.66000003 0.25999999 127 16 0
2.03 -0.66399997 0.25999999 134 16 0
2.0190001 -0.667 0.26100001 133 16 0
2.0139999 -0.67199999 0.26199999 150 16 0
2.0009999 -0.67400002 0.26199999 150 16 0
1.994 -0.67900002 0.26199999 150 16 0
1.98 -0.68000001 0.26199999 150 16 0
1.978 -0.68599999 0.26300001 150 16 0
1.971 -0.69 0.264 150 16 0
1.9630001 -0.69400001 0.264 150 16 0
1.954 -0.69700003 0.26499999 150 16 0
1.947 -0.70099998 0.26499999 150 16 0
1.938 -0.70499998 0.26499999 150 16 0
1.929 -0.708 0.266 150 16 0
1.923 -0.71200001 0.266 150 16 0
1.904 -0.71100003 0.26499999 150 19 0
1.901 -0.71700001 0.266 150 16 0
1.895 -0.72000003 0.266 150 16 0
1.89 -0.72500002 0.26699999 150 16 0
1.8839999 -0.72899997 0.26699999 150 16 0
1.874 -0.73100001 0.26699999 150 16 0
1.87 -0.736 0.26699999 150 16 0
1.8609999 -0.73900002 0.26699999 150 16 0
1.854 -0.74199998 0.26699999 150 16 0
1.847 -0.745 0.26699999 150 16 0
1.839 -0.74800003 0.26699999 150 16 0
1.832 -0.75199997 0.26699999 150 16 0
1.823 -0.75400001 0.26699999 150 16 0
1.818 -0.75800002 0.26699999 150 16 0
1.8150001 -0.76300001 0.26800001 150 16 0
1.806 -0.76499999 0.26699999 150 16 0
1.795 -0.76700002 0.26699999 150 16 0
1.7869999 -0.76899999 0.266 150 16 0
1.7819999 -0.773 0.26699999 4 0 0
1.775 -0.77600002 0.266 3 0 0
1.766 -0.778 0.266 2 0 0
1.763 -0.78299999 0.266 2 0 0
1.7539999 -0.78399998 0.26499999 2 0 0
1.748 -0.78799999 0.26499999 2 0 0
1.738 -0.78899997 0.26499999 3 0 0
1.734 -0.79299998 0.26499999 3 0 0
1.724 -0.79400003 0.264 98 0 0
1.719 -0.79799998 0.26300001 112 0 0
1.709 -0.79799998 0.26199999 108 0 0
1.707 -0.80299997 0.26300001 109 0 0
1.698 -0.80500001 0.26199999 100 0 0
1.694 -0.80800003 0.26199999 104 0 0
1.691 -0.81300002 0.26199999 120 0 0
1.686 -0.81599998 0.26100001 100 0 0
1.684 -0.81999999 0.26100001 109 0 0
1.665 -0.81599998 0.259 95 3 0
1.661 -0.81999999 0.259 97 0 0
1.658 -0.824 0.25799999 123 0 0
1.649 -0.82499999 0.257 119 0 0
1.65 -0.83099997 0.25799999 150 0 0
1.64 -0.83099997 0.25600001 150 0 0
1.631 -0.83200002 0.255 150 0 0
1.627 -0.83499998 0.255 150 0 0
1.623 -0.838 0.25400001 148 0 0
1.617 -0.84100002 0.25400001 150 0 0
1.613 -0.84299999 0.25299999 150 0 0
1.6059999 -0.84500003 0.252 150 16 0
1.6 -0.847 0.25099999 150 16 0
1.595 -0.84899998 0.25 150 16 0
1.59 -0.852 0.249 150 16 0
1.584 -0.85299999 0.248 2 0 0
1.581 -0.85699999 0.248 150 16 0
1.573 -0.85699999 0.24600001 150 0 0
1.567 -0.85900003 0.245 150 16 0
1.559 -0.86000001 0.244 142 0 0
1.554 -0.861 0.243 150 0 0
1.55 -0.86400002 0.242 150 0 0
1.5470001 -0.86699998 0.241 3 0 0
1.543 -0.86900002 0.23999999 5 0 0
1.538 -0.87199998 0.23899999 4 0 0
1.5369999 -0.875 0.23899999 3 0 0
1.5319999 -0.87699997 0.23800001 150 0 0
1.528 -0.87900001 0.237 145 0 0
1.526 -0.88200003 0.236 150 0 0
1.52 -0.884 0.235 132 0 0
1.513 -0.884 0.233 146 0 0
1.5089999 -0.88599998 0.23199999 150 0 0
1.506 -0.889 0.23100001 133 0 0
1.5 -0.889 0.229 150 0 0
1.4960001 -0.89099997 0.228 145 0 0
1.489 -0.89099997 0.226 100 0 0
1.482 -0.89099997 0.22499999 150 0 0
1.488 -0.898 0.22499999 150 0 0
1.477 -0.89600003 0.223 150 0 0
1.477 -0.89999998 0.222 150 0 0
1.469 -0.89899999 0.22 150 0 0
1.467 -0.90200001 0.219 144 0 0
1.464 -0.90399998 0.21699999 121 0 0
1.464 -0.90700001 0.21699999 150 0 0
1.46 -0.90899998 0.215 150 0 0
1.451 -0.90700001 0.213 135 0 0
1.449 -0.90899998 0.212 150 0 0
1.446 -0.91000003 0.20999999 150 0 0
1.441 -0.91100001 0.208 150 0 0
1.437 -0.912 0.207 150 0 0
1.434 -0.91299999 0.205 134 0 0
1.4299999 -0.91399997 0.204 150 0 0
1.427 -0.91500002 0.20200001 146 0 0
1.426 -0.91799998 0.20100001 122 0 0
1.42 -0.917 0.199 150 0 0
1.419 -0.91900003 0.198 150 0 0
1.4170001 -0.921 0.19599999 150 0 0
1.414 -0.92199999 0.19499999 150 0 0
1.41 -0.92299998 0.193 150 0 0
1.409 -0.92500001 0.192 149 0 0
1.403 -0.92400002 0.189 150 0 0
1.401 -0.92500001 0.18799999 149 0 0
1.397 -0.92500001 0.186 150 0 0
1.396 -0.92699999 0.184 150 0 0
1.395 -0.92799997 0.183 150 0 0
1.3890001 -0.92699999 0.18099999 149 0 0
1.388 -0.92900002 0.17900001 147 0 0
1.387 -0.93000001 0.178 145 0 0
1.383 -0.93000001 0.176 111 0 0
1.381 -0.93099999 0.17399999 132 0 0
1.382 -0.93300003 0.17299999 135 0 0
1.377 -0.93199998 0.17 150 0 0
1.375 -0.93300003 0.169 150 0 0
1.373 -0.93300003 0.167 143 0 0
1.369 -0.93199998 0.16500001 101 0 0
1.368 -0.93400002 0.163 132 0 0
1.367 -0.935 0.161 110 0 0
1.367 -0.93599999 0.16 133 0 0
1.363 -0.935 0.15800001 135 0 0
1.3660001 -0.93800002 0.156 122 0 0
1.36 -0.93599999 0.154 133 0 0
1.357 -0.935 0.152 144 0 0
1.357 -0.93599999 0.15000001 123 0 0
1.3559999 -0.93699998 0.148 140 0 0
1.355 -0.93800002 0.146 115 0 0
1.355 -0.93800002 0.145 122 0 0
1.353 -0.93800002 0.14300001 144 0 0
1.354 -0.94 0.141 124 0 0
1.354 -0.94 0.139 142 0 0
1.354 -0.94099998 0.13699999 150 0 0
1.351 -0.94 0.13500001 150 0 0
1.351 -0.94 0.133 147 0 0
1.347 -0.93900001 0.131 147 0 0
1.347 -0.93900001 0.12899999 135 0 0
1.349 -0.94 0.12800001 150 0 0
1.35 -0.94199997 0.126 122 0 0
1.349 -0.94099998 0.124 129 0 0
1.347 -0.94 0.122 130 0 0
1.347 -0.94 0.12 143 0 0
1.347 -0.94 0.118 108 0 0
1.348 -0.94 0.116 150 0 0
1.345 -0.93900001 0.114 112 0 0
1.346 -0.93800002 0.112 141 0 0
1.346 -0.93800002 0.11 133 0 0
1.346 -0.93800002 0.108 138 0 0
1.345 -0.93699998 0.106 150 0 0
1.345 -0.93699998 0.104 120 0 0
1.345 -0.93599999 0.102 123 0 0
1.346 -0.93599999 0.1 134 0 0
1.346 -0.935 0.097999997 138 0 0
1.348 -0.93599999 0.096000001 123 0 0
1.349 -0.93599999 0.094999999 133 0 0
1.348 -0.93400002 0.092 1 0 0
1.348 -0.93300003 0.090999998 150 0 0
1.349 -0.93300003 0.089000002 99 0 0
1.35 -0.93199998 0.086999997 125 0 0
1.349 -0.93000001 0.085000001 140 0 0
1.353 -0.93099999 0.082999997 103 0 0
1.352 -0.92900002 0.081 139 0 0
1.352 -0.92799997 0.079000004 150 0 0
1.357 -0.93000001 0.077 150 0 0
1.358 -0.92900002 0.075000003 150 0 0
1.3559999 -0.92699999 0.072999999 117 0 0
1.357 -0.92500001 0.071000002 128 0 0
1.358 -0.92400002 0.068999998 101 0 0
1.362 -0.92500001 0.068000004 140 0 0
1.363 -0.92299998 0.066 141 0 0
1.364 -0.92199999 0.064000003 150 0 0
1.365 -0.921 0.061999999 146 0 0
1.3660001 -0.91900003 0.059999999 150 0 0
1.367 -0.91799998 0.057999998 150 0 0
1.369 -0.917 0.056000002 98 0 0
1.369 -0.91500002 0.055 144 0 0
1.3660001 -0.91000003 0.052000001 141 0 0
1.373 -0.91299999 0.050999999 150 0 0
1.376 -0.91299999 0.048999999 110 0 0
1.375 -0.90899998 0.046999998 131 0 0
1.381 -0.91000003 0.046 126 0 0
1.383 -0.90899998 0.044 104 0 0
1.387 -0.90899998 0.041999999 116 0 0
1.388 -0.90700001 0.039999999 150 0 0
1.386 -0.903 0.037999999 124 0 0
1.391 -0.903 0.037 150 0 0
1.392 -0.90100002 0.035 122 0 0
1.391 -0.89700001 0.033 119 0 0
1.4 -0.89999998 0.030999999 137 3 0
1.401 -0.89700001 0.029999999 90 0 0
1.403 -0.89499998 0.028000001 126 0 0
1.409 -0.89600003 0.026000001 95 0 0
1.411 -0.89399999 0.025 109 0 0
1.4119999 -0.89099997 0.023 107 0 0
1.414 -0.889 0.021 125 0 0
1.415 -0.88700002 0.02 140 0 0
1.42 -0.88599998 0.017999999 131 0 0
1.424 -0.88499999 0.016000001 126 0 0
1.425 -0.88200003 0.015 123 0 0
1.427 -0.87900001 0.013 137 0 0
1.4349999 -0.88 0.011 140 0 0
1.439 -0.87900001 0.0099999998 122 0 0
1.438 -0.875 0.0080000004 105 0 0
1.442 -0.87300003 0.0070000002 135 0 0
1.447 -0.87199998 0.0049999999 134 0 0
1.449 -0.87 0.0040000002 143 0 0
1.45 -0.866 0.0020000001 118 0 0
1.4529999 -0.86400002 0.001 142 0 0
1.46 -0.86400002 0 146 0 0
1.462 -0.861 -0.001 105 0 0
1.4680001 -0.86000001 -0.003 107 0 0
1.47 -0.85699999 -0.0040000002 126 0 0
1.474 -0.85600001 -0.0060000001 121 0 0
1.477 -0.85299999 -0.0070000002 150 0 0
1.482 -0.852 -0.0080000004 140 0 0
1.4859999 -0.85000002 -0.0099999998 103 0 0
1.488 -0.847 -0.011 118 0 0
1.495 -0.84600002 -0.013 135 0 0
1.497 -0.84200001 -0.014 110 0 0
1.5039999 -0.84200001 -0.015 125 0 0
1.506 -0.838 -0.017000001 130 0 0
1.513 -0.838 -0.017999999 81 0 0
1.524 -0.83899999 -0.018999999 99 0 0
1.526 -0.83600003 -0.021 94 0 0
1.523 -0.829 -0.022 73 0 0
1.5319999 -0.829 -0.023 73 0 0
1.534 -0.82599998 -0.024 102 0 0
1.5369999 -0.82200003 -0.026000001 95 0 0
1.543 -0.82099998 -0.027000001 81 0 0
1.5470001 -0.81800002 -0.028000001 75 0 0
1.5599999 -0.81999999 -0.028999999 84 0 0
1.561 -0.815 -0.030999999 85 0 0
1.564 -0.81199998 -0.032000002 78 0 0
1.577 -0.81300002 -0.033 90 0 0
1.576 -0.80800003 -0.034000002 93 0 0
1.581 -0.80500001 -0.035 75 0 0
1.5880001 -0.80400002 -0.035999998 67 0 0
1.591 -0.80000001 -0.037 83 0 0
1.595 -0.79699999 -0.037999999 80 0 0
1.601 -0.79400003 -0.039000001 63 0 0
1.603 -0.79000002 -0.039999999 94 0 0
1.607 -0.787 -0.041999999 103 0 0
1.6210001 -0.78799999 -0.043000001 52 0 0
1.625 -0.78500003 -0.044 69 0 0
1.6289999 -0.78100002 -0.045000002 52 0 0
1.6339999 -0.778 -0.046 96 0 0
1.6390001 -0.77499998 -0.046999998 92 0 0
1.651 -0.77499998 -0.048 58 0 0
1.654 -0.77100003 -0.048999999 3 0 0
1.661 -0.76899999 -0.050000001 4 0 0
1.6619999 -0.764 -0.050000001 150 16 0
1.675 -0.76499999 -0.050999999 150 16 0
1.678 -0.75999999 -0.052000001 2 0 0
1.686 -0.75800002 -0.052999999 150 16 0
1.694 -0.75599998 -0.054000001 2 0 0
1.701 -0.75300002 -0.055 150 16 0
1.704 -0.74900001 -0.056000002 150 16 0
1.712 -0.74599999 -0.056000002 150 16 0
1.716 -0.74199998 -0.057 150 16 0
1.727 -0.741 -0.057999998 150 16 0
1.73 -0.73699999 -0.059 46 0 0
1.739 -0.73500001 -0.059999999 150 16 0
1.7460001 -0.73199999 -0.059999999 150 16 0
1.7539999 -0.72899997 -0.061000001 59 0 0
1.762 -0.727 -0.061999999 47 0 0
1.77 -0.72399998 -0.063000001 50 0 0
1.773 -0.71899998 -0.063000001 56 0 0
1.779 -0.71499997 -0.064000003 36 0 0
1.788 -0.713 -0.064000003 52 0 0
1.794 -0.70899999 -0.064999998 37 0 0
1.802 -0.70599997 -0.066 42 0 0
1.807 -0.70200002 -0.066 1 0 0
1.814 -0.699 -0.067000002 52 0 0
1.825 -0.69599998 -0.067000002 2 0 0
1.832 -0.69300002 -0.068000004 1 0 0
1.842 -0.69099998 -0.068999998 2 0 0
1.85 -0.68699998 -0.068999998 1 0 0
1.858 -0.68400002 -0.07 1 0 0
1.8609999 -0.67900002 -0.07 2 0 0
1.869 -0.67500001 -0.07 2 0 0
1.8789999 -0.67299998 -0.071000002 2 0 0
1.886 -0.66799998 -0.071000002 150 16 0
1.898 -0.66600001 -0.071999997 143 16 0
1.9 -0.66000003 -0.071999997 129 16 0
1.913 -0.65899998 -0.072999999 129 16 0
1.92 -0.65399998 -0.072999999 143 16 0
1.926 -0.64999998 -0.072999999 150 16 0
1.932 -0.64499998 -0.074000001 141 16 0
1.944 -0.64300001 -0.074000001 1 0 0
1.957 -0.63999999 -0.074000001 136 16 0
1.961 -0.63499999 -0.075000003 121 16 0
1.969 -0.63099998 -0.075000003 124 16 0
1.982 -0.62800002 -0.075000003 118 16 0
1.989 -0.62400001 -0.075000003 114 16 0
1.998 -0.62 -0.075999998 114 16 0
2.003 -0.61500001 -0.075999998 111 16 0
2.0109999 -0.611 -0.075999998 122 16 0
2.0220001 -0.60699999 -0.075999998 110 16 0
2.033 -0.60299999 -0.075999998 105 16 0
2.04 -0.59899998 -0.075999998 112 16 0
2.05 -0.59500003 -0.077 99 16 0
2.0650001 -0.59200001 -0.077 108 16 0
2.073 -0.58700001 -0.077 110 16 0
2.082 -0.583 -0.077 100 16 0
2.0929999 -0.579 -0.077 97 16 0
2.099 -0.57300001 -0.077 95 16 0
2.1099999 -0.56900001 -0.077 94 16 0
2.1199999 -0.565 -0.077 98 16 0
2.131 -0.56099999 -0.077 88 16 0
2.1400001 -0.55599999 -0.077 89 16 0
2.1470001 -0.55000001 -0.077 89 16 0
2.1600001 -0.54699999 -0.077 84 16 0
2.168 -0.54100001 -0.077 87 16 0
2.191 -0.54000002 -0.077 87 19 0
2.194 -0.53299999 -0.077 77 16 0
2.2079999 -0.52899998 -0.077 80 16 0
2.2160001 -0.52399999 -0.077 62 16 0
2.2320001 -0.51999998 -0.077 58 16 0
2.2449999 -0.51599997 -0.075999998 61 16 0
2.2520001 -0.50999999 -0.075999998 65 16 0
2.2620001 -0.505 -0.075999998 58 16 0
2.276 -0.5 -0.075999998 57 16 0
2.286 -0.495 -0.075000003 54 16 0
2.2980001 -0.49000001 -0.075000003 49 16 0
2.3110001 -0.48500001 -0.075000003 55 16 0
2.3210001 -0.47999999 -0.074000001 51 16 0
2.3340001 -0.47400001 -0.074000001 52 16 0
2.3499999 -0.47 -0.074000001 55 16 0
2.3610001 -0.46399999 -0.072999999 51 16 0
2.3740001 -0.45899999 -0.072999999 43 16 0
2.388 -0.454 -0.072999999 54 16 0
2.3989999 -0.44800001 -0.071999997 47 16 0
2.414 -0.44299999 -0.071999997 50 16 0
2.428 -0.43799999 -0.071000002 53 16 0
2.4360001 -0.43099999 -0.071000002 46 16 0
2.4530001 -0.426 -0.07 52 16 0
2.4619999 -0.41999999 -0.07 44 16 0
2.4779999 -0.414 -0.068999998 42 16 0
2.4860001 -0.40700001 -0.068000004 44 16 0
2.5009999 -0.40200001 -0.068000004 43 16 0
2.516 -0.396 -0.067000002 32 16 0
2.5320001 -0.38999999 -0.067000002 38 16 0
2.5439999 -0.384 -0.066 34 16 0
2.5580001 -0.377 -0.064999998 33 16 0
2.576 -0.37200001 -0.064999998 32 16 0
2.5880001 -0.36500001 -0.064000003 34 16 0
2.599 -0.35800001 -0.063000001 35 16 0
2.6170001 -0.352 -0.061999999 34 16 0
2.6289999 -0.345 -0.061000001 33 16 0
2.6459999 -0.33899999 -0.059999999 35 16 0
2.6630001 -0.33199999 -0.059999999 32 16 0
2.678 -0.32600001 -0.059 34 16 0
2.698 -0.31900001 -0.057999998 31 16 0
2.7090001 -0.31200001 -0.057 33 16 0
2.724 -0.30500001 -0.056000002 32 16 0
2.7360001 -0.29699999 -0.055 31 16 0
2.7590001 -0.29100001 -0.054000001 32 16 0
2.773 -0.28299999 -0.052999999 32 16 0
2.7869999 -0.27599999 -0.050999999 30 16 0
2.8050001 -0.26899999 -0.050000001 31 16 0
2.8210001 -0.26100001 -0.048999999 32 16 0
2.836 -0.25299999 -0.048 30 16 0
2.852 -0.24600001 -0.046999998 26 16 0
2.8670001 -0.23800001 -0.045000002 26 16 0
2.8889999 -0.23 -0.044 27 16 0
2.9119999 -0.223 -0.043000001 27 16 0
2.9219999 -0.214 -0.041000001 26 16 0
2.9460001 -0.207 -0.039999999 25 16 0
2.9630001 -0.198 -0.039000001 26 16 0
2.9820001 -0.19 -0.037 26 16 0
3.0050001 -0.182 -0.035999998 26 16 0
3.016 -0.17299999 -0.034000002 24 16 0
3.0439999 -0.16500001 -0.033 26 19 0
3.069 -0.156 -0.030999999 26 16 0
3.089 -0.148 -0.028999999 26 16 0
3.112 -0.139 -0.028000001 25 16 0
3.131 -0.13 -0.026000001 26 16 0
3.155 -0.121 -0.024 27 16 0
3.175 -0.111 -0.023 27 16 0
3.194 -0.102 -0.021 26 16 0
3.2119999 -0.092 -0.018999999 27 16 0
3.237 -0.082999997 -0.017000001 29 16 0
3.2639999 -0.072999999 -0.015 44 16 0
3.263 -0.063000001 -0.013 150 16 0
3.263 -0.052000001 -0.011 118 16 0
3.257 -0.041999999 -0.0080000004 122 16 0
3.2539999 -0.032000002 -0.0060000001 117 16 0
3.2479999 -0.021 -0.0040000002 60 16 0
3.2460001 -0.011 -0.0020000001 21 16 0
3.279 0 0 17 19 0
3.3010001 0.0089999996 0.0020000001 18 16 0
3.329 0.02 0.0040000002 22 16 0
3.3369999 0.029999999 0.0060000001 48 16 0
3.325 0.041000001 0.0089999996 52 16 0
3.3210001 0.050999999 0.011 45 16 0
3.3210001 0.061999999 0.013 45 16 0
3.316 0.071999997 0.016000001 60 16 0
3.3099999 0.082000002 0.017999999 55 16 0
3.3069999 0.093000002 0.02 57 16 0
3.3039999 0.103 0.023 63 16 0
3.2939999 0.113 0.025 67 16 0
3.2920001 0.123 0.028000001 58 16 0
3.279 0.133 0.029999999 48 16 0
3.2409999 0.142 0.032000002 28 19 0
3.23 0.15099999 0.034000002 26 16 0
3.224 0.161 0.037 27 16 0
3.2119999 0.171 0.039000001 27 16 0
3.211 0.18099999 0.041999999 28 16 0
3.21 0.191 0.044 30 16 0
3.2 0.20100001 0.046999998 31 16 0
3.191 0.20999999 0.048999999 50 16 0
3.191 0.22 0.050999999 106 16 0
3.1900001 0.23 0.054000001 52 16 0
3.1830001 0.23999999 0.057 39 16 0
3.181 0.249 0.059 42 16 0
3.174 0.259 0.061999999 44 16 0
3.1689999 0.26800001 0.064000003 47 16 0
3.1619999 0.278 0.067000002 60 16 0
3.158 0.287 0.068999998 82 16 0
3.154 0.29699999 0.071999997 67 16 0
3.1530001 0.30700001 0.074000001 90 16 0
3.1459999 0.31600001 0.077 93 16 0
3.145 0.32600001 0.079999998 100 16 0
3.1370001 0.33500001 0.082000002 100 16 0
3.1300001 0.34400001 0.085000001 102 16 0
3.145 0.35499999 0.088 25 16 0
3.1830001 0.37 0.092 22 16 0
3.1900001 0.38100001 0.094999999 100 16 0
3.188 0.38999999 0.097999997 82 16 0
3.1830001 0.39899999 0.101 86 16 0
3.184 0.41 0.104 69 16 0
3.1760001 0.419 0.106 73 16 0
3.175 0.428 0.109 72 16 0
3.1689999 0.43799999 0.112 75 16 0
3.168 0.447 0.115 70 16 0
3.1659999 0.45699999 0.118 71 16 0
3.1619999 0.46599999 0.121 56 16 0
3.1530001 0.47499999 0.123 51 16 0
3.152 0.48500001 0.126 52 16 0
3.154 0.495 0.13 50 16 0
3.1440001 0.50300002 0.132 47 16 0
3.1370001 0.51200002 0.13500001 51 16 0
3.135 0.52100003 0.138 48 16 0
3.135 0.53100002 0.141 56 16 0
3.128 0.54000002 0.14399999 84 16 0
3.1199999 0.54799998 0.147 88 16 0
3.118 0.55800003 0.15000001 106 16 0
3.1159999 0.56699997 0.153 103 16 0
3.1140001 0.57599998 0.156 105 16 0
3.1129999 0.58600003 0.15899999 122 16 0
3.1070001 0.59500003 0.162 122 16 0
3.1059999 0.60399997 0.16599999 111 16 0
3.0999999 0.61299998 0.169 110 16 0
3.0969999 0.62199998 0.17200001 149 16 0
3.095 0.63099998 0.175 150 16 0
3.0880001 0.639 0.178 141 16 0
3.0899999 0.64899999 0.182 150 16 0
3.0880001 0.65899998 0.185 150 16 0
3.085 0.66799998 0.18799999 137 16 0
3.079 0.676 0.191 121 16 0
3.073 0.685 0.19400001 99 16 0
3.0699999 0.69400001 0.198 49 16 0
3.063 0.70099998 0.20100001 45 16 0
3.0539999 0.70899999 0.204 39 16 0
3.046 0.71700001 0.207 37 16 0
3.0380001 0.72399998 0.20999999 35 16 0
3.03 0.73199999 0.213 34 16 0
3.0209999 0.73900002 0.21600001 33 16 0
3.0179999 0.74800003 0.219 34 16 0
3.0050001 0.75400001 0.222 33 16 0
3.0009999 0.76200002 0.22499999 32 16 0
2.993 0.76999998 0.228 33 16 0
2.9860001 0.77700001 0.23100001 34 16 0
2.9760001 0.78399998 0.234 30 16 0
2.97 0.792 0.237 33 16 0
2.9579999 0.79799998 0.23999999 34 16 0
2.96 0.80699998 0.244 36 16 0
2.9400001 0.81099999 0.24600001 35 16 0
2.9389999 0.81999999 0.25 40 16 0
2.931 0.82700002 0.25299999 42 16 0
2.9230001 0.83399999 0.25600001 53 16 0
2.9170001 0.84100002 0.259 87 16 0
2.9130001 0.84899998 0.26300001 125 16 0
2.904 0.85600001 0.266 150 16 0
2.902 0.86400002 0.27000001 150 16 0
2.898 0.87199998 0.273 150 16 0
2.8970001 0.88 0.27700001 150 16 0
2.8900001 0.88700002 0.28 150 16 0
2.8929999 0.89700001 0.28400001 150 16 0
2.8900001 0.90499997 0.28799999 150 16 0
2.8870001 0.91299999 0.292 150 16 0
2.8840001 0.921 0.29499999 150 16 0
2.8800001 0.92900002 0.29899999 150 16 0
2.8759999 0.93599999 0.303 150 16 0
2.875 0.94499999 0.30700001 150 16 0
2.872 0.95300001 0.31099999 150 16 0
2.8699999 0.96100003 0.315 150 16 0
2.8670001 0.96899998 0.31799999 150 16 0
2.8640001 0.977 0.322 150 16 0
2.8670001 0.986 0.32699999 150 16 0
2.8629999 0.99400002 0.331 150 16 0
2.8599999 1.001 0.33500001 150 16 0
2.8559999 1.0089999 0.338 150 16 0
2.8559999 1.018 0.34299999 150 16 0
2.8510001 1.024 0.34599999 150 16 0
2.8499999 1.033 0.35100001 150 16 0
2.8469999 1.04 0.35499999 150 16 0
2.8469999 1.049 0.359 150 16 0
2.8429999 1.056 0.36300001 150 16 0
2.8399999 1.063 0.36700001 150 16 0
2.8399999 1.072 0.37200001 150 16 0
2.8329999 1.0779999 0.375 150 16 0
2.835 1.087 0.38 150 16 0
2.832 1.095 0.384 150 16 0
2.829 1.102 0.38800001 150 16 0
2.825 1.109 0.39300001 150 16 0
2.825 1.117 0.39700001 150 16 0
2.8180001 1.123 0.40099999 150 16 0
2.823 1.133 0.40700001 150 16 0
2.813 1.138 0.41 150 16 0
2.8169999 1.148 0.41499999 150 16 0
2.816 1.155 0.41999999 150 16 0
2.8139999 1.163 0.42399999 150 16 0
2.812 1.17 0.42899999 150 16 0
2.8139999 1.179 0.43399999 150 16 0
2.8080001 1.1849999 0.43799999 150 16 0
2.8069999 1.192 0.442 150 16 0
2.8039999 1.199 0.447 150 16 0
2.8 1.206 0.45100001 150 16 0
2.8 1.214 0.456 150 16 0
2.796 1.22 0.461 150 16 0
2.796 1.228 0.46599999 150 16 0
2.7939999 1.235 0.47 150 16 0
2.789 1.2410001 0.47499999 150 16 0
2.79 1.249 0.47999999 150 16 0
2.7909999 1.257 0.48500001 150 16 0
2.7869999 1.2640001 0.49000001 150 16 0
2.786 1.271 0.495 150 16 0
2.78 1.276 0.49900001 150 16 0
2.7850001 1.286 0.505 150 16 0
2.7850001 1.294 0.50999999 150 16 0
2.78 1.299 0.514 150 16 0
2.783 1.308 0.51999998 150 16 0
2.7820001 1.3150001 0.52499998 150 16 0
2.777 1.3200001 0.52999997 150 16 0
2.779 1.3279999 0.53600001 150 16 0
2.7780001 1.335 0.54100001 150 16 0
2.7750001 1.341 0.546 150 16 0
2.773 1.348 0.551 150 16 0
2.7690001 1.353 0.55500001 150 16 0
2.7709999 1.3609999 0.56099999 150 16 0
2.77 1.368 0.56599998 150 16 0
2.77 1.374 0.57200003 150 16 0
2.7650001 1.3789999 0.57599998 150 16 0
2.7620001 1.385 0.58099997 150 16 0
2.763 1.392 0.58700001 150 16 0
2.756 1.395 0.59100002 90 16 0
2.75 1.399 0.59500003 43 16 0
2.7409999 1.401 0.59899998 39 16 0
2.73 1.402 0.602 36 16 0
2.7290001 1.408 0.60699999 38 16 0
2.7179999 1.409 0.61000001 35 16 0
2.7079999 1.41 0.61400002 35 16 0
2.698 1.411 0.61699998 35 16 0
2.6900001 1.413 0.62099999 34 16 0
2.6789999 1.414 0.62400001 34 16 0
2.6730001 1.4170001 0.62800002 34 16 0
2.6689999 1.421 0.63200003 34 16 0
2.6570001 1.42 0.63499999 34 16 0
2.6489999 1.421 0.639 35 16 0
2.642 1.424 0.64200002 36 16 0
2.6340001 1.425 0.64600003 34 16 0
2.625 1.426 0.64899999 34 16 0
2.6170001 1.427 0.653 36 16 0
2.609 1.427 0.65600002 35 16 0
2.5999999 1.428 0.65899998 35 16 0
2.5940001 1.4299999 0.66299999 35 16 0
2.576 1.425 0.66399997 34 16 0
2.572 1.427 0.66799998 34 16 0
2.5639999 1.428 0.67199999 34 16 0
2.5550001 1.428 0.67500001 34 16 0
2.552 1.431 0.68000001 33 16 0
2.543 1.4299999 0.68199998 35 16 0
2.5369999 1.432 0.68599999 34 16 0
2.5239999 1.429 0.68800002 33 16 0
2.5220001 1.432 0.69300002 34 16 0
2.5120001 1.4299999 0.69499999 34 16 0
2.5079999 1.432 0.699 34 16 0
2.503 1.433 0.70300001 34 16 0
2.4920001 1.431 0.70499998 34 16 0
2.4879999 1.432 0.70899999 39 16 0
2.4820001 1.433 0.713 39 16 0
2.471 1.4299999 0.71499997 38 16 0
2.4649999 1.4299999 0.71799999 38 16 0
2.4549999 1.428 0.72000003 39 16 0
2.451 1.428 0.72399998 40 16 0
2.4419999 1.427 0.72600001 39 16 0
2.4400001 1.428 0.73000002 40 16 0
2.428 1.424 0.73199999 40 16 0
2.4260001 1.426 0.736 39 16 0
2.4170001 1.423 0.73799998 39 16 0
2.4089999 1.421 0.74000001 40 16 0
2.404 1.421 0.74400002 37 16 0
2.4000001 1.421 0.74699998 38 16 0
2.3929999 1.419 0.75 37 16 0
2.388 1.418 0.75300002 39 16 0
2.378 1.415 0.75400001 37 16 0
2.3729999 1.414 0.75700003 37 16 0
2.3699999 1.414 0.76099998 38 16 0
2.362 1.411 0.76300001 38 16 0
2.355 1.408 0.76499999 37 16 0
2.3510001 1.408 0.76800001 37 16 0
2.3410001 1.403 0.76899999 37 16 0
2.339 1.403 0.773 37 16 0
2.3329999 1.4 0.77499998 37 16 0
2.3280001 1.399 0.778 37 16 0
2.322 1.396 0.77999997 37 16 0
2.316 1.393 0.78200001 38 16 0
2.312 1.392 0.78500003 40 16 0
2.3050001 1.388 0.78600001 39 16 0
2.3050001 1.388 0.79000002 39 16 0
2.299 1.385 0.792 39 16 0
2.2939999 1.383 0.79400003 39 16 0
2.2909999 1.381 0.79699999 39 16 0
2.283 1.376 0.79799998 45 16 0
2.2780001 1.374 0.80000001 40 16 0
2.279 1.374 0.80400002 45 16 0
2.2709999 1.369 0.80500001 41 16 0
2.263 1.364 0.80500001 41 16 0
2.2650001 1.364 0.80900002 45 16 0
2.263 1.362 0.81199998 51 16 0
2.253 1.3559999 0.81199998 41 19 0
2.2509999 1.354 0.81400001 45 16 0
2.25 1.352 0.81699997 47 16 0
2.2449999 1.348 0.81800002 46 16 0
2.243 1.346 0.81999999 51 16 0
2.2409999 1.344 0.82300001 55 16 0
2.2379999 1.341 0.82499999 59 16 0
2.233 1.336 0.82599998 53 16 0
2.23 1.3329999 0.82800001 57 16 0
2.2260001 1.329 0.829 48 16 0
2.2219999 1.325 0.82999998 52 16 0
2.221 1.322 0.83200002 59 16 0
2.2149999 1.317 0.83200002 58 16 0
2.2130001 1.314 0.83399999 57 16 0
2.211 1.311 0.83600003 66 16 0
2.2049999 1.3049999 0.83600003 57 16 0
2.2060001 1.303 0.838 60 16 0
2.2079999 1.302 0.84100002 61 16 0
2.204 1.2970001 0.84200001 54 16 0
2.2030001 1.294 0.84299999 58 16 0
2.194 1.286 0.84200001 58 19 0
2.1930001 1.2819999 0.84299999 66 16 0
2.1930001 1.28 0.84500003 63 16 0
2.187 1.273 0.84399998 64 16 0
2.1860001 1.2690001 0.84500003 70 16 0
2.1819999 1.2640001 0.84600002 69 16 0
2.184 1.262 0.84799999 76 16 0
2.177 1.2539999 0.84600002 66 19 0
2.181 1.253 0.84899998 67 16 0
2.1789999 1.249 0.85000002 74 16 0
2.177 1.244 0.85000002 68 16 0
2.1789999 1.2410001 0.852 73 16 0
2.177 1.237 0.85299999 66 16 0
2.174 1.2309999 0.852 80 16 0
2.1719999 1.226 0.852 75 16 0
2.1730001 1.223 0.85299999 84 16 0
2.1689999 1.216 0.85299999 71 16 0
2.171 1.2130001 0.85399997 84 16 0
2.1700001 1.209 0.85399997 90 16 0
2.1719999 1.205 0.85500002 90 16 0
2.1689999 1.199 0.85500002 84 16 0
2.1730001 1.197 0.85699999 92 16 0
2.1630001 1.187 0.85299999 86 19 0
2.171 1.187 0.85600001 87 16 0
2.1659999 1.1799999 0.85500002 93 16 0
2.1659999 1.175 0.85500002 93 16 0
2.1689999 1.1720001 0.85600001 93 16 0
2.1689999 1.1670001 0.85600001 96 16 0
2.171 1.163 0.85600001 98 16 0
2.1730001 1.159 0.85699999 96 16 0
2.175 1.156 0.85799998 90 16 0
2.171 1.148 0.85600001 87 16 0
2.1730001 1.1440001 0.85600001 86 16 0
2.178 1.142 0.85699999 97 16 0
2.1760001 1.135 0.85600001 89 16 0
2.1719999 1.128 0.85399997 87 16 0
2.175 1.124 0.85399997 93 16 0
2.177 1.12 0.85399997 95 16 0
2.177 1.114 0.85299999 86 16 0
2.181 1.1109999 0.85399997 93 16 0
2.178 1.104 0.852 86 16 0
2.1830001 1.101 0.85299999 95 16 0
2.1830001 1.095 0.85100001 101 16 0
2.1789999 1.0880001 0.84899998 94 16 0
2.1849999 1.085 0.85000002 96 16 0
2.187 1.08 0.84899998 99 16 0
2.1900001 1.076 0.84899998 99 16 0
2.187 1.068 0.84600002 102 16 0
2.1949999 1.066 0.84799999 101 16 0
2.1919999 1.059 0.84500003 103 16 0
2.1960001 1.0549999 0.84500003 95 16 0
2.2019999 1.052 0.84600002 101 16 0
2.204 1.0470001 0.84500003 106 16 0
2.2019999 1.04 0.84200001 101 16 0
2.2049999 1.035 0.84100002 108 16 0
2.2079999 1.03 0.83999997 103 16 0
2.2079999 1.024 0.838 109 16 0
2.21 1.0190001 0.83700001 109 16 0
2.2119999 1.0140001 0.83600003 110 16 0
2.2149999 1.0089999 0.83499998 104 16 0
2.221 1.006 0.83499998 123 16 0
2.224 1.001 0.833 113 16 0
2.223 0.99400002 0.83099997 115 16 0
2.23 0.99000001 0.83099997 113 16 0
2.237 0.98699999 0.83099997 118 16 0
2.2349999 0.98000002 0.82800001 119 16 0
2.2460001 0.97799999 0.829 123 16 0
2.2409999 0.97000003 0.824 117 16 0
2.2449999 0.96499997 0.82300001 107 16 0
2.2550001 0.963 0.824 102 16 0
2.256 0.95700002 0.82200003 97 16 0
2.2609999 0.95200002 0.82099998 101 16 0
2.263 0.94700003 0.81800002 107 16 0
2.2679999 0.94199997 0.81699997 106 16 0
2.2709999 0.93699998 0.815 106 16 0
2.2739999 0.93099999 0.81300002 112 16 0
2.277 0.926 0.81099999 97 16 0
2.2850001 0.92299998 0.81099999 94 16 0
2.2850001 0.91600001 0.80800003 100 16 0
2.2880001 0.91100001 0.80500001 96 16 0
2.2969999 0.90700001 0.80500001 98 16 0
2.3 0.90200001 0.80299997 103 16 0
2.3039999 0.89700001 0.801 95 16 0
2.3080001 0.89200002 0.79900002 104 16 0
2.319 0.889 0.79900002 108 16 0
2.3199999 0.88200003 0.79500002 107 16 0
2.3269999 0.87900001 0.79400003 96 16 0
2.3299999 0.87300003 0.792 96 16 0
2.3369999 0.86900002 0.79000002 98 16 0
2.3410001 0.86299998 0.78799999 99 16 0
2.3429999 0.85699999 0.78399998 99 16 0
2.3469999 0.852 0.78200001 96 16 0
2.3559999 0.84799999 0.78100002 101 16 0
2.3610001 0.84299999 0.77899998 97 16 0
2.359 0.83600003 0.77399999 94 16 0
2.3699999 0.833 0.77399999 100 16 0
2.3740001 0.82700002 0.77100003 107 16 0
2.3789999 0.82200003 0.76800001 91 16 0
2.3840001 0.81699997 0.76599997 98 16 0
2.391 0.81300002 0.764 106 16 0
2.3929999 0.80699998 0.75999999 95 16 0
2.405 0.80400002 0.75999999 95 16 0
2.411 0.79900002 0.75700003 100 16 0
2.4159999 0.79400003 0.75400001 102 16 0
2.425 0.79000002 0.75300002 100 16 0
2.4289999 0.78399998 0.74900001 105 16 0
2.4319999 0.778 0.74599999 106 16 0
2.4419999 0.77399999 0.74400002 96 16 0
2.447 0.76899999 0.741 99 16 0
2.4519999 0.764 0.73799998 93 16 0
2.4549999 0.75800002 0.73400003 94 16 0
2.4649999 0.75400001 0.73199999 83 16 0
2.467 0.74699998 0.72799999 88 16 0
2.4790001 0.74400002 0.727 101 16 0
2.4849999 0.73900002 0.72399998 105 16 0
2.4909999 0.73400003 0.72100002 106 16 0
2.5020001 0.73000002 0.71899998 106 16 0
2.513 0.72600001 0.71700001 89 16 0
2.517 0.72100002 0.713 93 16 0
2.5220001 0.71499997 0.70999998 82 16 0
2.5309999 0.71100003 0.70700002 94 16 0
2.5369999 0.70499998 0.70300001 87 16 0
2.5420001 0.69999999 0.69999999 63 16 0
2.5510001 0.69499999 0.69700003 62 16 0
2.5550001 0.68900001 0.69300002 71 16 0
2.5650001 0.685 0.69 74 16 0
2.5739999 0.68099999 0.68800002 78 16 0
2.5810001 0.67500001 0.68400002 62 16 0
2.586 0.67000002 0.68000001 66 16 0
2.5940001 0.66500002 0.67699999 71 16 0
2.602 0.66000003 0.67299998 64 16 0
2.6070001 0.65399998 0.66900003 67 16 0
2.6140001 0.64899999 0.66500002 68 16 0
2.625 0.64499998 0.66299999 67 16 0
2.631 0.639 0.65799999 64 16 0
2.641 0.63499999 0.65499997 57 16 0
2.6470001 0.62900001 0.65100002 55 16 0
2.655 0.62400001 0.64700001 59 16 0
2.6659999 0.62 0.64399999 63 16 0
2.674 0.61400002 0.63999999 43 16 0
2.677 0.60799998 0.63499999 39 16 0
2.691 0.60399997 0.63300002 40 16 0
2.7019999 0.60000002 0.62900001 40 16 0
2.7119999 0.59500003 0.62599999 39 16 0
2.7219999 0.58999997 0.62199998 41 16 0
2.7309999 0.58499998 0.61799997 41 16 0
2.7420001 0.57999998 0.61500001 41 16 0
2.7479999 0.57499999 0.61000001 38 16 0
2.753 0.56900001 0.60500002 37 16 0
2.766 0.56400001 0.602 38 16 0
2.776 0.55900002 0.59799999 37 16 0
2.7850001 0.55400002 0.59299999 37 16 0
2.7950001 0.54900002 0.58899999 38 16 0
2.8050001 0.54400003 0.58499998 38 16 0
2.8099999 0.53799999 0.57999998 37 16 0
2.825 0.53399998 0.57700002 37 16 0
2.836 0.52899998 0.57200003 38 16 0
2.8429999 0.523 0.56699997 37 16 0
2.855 0.51800001 0.56300002 37 16 0
2.8670001 0.51300001 0.55900002 36 16 0
2.875 0.50700003 0.55400002 37 16 0
2.8889999 0.50300002 0.55000001 38 16 0
2.898 0.49700001 0.54500002 36 16 0
2.905 0.491 0.54000002 36 16 0
2.921 0.48699999 0.53600001 35 16 0
2.9349999 0.48199999 0.53200001 35 16 0
2.9460001 0.477 0.52700001 36 16 0
2.9579999 0.472 0.523 35 16 0
2.967 0.46599999 0.51700002 34 16 0
2.9779999 0.46000001 0.51200002 34 16 0
2.9920001 0.456 0.50800002 33 16 0
3.003 0.44999999 0.50300002 35 16 0
3.0150001 0.44499999 0.498 33 16 0
3.0280001 0.43900001 0.493 34 16 0
3.043 0.43399999 0.48800001 34 16 0
3.049 0.428 0.48199999 33 16 0
3.063 0.42300001 0.477 35 16 0
3.075 0.417 0.472 33 16 0
3.0880001 0.412 0.46700001 34 16 0
3.0999999 0.40599999 0.461 34 16 0
3.118 0.40099999 0.456 35 16 0
3.128 0.39500001 0.45100001 33 16 0
3.141 0.38999999 0.44499999 34 16 0
3.154 0.384 0.43900001 36 16 0
3.168 0.37900001 0.43399999 35 16 0
3.1800001 0.373 0.428 36 16 0
3.1949999 0.36700001 0.42199999 36 16 0
3.207 0.361 0.41600001 39 16 0
3.2219999 0.35600001 0.41100001 54 16 0
3.2260001 0.34900001 0.403 150 16 0
3.2279999 0.34200001 0.396 150 16 0
3.2290001 0.33399999 0.38800001 150 16 0
3.2360001 0.32800001 0.38100001 150 16 0
3.2290001 0.31999999 0.373 150 16 0
3.2309999 0.31299999 0.36500001 150 16 0
3.2320001 0.30599999 0.35800001 150 16 0
3.234 0.29899999 0.34999999 144 16 0
3.2320001 0.29100001 0.34200001 146 16 0
3.237 0.28400001 0.33500001 150 16 0
3.2349999 0.27700001 0.32699999 150 16 0
3.2360001 0.27000001 0.31900001 146 16 0
3.2379999 0.26300001 0.31200001 150 16 0
3.237 0.25600001 0.30399999 142 16 0
3.2360001 0.249 0.296 146 16 0
3.2379999 0.242 0.28799999 150 16 0
3.2349999 0.235 0.28 150 16 0
3.2360001 0.228 0.27200001 150 16 0
3.24 0.221 0.26499999 150 16 0
3.2409999 0.214 0.257 150 16 0
3.237 0.207 0.248 141 16 0
3.2290001 0.199 0.23999999 150 16 0
3.1110001 0.185 0.22400001 150 17 0
3.0469999 0.175 0.211 31 16 0
3.046 0.168 0.204 21 16 0
3.154 0.168 0.20299999 44 17 0
3.233 0.16500001 0.20100001 118 19 0
3.237 0.15800001 0.193 119 16 0
3.24 0.152 0.185 126 16 0
3.2409999 0.145 0.177 131 16 0
3.2409999 0.138 0.169 114 16 0
3.2360001 0.131 0.161 122 16 0
3.237 0.124 0.153 109 16 0
3.2379999 0.118 0.145 120 16 0
3.243 0.111 0.13699999 62 16 0
3.2449999 0.104 0.12899999 35 16 0
3.266 0.097999997 0.122 28 16 0
3.2820001 0.092 0.114 27 16 0
3.3039999 0.086000003 0.107 29 16 0
3.325 0.079999998 0.098999999 32 16 0
3.3340001 0.072999999 0.090999998 23 16 0
3.323 0.066 0.082000002 4 16 0
3.2939999 0.057999998 0.072999999 11 16 0
3.2950001 0.052000001 0.064999998 9 16 0
3.3280001 0.045000002 0.057 5 19 0
3.3410001 0.039000001 0.048999999 35 16 0
3.3440001 0.032000002 0.039999999 68 16 0
3.342 0.025 0.032000002 41 16 0
3.3310001 0.017999999 0.023 21 16 0
3.313 0.012 0.015 18 16 0
3.2869999 0.0049999999 0.0060000001 17 16 0
3.2780001 -0.001 -0.001 17 16 0
3.2590001 -0.0070000002 -0.0089999996 16 16 0
3.237 -0.013 -0.017000001 21 16 0
3.233 -0.02 -0.025 41 16 0
3.23 -0.026000001 -0.034000002 103 16 0
3.237 -0.033 -0.041999999 131 16 0
3.2349999 -0.039000001 -0.050000001 122 16 0
3.23 -0.045000002 -0.059 112 16 0
3.233 -0.052000001 -0.067000002 120 16 0
3.234 -0.057999998 -0.075000003 132 16 0
3.2309999 -0.064999998 -0.082999997 150 16 0
3.2260001 -0.071000002 -0.092 80 16 0
3.214 -0.077 -0.1 34 16 0
3.198 -0.082999997 -0.107 26 16 0
3.184 -0.088 -0.115 26 16 0
3.1670001 -0.093999997 -0.123 26 16 0
3.148 -0.1 -0.13 26 16 0
3.1340001 -0.105 -0.138 25 16 0
3.1159999 -0.111 -0.145 24 16 0
3.1010001 -0.116 -0.153 23 16 0
3.0880001 -0.122 -0.16 22 16 0
3.0710001 -0.127 -0.167 22 16 0
3.0580001 -0.132 -0.17399999 24 16 0
3.0420001 -0.13699999 -0.182 24 16 0
3.0280001 -0.142 -0.189 24 16 0
3.0039999 -0.147 -0.19499999 23 16 0
2.9960001 -0.152 -0.20299999 24 16 0
2.9820001 -0.15700001 -0.20900001 24 16 0
2.9690001 -0.162 -0.21600001 24 16 0
2.954 -0.167 -0.223 23 16 0
2.9419999 -0.17200001 -0.23 23 16 0
2.9219999 -0.176 -0.236 23 16 0
2.9119999 -0.18099999 -0.243 23 16 0
2.901 -0.186 -0.25 24 16 0
2.8870001 -0.19 -0.257 24 16 0
2.8740001 -0.19499999 -0.26300001 24 16 0
2.8610001 -0.199 -0.27000001 23 16 0
2.8499999 -0.204 -0.27599999 23 16 0
2.836 -0.208 -0.28299999 23 16 0
2.8310001 -0.213 -0.28999999 24 16 0
2.812 -0.21600001 -0.29499999 24 16 0
2.802 -0.221 -0.30199999 24 16 0
2.7920001 -0.22499999 -0.30899999 27 16 0
2.7720001 -0.229 -0.31400001 25 16 0
2.763 -0.233 -0.31999999 26 16 0
2.7550001 -0.237 -0.32699999 27 16 0
2.747 -0.241 -0.333 27 16 0
2.7279999 -0.245 -0.338 26 16 0
2.7190001 -0.249 -0.345 26 16 0
2.7130001 -0.25299999 -0.352 26 16 0
2.7049999 -0.257 -0.35800001 28 16 0
2.697 -0.26100001 -0.36399999 26 16 0
2.687 -0.26499999 -0.37 28 16 0
2.6719999 -0.26800001 -0.37599999 27 16 0
2.658 -0.27200001 -0.38100001 25 16 0
2.651 -0.27599999 -0.38800001 27 16 0
2.6389999 -0.27900001 -0.39300001 27 16 0
2.6259999 -0.28200001 -0.39899999 27 16 0
2.618 -0.28600001 -0.405 28 16 0
2.609 -0.28999999 -0.41100001 27 16 0
2.599 -0.29300001 -0.41600001 27 16 0
2.586 -0.296 -0.421 27 16 0
2.5799999 -0.30000001 -0.428 26 16 0
2.5699999 -0.303 -0.433 26 16 0
2.5610001 -0.30700001 -0.43900001 27 16 0
2.549 -0.30899999 -0.44400001 29 16 0
2.543 -0.31299999 -0.44999999 30 16 0
2.529 -0.31600001 -0.45500001 29 16 0
2.5209999 -0.31900001 -0.461 30 16 0
2.513 -0.322 -0.46700001 31 16 0
2.5 -0.32499999 -0.47099999 30 16 0
2.4949999 -0.329 -0.47799999 32 16 0
2.4890001 -0.33199999 -0.484 29 16 0
2.4809999 -0.33500001 -0.48899999 30 16 0
2.4679999 -0.33700001 -0.49399999 30 16 0
2.4590001 -0.34 -0.49900001 31 16 0
2.4489999 -0.34299999 -0.50400001 29 16 0
2.4430001 -0.34599999 -0.50999999 31 16 0
2.4319999 -0.34900001 -0.51499999 31 16 0
2.427 -0.352 -0.52100003 30 16 0
2.4170001 -0.354 -0.52600002 30 16 0
2.414 -0.35800001 -0.53200001 31 16 0
2.405 -0.361 -0.537 29 16 0
2.398 -0.36300001 -0.54299998 35 16 0
2.3889999 -0.366 -0.54799998 33 16 0
2.3800001 -0.368 -0.55299997 31 16 0
2.3729999 -0.37099999 -0.55800003 32 16 0
2.362 -0.373 -0.56199998 33 16 0
2.3559999 -0.37599999 -0.56800002 30 16 0
2.348 -0.37799999 -0.57300001 30 16 0
2.3399999 -0.38100001 -0.57800001 29 16 0
2.332 -0.38299999 -0.583 31 16 0
2.3210001 -0.38499999 -0.58700001 29 16 0
2.316 -0.38800001 -0.59299999 28 16 0
2.309 -0.38999999 -0.59799999 27 16 0
2.3010001 -0.39199999 -0.60299999 28 16 0
2.296 -0.39500001 -0.60900003 29 16 0
2.2880001 -0.39700001 -0.61299998 30 16 0
2.2780001 -0.39899999 -0.61699998 35 16 0
2.267 -0.40000001 -0.62099999 29 16 0
2.2650001 -0.403 -0.62800002 31 16 0
2.257 -0.405 -0.63200003 33 16 0
2.25 -0.40700001 -0.63700002 35 16 0
2.247 -0.41 -0.64300001 33 16 0
2.24 -0.412 -0.648 27 16 0
2.2320001 -0.414 -0.653 36 16 0
2.2260001 -0.41600001 -0.65799999 39 16 0
2.2160001 -0.41800001 -0.662 35 16 0
2.2079999 -0.419 -0.66600001 36 16 0
2.2019999 -0.421 -0.671 36 16 0
2.2 -0.42399999 -0.67699999 37 16 0
2.1919999 -0.426 -0.68099999 62 16 0
2.1860001 -0.428 -0.68699998 62 16 0
2.1800001 -0.42899999 -0.69199997 58 16 0
2.178 -0.43200001 -0.69700003 88 16 0
2.1689999 -0.433 -0.70099998 81 16 0
2.165 -0.435 -0.70700002 83 16 0
2.1559999 -0.43599999 -0.71100003 80 16 0
2.1530001 -0.43900001 -0.71700001 81 16 0
2.151 -0.44100001 -0.722 77 16 0
2.1400001 -0.442 -0.72600001 84 16 0
2.135 -0.44299999 -0.73100001 80 16 0
2.1289999 -0.44499999 -0.73500001 76 16 0
2.1259999 -0.447 -0.741 80 16 0
2.1159999 -0.44800001 -0.74400002 79 16 0
2.1140001 -0.44999999 -0.75 82 16 0
2.105 -0.45100001 -0.75400001 83 16 0
2.1029999 -0.45300001 -0.75999999 94 16 0
2.095 -0.454 -0.76300001 98 16 0
2.092 -0.456 -0.76899999 91 16 0
2.086 -0.45699999 -0.773 91 16 0
2.082 -0.458 -0.778 82 16 0
2.079 -0.46000001 -0.78399998 94 16 0
2.0669999 -0.46000001 -0.78600001 86 16 0
2.0699999 -0.463 -0.79400003 89 16 0
2.0650001 -0.46399999 -0.79799998 82 16 0
2.056 -0.465 -0.80199999 91 16 0
2.0569999 -0.46700001 -0.80900002 88 16 0
2.0510001 -0.46799999 -0.81300002 86 16 0
2.0439999 -0.46900001 -0.81599998 93 16 0
2.03 -0.46799999 -0.81800002 93 16 0
2.026 -0.46900001 -0.82200003 90 16 0
2.023 -0.47 -0.82700002 92 16 0
2.0190001 -0.472 -0.83200002 94 16 0
2.0150001 -0.47299999 -0.83700001 101 16 0
2.01 -0.47400001 -0.84200001 97 16 0
2.007 -0.47499999 -0.847 101 16 0
2.0039999 -0.47600001 -0.852 98 16 0
2.0020001 -0.477 -0.85699999 97 16 0
1.992 -0.477 -0.86000001 96 16 0
1.9960001 -0.47999999 -0.86799997 95 16 0
1.987 -0.479 -0.87 92 16 0
1.987 -0.48100001 -0.87599999 103 16 0
1.978 -0.48100001 -0.87900001 91 16 0
1.982 -0.484 -0.88700002 96 16 0
1.976 -0.484 -0.88999999 96 16 0
1.97 -0.484 -0.89399999 119 16 0
1.9680001 -0.48500001 -0.89899999 119 16 0
1.9630001 -0.486 -0.90399998 109 16 0
1.961 -0.486 -0.90899998 128 16 0
1.954 -0.486 -0.912 109 16 0
1.952 -0.48699999 -0.917 115 16 0
1.951 -0.48800001 -0.92299998 116 16 0
1.944 -0.48800001 -0.926 108 16 0
1.944 -0.48899999 -0.93099999 116 16 0
1.939 -0.48899999 -0.93599999 111 16 0
1.934 -0.48899999 -0.93900001 123 16 0
1.934 -0.491 -0.94499999 110 16 0
1.932 -0.491 -0.94999999 114 16 0
1.929 -0.49200001 -0.95499998 108 16 0
1.924 -0.491 -0.958 105 16 0
1.921 -0.49200001 -0.963 111 16 0
1.916 -0.491 -0.96600002 106 16 0
1.916 -0.49200001 -0.972 110 16 0
1.9170001 -0.49399999 -0.97799999 109 16 0
1.911 -0.493 -0.98100001 106 16 0
1.909 -0.493 -0.986 107 16 0
1.9069999 -0.49399999 -0.991 111 16 0
1.904 -0.49399999 -0.995 113 16 0
1.899 -0.493 -0.99800003 112 16 0
1.902 -0.49399999 -1.005 103 16 0
1.9 -0.495 -1.01 109 16 0
1.897 -0.49399999 -1.0140001 103 16 0
1.892 -0.49399999 -1.017 107 16 0
1.89 -0.49399999 -1.021 108 16 0
1.893 -0.495 -1.028 132 16 0
1.891 -0.495 -1.033 140 16 0
1.883 -0.493 -1.034 125 16 0
1.886 -0.49399999 -1.041 130 16 0
1.885 -0.49399999 -1.046 134 16 0
1.883 -0.49399999 -1.05 128 16 0
1.88 -0.493 -1.054 123 16 0
1.878 -0.493 -1.058 124 16 0
1.8789999 -0.493 -1.063 132 16 0
1.877 -0.493 -1.067 126 16 0
1.8789999 -0.493 -1.073 128 16 0
1.877 -0.493 -1.077 126 16 0
1.876 -0.49200001 -1.082 137 16 0
1.878 -0.493 -1.0880001 136 16 0
1.876 -0.49200001 -1.092 134 16 0
1.875 -0.491 -1.096 131 16 0
1.873 -0.491 -1.1 124 16 0
1.877 -0.491 -1.107 130 16 0
1.872 -0.49000001 -1.109 126 16 0
1.87 -0.48899999 -1.112 130 16 0
1.873 -0.48899999 -1.118 126 16 0
1.87 -0.48800001 -1.1210001 120 16 0
1.8710001 -0.48699999 -1.126 124 16 0
1.869 -0.486 -1.13 118 16 0
1.8660001 -0.48500001 -1.132 119 16 0
1.8660001 -0.484 -1.136 115 16 0
1.869 -0.484 -1.142 126 16 0
1.867 -0.48300001 -1.146 121 16 0
1.875 -0.484 -1.154 125 19 0
1.864 -0.47999999 -1.152 118 16 0
1.875 -0.48199999 -1.1619999 123 16 0
1.8710001 -0.47999999 -1.164 115 16 0
1.874 -0.47999999 -1.169 120 16 0
1.872 -0.47799999 -1.1720001 119 16 0
1.872 -0.477 -1.176 115 16 0
1.874 -0.47600001 -1.1799999 115 16 0
1.876 -0.47499999 -1.1849999 111 16 0
1.875 -0.47400001 -1.189 99 16 0
1.877 -0.47299999 -1.193 103 16 0
1.876 -0.472 -1.196 103 16 0
1.882 -0.47099999 -1.202 111 16 0
1.881 -0.47 -1.205 104 16 0
1.883 -0.46900001 -1.21 103 16 0
1.886 -0.46799999 -1.214 98 16 0
1.886 -0.46599999 -1.217 97 16 0
1.888 -0.465 -1.222 95 16 0
1.887 -0.463 -1.224 98 16 0
1.885 -0.461 -1.225 100 16 0
1.892 -0.461 -1.232 101 19 0
1.891 -0.45899999 -1.234 106 16 0
1.896 -0.458 -1.24 97 16 0
1.9 -0.45699999 -1.245 106 16 0
1.897 -0.454 -1.245 99 16 0
1.9 -0.45300001 -1.249 94 16 0
1.902 -0.45100001 -1.252 99 16 0
1.901 -0.449 -1.2539999 99 16 0
1.905 -0.44800001 -1.258 100 16 0
1.9119999 -0.447 -1.2640001 95 16 0
1.911 -0.44499999 -1.266 99 16 0
1.9119999 -0.44299999 -1.268 89 16 0
1.92 -0.442 -1.274 103 19 0
1.9220001 -0.44 -1.277 95 16 0
1.924 -0.43799999 -1.28 87 16 0
1.924 -0.43599999 -1.281 85 16 0
1.928 -0.43399999 -1.285 88 16 0
1.9299999 -0.43200001 -1.288 80 16 0
1.933 -0.43000001 -1.29 79 16 0
1.936 -0.428 -1.293 78 16 0
1.939 -0.426 -1.296 82 16 0
1.941 -0.42399999 -1.298 80 16 0
1.944 -0.42199999 -1.3 81 16 0
1.949 -0.41999999 -1.304 79 16 0
1.9579999 -0.419 -1.3099999 91 16 0
1.96 -0.417 -1.312 90 16 0
1.961 -0.414 -1.313 90 16 0
1.967 -0.412 -1.316 94 16 0
1.97 -0.41 -1.318 92 16 0
1.975 -0.40799999 -1.321 89 16 0
1.9809999 -0.40599999 -1.325 92 16 0
1.9809999 -0.40400001 -1.325 88 16 0
1.988 -0.40200001 -1.329 85 16 0
1.992 -0.40000001 -1.331 86 16 0
2 -0.398 -1.335 87 16 0
2.0009999 -0.39500001 -1.335 85 16 0
2.007 -0.39300001 -1.3380001 87 16 0
2.007 -0.38999999 -1.337 86 16 0
2.013 -0.38800001 -1.34 103 16 0
2.0190001 -0.38600001 -1.3430001 95 16 0
2.023 -0.38299999 -1.344 100 16 0
2.027 -0.38100001 -1.345 105 16 0
2.033 -0.37799999 -1.347 104 16 0
2.0369999 -0.37599999 -1.348 105 16 0
2.043 -0.37400001 -1.35 103 16 0
2.0480001 -0.37099999 -1.352 97 16 0
2.0550001 -0.36899999 -1.354 100 16 0
2.056 -0.366 -1.353 100 16 0
2.0669999 -0.36399999 -1.358 101 16 0
2.0699999 -0.361 -1.358 99 16 0
2.073 -0.35800001 -1.357 94 16 0
2.079 -0.35600001 -1.359 97 16 0
2.082 -0.35299999 -1.358 93 16 0
2.0899999 -0.35100001 -1.36 92 16 0
2.098 -0.34900001 -1.363 97 16 0
2.102 -0.34599999 -1.362 98 16 0
2.1040001 -0.34200001 -1.3609999 95 16 0
2.1110001 -0.34 -1.362 91 16 0
2.1199999 -0.338 -1.364 93 16 0
2.122 -0.33500001 -1.363 90 16 0
2.1289999 -0.33199999 -1.364 82 16 0
2.132 -0.329 -1.362 89 16 0
2.1389999 -0.32600001 -1.363 96 16 0
2.1459999 -0.324 -1.363 92 16 0
2.1530001 -0.32100001 -1.364 93 16 0
2.1589999 -0.31799999 -1.364 91 16 0
2.1659999 -0.31600001 -1.364 90 16 0
2.174 -0.31400001 -1.365 87 16 0
2.181 -0.31099999 -1.365 81 16 0
2.1830001 -0.30700001 -1.362 83 16 0
2.1889999 -0.30500001 -1.3609999 87 16 0
2.197 -0.30199999 -1.362 92 16 0
2.2030001 -0.29899999 -1.3609999 94 16 0
2.2119999 -0.29699999 -1.362 92 16 0
2.2190001 -0.294 -1.362 90 16 0
2.2249999 -0.292 -1.36 87 16 0
2.2320001 -0.289 -1.359 87 16 0
2.24 -0.28600001 -1.36 88 16 0
2.247 -0.28299999 -1.359 90 16 0
2.25 -0.28 -1.355 89 16 0
2.256 -0.27700001 -1.353 94 16 0
2.2639999 -0.27500001 -1.353 89 16 0
2.267 -0.27200001 -1.349 89 16 0
2.2739999 -0.26899999 -1.348 92 16 0
2.2820001 -0.266 -1.347 94 16 0
2.293 -0.264 -1.348 103 16 0
2.2969999 -0.26100001 -1.344 87 16 0
2.3080001 -0.25799999 -1.345 90 16 0
2.313 -0.25600001 -1.342 92 16 0
2.3210001 -0.25299999 -1.34 88 16 0
2.329 -0.25 -1.339 90 16 0
2.3329999 -0.24699999 -1.335 95 16 0
2.339 -0.244 -1.332 95 16 0
2.348 -0.242 -1.331 89 16 0
2.3570001 -0.23899999 -1.33 91 16 0
2.3640001 -0.236 -1.327 63 16 0
2.372 -0.234 -1.325 65 16 0
2.378 -0.23100001 -1.322 63 16 0
2.381 -0.228 -1.317 63 16 0
2.3900001 -0.22499999 -1.3150001 62 16 0
2.3970001 -0.222 -1.312 65 16 0
2.401 -0.22 -1.308 56 16 0
2.4070001 -0.21699999 -1.304 52 16 0
2.4159999 -0.214 -1.302 62 16 0
2.421 -0.211 -1.298 62 16 0
2.4319999 -0.20900001 -1.296 63 16 0
2.4419999 -0.207 -1.294 51 16 0
2.4430001 -0.20299999 -1.288 50 16 0
2.451 -0.20100001 -1.284 53 16 0
2.4590001 -0.198 -1.2819999 50 16 0
2.464 -0.19599999 -1.277 48 16 0
2.4719999 -0.193 -1.273 44 16 0
2.4790001 -0.19 -1.2690001 49 16 0
2.484 -0.18799999 -1.2640001 46 16 0
2.4960001 -0.185 -1.263 47 16 0
2.5 -0.183 -1.257 48 16 0
2.5109999 -0.18000001 -1.255 45 16 0
2.517 -0.178 -1.251 45 16 0
2.523 -0.175 -1.2460001 52 16 0
2.529 -0.17299999 -1.2410001 45 16 0
2.5350001 -0.17 -1.2359999 45 16 0
2.5420001 -0.168 -1.2309999 50 16 0
2.5510001 -0.16500001 -1.227 43 16 0
2.559 -0.163 -1.223 48 16 0
2.5680001 -0.16 -1.219 44 16 0
2.5739999 -0.15800001 -1.214 42 16 0
2.5840001 -0.156 -1.21 44 16 0
2.5880001 -0.153 -1.204 47 16 0
2.596 -0.15099999 -1.199 41 16 0
2.6040001 -0.148 -1.1950001 41 16 0
2.609 -0.146 -1.189 44 16 0
2.6170001 -0.14399999 -1.184 42 16 0
2.6240001 -0.141 -1.179 41 16 0
2.6370001 -0.139 -1.176 42 16 0
2.6370001 -0.13699999 -1.168 41 16 0
2.6459999 -0.13500001 -1.163 41 16 0
2.651 -0.132 -1.156 44 16 0
2.665 -0.13 -1.154 42 16 0
2.6689999 -0.12800001 -1.147 42 16 0
2.677 -0.126 -1.142 48 16 0
2.6819999 -0.123 -1.135 43 16 0
2.6930001 -0.121 -1.131 46 16 0
2.7 -0.119 -1.125 44 16 0
2.704 -0.117 -1.118 43 16 0
2.7130001 -0.115 -1.112 43 16 0
2.724 -0.113 -1.108 43 16 0
2.7249999 -0.111 -1.099 42 16 0
2.7390001 -0.109 -1.096 43 16 0
2.743 -0.107 -1.089 42 16 0
2.7509999 -0.105 -1.0829999 41 16 0
2.757 -0.103 -1.076 41 16 0
2.7639999 -0.101 -1.069 41 16 0
2.77 -0.098999999 -1.062 37 16 0
2.776 -0.097000003 -1.0549999 37 16 0
2.783 -0.094999999 -1.049 38 16 0
2.7880001 -0.093000002 -1.0420001 39 16 0
2.7950001 -0.090999998 -1.035 43 16 0
2.806 -0.089000002 -1.03 84 16 0
2.806 -0.086999997 -1.02 143 16 0
2.823 -0.086000003 -1.017 150 16 0
2.8239999 -0.083999999 -1.008 150 16 0
2.829 -0.082000002 -1 150 16 0
2.8329999 -0.079999998 -0.99299997 150 16 0
2.8310001 -0.078000002 -0.98199999 150 16 0
2.8399999 -0.075999998 -0.97600001 150 16 0
2.842 -0.074000001 -0.96700001 150 16 0
2.845 -0.072999999 -0.95899999 150 16 0
2.8529999 -0.071000002 -0.95200002 150 16 0
2.8529999 -0.068999998 -0.94199997 150 16 0
2.8510001 -0.067000002 -0.93199998 150 16 0
2.8540001 -0.066 -0.92400002 150 16 0
2.8640001 -0.064000003 -0.917 150 16 0
2.8640001 -0.061999999 -0.90799999 150 16 0
2.862 -0.061000001 -0.898 150 16 0
2.8659999 -0.059 -0.889 150 16 0
2.8729999 -0.057 -0.88200003 150 16 0
2.875 -0.056000002 -0.87300003 150 16 0
2.878 -0.054000001 -0.86400002 150 16 0
2.881 -0.052999999 -0.85500002 150 16 0
2.8829999 -0.050999999 -0.847 150 16 0
2.8859999 -0.050000001 -0.838 150 16 0
2.888 -0.048 -0.829 150 16 0
2.8940001 -0.046999998 -0.82099998 150 16 0
2.8959999 -0.046 -0.81199998 150 16 0
2.8959999 -0.044 -0.80199999 150 16 0
2.898 -0.043000001 -0.79299998 150 16 0
2.904 -0.041999999 -0.78500003 150 16 0
