# .PCD v0.7 - Point Cloud Data file format
VERSION 0.7
FIELDS x y z intensity tag line
SIZE 4 4 4 4 1 1
TYPE F F F F U U
COUNT 1 1 1 1 1 1
WIDTH 1406
HEIGHT 1
VIEWPOINT 0 0 0 1 0 0 0
POINTS 1406
DATA ascii
2.395 -0.39300001 -0.37099999 29 16 0
2.3859999 -0.39700001 -0.37599999 28 16 0
2.3729999 -0.40000001 -0.37900001 37 16 0
2.3610001 -0.403 -0.38299999 39 16 0
2.352 -0.40700001 -0.38800001 34 16 0
2.345 -0.41100001 -0.39199999 31 16 0
2.3369999 -0.41499999 -0.39700001 37 16 0
2.325 -0.41800001 -0.40099999 37 16 0
2.312 -0.421 -0.40400001 38 16 0
2.3039999 -0.42399999 -0.40799999 35 16 0
2.2980001 -0.428 -0.41299999 35 16 0
2.2850001 -0.43099999 -0.417 39 16 0
2.279 -0.435 -0.421 38 16 0
2.27 -0.43799999 -0.42500001 43 16 0
2.2609999 -0.44100001 -0.42899999 42 16 0
2.2509999 -0.44400001 -0.433 47 16 0
2.2460001 -0.44800001 -0.43799999 49 16 0
2.233 -0.44999999 -0.44100001 44 16 0
2.223 -0.45300001 -0.44499999 46 16 0
2.2190001 -0.45699999 -0.44999999 41 16 0
2.207 -0.45899999 -0.45300001 45 16 0
2.2019999 -0.463 -0.458 43 16 0
2.194 -0.46599999 -0.46200001 44 16 0
2.184 -0.46900001 -0.465 60 16 0
2.177 -0.472 -0.46900001 64 16 0
2.1670001 -0.47499999 -0.47299999 60 16 0
2.1589999 -0.477 -0.477 67 16 0
2.151 -0.47999999 -0.48100001 65 16 0
2.1440001 -0.48300001 -0.48500001 65 16 0
2.128 -0.484 -0.48699999 69 16 0
2.1240001 -0.48800001 -0.49200001 68 16 0
2.1170001 -0.491 -0.49599999 69 16 0
2.108 -0.493 -0.49900001 73 16 0
2.102 -0.49599999 -0.50300002 71 16 0
2.0940001 -0.498 -0.50700003 72 16 0
2.086 -0.50099999 -0.51099998 74 16 0
2.0780001 -0.50300002 -0.514 66 16 0
2.0739999 -0.50599998 -0.51899999 65 16 0
2.0639999 -0.50800002 -0.52200001 66 16 0
2.0539999 -0.50999999 -0.52499998 72 16 0
2.05 -0.51300001 -0.52999997 72 16 0
2.046 -0.51599997 -0.53399998 73 16 0
2.039 -0.51899999 -0.53799999 80 16 0
2.0309999 -0.52100003 -0.54100001 81 16 0
2.0250001 -0.523 -0.54500002 78 16 0
2.0139999 -0.52399999 -0.54799998 78 16 0
2.007 -0.52700001 -0.55199999 80 16 0
2 -0.52899998 -0.55500001 77 16 0
1.992 -0.52999997 -0.55800003 73 16 0
1.9910001 -0.53399998 -0.56400001 81 16 0
1.984 -0.53600001 -0.56699997 84 16 0
1.975 -0.53799999 -0.56999999 72 16 0
1.9680001 -0.54000002 -0.574 82 16 0
1.964 -0.542 -0.57800001 77 16 0
1.956 -0.54400003 -0.58200002 90 16 0
1.95 -0.546 -0.58499998 89 16 0
1.9450001 -0.54799998 -0.58899999 90 16 0
1.938 -0.55000001 -0.59299999 86 16 0
1.932 -0.55199999 -0.59600002 87 16 0
1.925 -0.55299997 -0.60000002 83 16 0
1.921 -0.55599999 -0.60399997 81 16 0
1.9170001 -0.55800003 -0.60799998 84 16 0
1.909 -0.55900002 -0.611 83 16 0
1.903 -0.56099999 -0.61500001 88 16 0
1.901 -0.56400001 -0.61900002 89 16 0
1.898 -0.56599998 -0.62400001 88 16 0
1.888 -0.56699997 -0.62599999 90 16 0
1.883 -0.56900001 -0.63 85 16 0
1.8789999 -0.57099998 -0.634 91 16 0
1.876 -0.57300001 -0.63800001 112 16 0
1.87 -0.57499999 -0.64200002 122 16 0
1.864 -0.57599998 -0.64499998 118 16 0
1.849 -0.574 -0.64499998 124 16 0
1.844 -0.57599998 -0.64899999 122 16 0
1.84 -0.57800001 -0.653 150 16 0
1.835 -0.579 -0.65700001 150 16 0
1.831 -0.58099997 -0.66000003 148 16 0
1.83 -0.58399999 -0.66500002 148 16 0
1.826 -0.58499998 -0.66900003 145 16 0
1.822 -0.58700001 -0.67299998 150 16 0
1.8150001 -0.588 -0.676 150 16 0
1.816 -0.59100002 -0.68099999 150 16 0
1.808 -0.59100002 -0.68400002 150 16 0
1.804 -0.59200001 -0.68800002 150 16 0
1.801 -0.59399998 -0.69199997 150 16 0
1.799 -0.59600002 -0.69599998 150 16 0
1.793 -0.597 -0.699 136 16 0
1.788 -0.59799999 -0.70300001 150 16 0
1.781 -0.59799999 -0.70499998 150 16 0
1.78 -0.60000002 -0.70999998 135 16 0
1.776 -0.602 -0.71399999 150 16 0
1.771 -0.602 -0.71700001 147 16 0
1.7690001 -0.60399997 -0.72100002 144 16 0
1.766 -0.60600001 -0.72500002 150 16 0
1.755 -0.60399997 -0.72600001 150 16 0
1.751 -0.60500002 -0.72899997 150 16 0
1.751 -0.60699999 -0.73400003 150 16 0
1.748 -0.60799998 -0.73799998 150 16 0
1.745 -0.61000001 -0.74199998 150 16 0
1.74 -0.61000001 -0.745 150 16 0
1.737 -0.611 -0.74900001 150 16 0
1.733 -0.61199999 -0.75199997 150 16 0
1.728 -0.61199999 -0.755 150 16 0
1.727 -0.61400002 -0.75999999 150 16 0
1.724 -0.61500001 -0.76300001 150 16 0
1.722 -0.616 -0.76800001 150 16 0
1.72 -0.61699998 -0.77200001 150 16 0
1.717 -0.61799997 -0.77600002 150 16 0
1.714 -0.61900002 -0.77899998 150 16 0
1.707 -0.61799997 -0.78100002 150 16 0
1.705 -0.61900002 -0.78500003 150 16 0
1.705 -0.62 -0.79000002 150 16 0
1.701 -0.62 -0.792 150 16 0
1.699 -0.62099999 -0.796 150 16 0
1.697 -0.62199998 -0.80000001 150 16 0
1.6950001 -0.62300003 -0.80400002 150 16 0
1.693 -0.62300003 -0.80800003 150 16 0
1.6900001 -0.62400001 -0.81099999 150 16 0
1.688 -0.625 -0.815 150 16 0
1.677 -0.62199998 -0.81400001 150 16 0
1.6849999 -0.62599999 -0.82300001 150 16 0
1.679 -0.625 -0.82499999 150 16 0
1.678 -0.62599999 -0.82800001 150 16 0
1.675 -0.62599999 -0.83200002 150 16 0
1.6670001 -0.62400001 -0.83200002 150 16 0
1.6720001 -0.62599999 -0.83899999 150 16 0
1.664 -0.62400001 -0.83899999 150 16 0
1.663 -0.625 -0.84299999 150 16 0
1.6670001 -0.62699997 -0.85000002 150 16 0
1.665 -0.62699997 -0.85299999 150 16 0
1.658 -0.625 -0.85399997 2 0 0
1.656 -0.625 -0.85699999 150 16 0
1.658 -0.62699997 -0.86199999 2 0 0
1.6569999 -0.62699997 -0.866 2 0 0
1.655 -0.62699997 -0.86900002 2 0 0
1.654 -0.62699997 -0.87199998 2 0 0
1.653 -0.62699997 -0.87599999 150 16 0
1.652 -0.62699997 -0.88 2 0 0
1.653 -0.62699997 -0.884 2 0 0
1.643 -0.62400001 -0.88300002 2 0 0
1.649 -0.62599999 -0.88999999 2 0 0
1.643 -0.62400001 -0.88999999 2 0 0
1.646 -0.62599999 -0.89600003 150 16 0
1.645 -0.625 -0.89899999 2 0 0
1.648 -0.62599999 -0.90399998 2 0 0
1.6440001 -0.625 -0.90600002 2 0 0
1.643 -0.62400001 -0.90799999 2 0 0
1.641 -0.62400001 -0.91100001 2 0 0
1.641 -0.62300003 -0.91500002 150 16 0
1.641 -0.62300003 -0.91799998 150 16 0
1.642 -0.62300003 -0.92199999 150 16 0
1.641 -0.62199998 -0.92400002 150 16 0
1.638 -0.62099999 -0.926 150 16 0
1.637 -0.62 -0.92900002 150 16 0
1.637 -0.61900002 -0.93199998 150 16 0
1.636 -0.61900002 -0.935 150 16 0
1.6390001 -0.61900002 -0.94 150 16 0
1.6390001 -0.61799997 -0.94199997 150 16 0
1.64 -0.61799997 -0.94599998 150 16 0
1.6390001 -0.61699998 -0.94800001 150 16 0
1.637 -0.61500001 -0.94999999 150 16 0
1.638 -0.61500001 -0.95300001 150 16 0
1.64 -0.61400002 -0.95700002 150 16 0
1.642 -0.61400002 -0.96100003 150 16 0
1.642 -0.61299998 -0.963 150 16 0
1.642 -0.61199999 -0.96499997 150 16 0
1.643 -0.611 -0.96899998 150 16 0
1.648 -0.611 -0.97399998 150 16 0
1.65 -0.611 -0.977 150 16 0
1.647 -0.60900003 -0.97799999 150 16 0
1.649 -0.60799998 -0.98100001 150 16 0
1.647 -0.60600001 -0.98199999 150 16 0
1.65 -0.60500002 -0.986 150 16 0
1.653 -0.60500002 -0.98900002 150 16 0
1.653 -0.60299999 -0.991 150 16 0
1.654 -0.602 -0.99299997 150 16 0
1.655 -0.60100001 -0.99599999 150 16 0
1.658 -0.60000002 -0.99900001 150 16 0
1.658 -0.59799999 -1.001 150 16 0
1.661 -0.597 -1.0039999 150 16 0
1.661 -0.59600002 -1.006 150 16 0
1.661 -0.59399998 -1.007 150 16 0
1.6619999 -0.59200001 -1.0089999 150 16 0
1.665 -0.59100002 -1.011 150 16 0
1.665 -0.58899999 -1.013 150 16 0
1.669 -0.588 -1.016 150 16 0
1.67 -0.58600003 -1.017 150 16 0
1.67 -0.58399999 -1.018 150 16 0
1.682 -0.58600003 -1.027 150 17 0
1.689 -0.58600003 -1.031 150 16 0
1.686 -0.58200002 -1.03 150 16 0
1.689 -0.58099997 -1.0319999 150 16 0
1.694 -0.57999998 -1.036 150 16 0
1.6950001 -0.57800001 -1.0369999 150 16 0
1.697 -0.57599998 -1.038 150 16 0
1.696 -0.57300001 -1.038 150 16 0
1.7029999 -0.57300001 -1.0420001 150 19 0
1.706 -0.57099998 -1.044 150 16 0
1.712 -0.56999999 -1.0470001 150 16 0
1.715 -0.56800002 -1.049 150 16 0
1.716 -0.56599998 -1.049 150 16 0
1.722 -0.565 -1.053 150 16 0
1.723 -0.56300002 -1.053 150 16 0
1.727 -0.56099999 -1.0549999 150 16 0
1.7309999 -0.55900002 -1.057 150 16 0
1.734 -0.55699998 -1.058 150 16 0
1.734 -0.55400002 -1.057 150 16 0
1.742 -0.55299997 -1.061 150 16 0
1.743 -0.551 -1.061 150 16 0
1.75 -0.55000001 -1.064 150 16 0
1.751 -0.54699999 -1.064 150 16 0
1.7589999 -0.546 -1.068 150 19 0
1.761 -0.54400003 -1.068 150 16 0
1.7640001 -0.54100001 -1.068 150 16 0
1.7690001 -0.53899997 -1.069 150 16 0
1.773 -0.537 -1.0700001 150 16 0
1.775 -0.53399998 -1.0700001 150 16 0
1.78 -0.53299999 -1.072 150 16 0
1.788 -0.53100002 -1.074 149 16 0
1.7920001 -0.52899998 -1.075 145 16 0
1.798 -0.52700001 -1.077 144 16 0
1.803 -0.52499998 -1.0779999 137 16 0
1.809 -0.523 -1.079 131 16 0
1.814 -0.52100003 -1.08 150 16 0
1.8150001 -0.51800001 -1.0779999 141 16 0
1.8200001 -0.51599997 -1.079 145 16 0
1.825 -0.51300001 -1.079 146 16 0
1.8279999 -0.51099998 -1.079 150 16 0
1.837 -0.50999999 -1.082 143 16 0
1.842 -0.50700003 -1.082 150 16 0
1.847 -0.505 -1.082 133 16 0
1.854 -0.50300002 -1.0829999 139 16 0
1.858 -0.5 -1.0829999 135 16 0
1.863 -0.498 -1.082 138 16 0
1.867 -0.495 -1.082 139 16 0
1.872 -0.49200001 -1.082 149 16 0
1.8789999 -0.49000001 -1.082 138 16 0
1.886 -0.48899999 -1.0829999 141 16 0
1.888 -0.48500001 -1.081 142 16 0
1.891 -0.48199999 -1.079 133 16 0
1.9069999 -0.48199999 -1.085 143 19 0
1.9119999 -0.47999999 -1.084 138 16 0
1.915 -0.47600001 -1.082 129 16 0
1.925 -0.47499999 -1.084 134 16 0
1.929 -0.472 -1.0829999 138 16 0
1.9349999 -0.47 -1.082 137 16 0
1.9400001 -0.46700001 -1.081 134 16 0
1.947 -0.46399999 -1.081 135 16 0
1.954 -0.46200001 -1.081 131 16 0
1.961 -0.46000001 -1.08 143 16 0
1.971 -0.458 -1.082 130 16 0
1.974 -0.45500001 -1.079 132 16 0
1.978 -0.45199999 -1.077 120 16 0
1.9809999 -0.44800001 -1.074 115 16 0
1.989 -0.44600001 -1.074 118 16 0
1.9960001 -0.44400001 -1.073 120 16 0
2.007 -0.442 -1.075 121 16 0
2.0120001 -0.43900001 -1.073 113 16 0
2.017 -0.43599999 -1.0700001 119 16 0
2.023 -0.43399999 -1.069 117 16 0
2.0280001 -0.43000001 -1.067 115 16 0
2.036 -0.428 -1.066 122 16 0
2.04 -0.42500001 -1.063 115 16 0
2.0469999 -0.42199999 -1.062 126 16 0
2.0550001 -0.41999999 -1.061 115 16 0
2.063 -0.417 -1.0599999 117 16 0
2.073 -0.41499999 -1.0599999 128 16 0
2.076 -0.412 -1.056 126 16 0
2.079 -0.40900001 -1.053 110 16 0
2.0929999 -0.40700001 -1.054 123 16 0
2.099 -0.40400001 -1.052 112 16 0
2.102 -0.40099999 -1.0470001 106 16 0
2.1070001 -0.398 -1.045 111 16 0
2.1210001 -0.39700001 -1.046 115 16 0
2.1240001 -0.39300001 -1.0420001 114 16 0
2.1340001 -0.391 -1.041 112 16 0
2.138 -0.38800001 -1.0369999 109 16 0
2.1500001 -0.38600001 -1.0369999 100 16 0
2.154 -0.38299999 -1.033 100 16 0
2.1619999 -0.38 -1.031 127 16 0
2.168 -0.377 -1.028 118 16 0
2.178 -0.375 -1.027 114 16 0
2.1849999 -0.37200001 -1.024 117 16 0
2.1930001 -0.37 -1.021 131 16 0
2.1989999 -0.366 -1.018 122 16 0
2.21 -0.36399999 -1.016 119 16 0
2.2119999 -0.361 -1.012 113 16 0
2.221 -0.35800001 -1.0089999 125 16 0
2.2260001 -0.35499999 -1.005 100 16 0
2.234 -0.352 -1.002 96 16 0
2.2449999 -0.34999999 -1 92 16 0
2.253 -0.34799999 -0.99800003 96 16 0
2.26 -0.345 -0.99400002 93 16 0
2.267 -0.34200001 -0.991 88 16 0
2.276 -0.34 -0.98799998 86 16 0
2.279 -0.336 -0.98199999 91 16 0
2.2869999 -0.33399999 -0.97899997 86 16 0
2.293 -0.331 -0.97500002 70 16 0
2.3039999 -0.32800001 -0.97299999 75 16 0
2.3099999 -0.32499999 -0.96899998 75 16 0
2.3199999 -0.32300001 -0.96600002 75 16 0
2.325 -0.31999999 -0.96100003 70 16 0
2.3310001 -0.317 -0.95599997 74 16 0
2.336 -0.31400001 -0.95200002 72 16 0
2.3469999 -0.31200001 -0.949 79 16 0
2.355 -0.30899999 -0.94499999 79 16 0
2.362 -0.30599999 -0.94099998 71 16 0
2.3699999 -0.303 -0.93699998 72 16 0
2.3759999 -0.301 -0.93199998 67 16 0
2.385 -0.29800001 -0.92799997 72 16 0
2.3929999 -0.29499999 -0.92400002 76 16 0
2.3970001 -0.292 -0.91799998 65 16 0
2.408 -0.28999999 -0.91500002 65 16 0
2.4189999 -0.287 -0.912 64 16 0
2.4230001 -0.28400001 -0.90600002 66 16 0
2.431 -0.28200001 -0.90200001 75 16 0
2.4400001 -0.27900001 -0.89700001 69 16 0
2.448 -0.27599999 -0.89300001 60 16 0
2.457 -0.27399999 -0.88800001 62 16 0
2.4619999 -0.271 -0.88300002 67 16 0
2.47 -0.26800001 -0.87800002 60 16 0
2.48 -0.266 -0.87300003 60 16 0
2.4890001 -0.26300001 -0.86900002 64 16 0
2.4960001 -0.26100001 -0.86400002 55 16 0
2.5 -0.257 -0.85699999 60 16 0
2.5090001 -0.255 -0.85299999 59 16 0
2.517 -0.252 -0.847 59 16 0
2.5250001 -0.25 -0.84200001 60 16 0
2.5380001 -0.24699999 -0.83899999 64 16 0
2.5480001 -0.245 -0.83399999 61 16 0
2.5539999 -0.242 -0.82800001 60 16 0
2.5599999 -0.23899999 -0.82200003 51 16 0
2.5680001 -0.237 -0.81699997 57 16 0
2.5769999 -0.234 -0.81099999 60 16 0
2.585 -0.23199999 -0.80599999 57 16 0
2.595 -0.229 -0.801 57 16 0
2.605 -0.227 -0.796 50 16 0
2.6110001 -0.22400001 -0.78899997 50 16 0
2.6170001 -0.221 -0.78299999 52 16 0
2.625 -0.21799999 -0.77700001 54 16 0
2.631 -0.21600001 -0.77100003 47 16 0
2.6370001 -0.213 -0.764 38 16 0
2.6440001 -0.20999999 -0.75800002 44 16 0
2.6500001 -0.208 -0.75099999 36 16 0
2.6670001 -0.206 -0.74699998 36 16 0
2.6719999 -0.20299999 -0.741 36 16 0
2.678 -0.2 -0.73400003 37 16 0
2.6849999 -0.197 -0.727 37 16 0
2.6930001 -0.19499999 -0.72100002 35 16 0
2.7030001 -0.193 -0.71499997 36 16 0
2.7149999 -0.19 -0.70899999 35 16 0
2.7179999 -0.18700001 -0.70200002 36 16 0
2.7260001 -0.185 -0.69499999 35 16 0
2.7309999 -0.182 -0.68800002 36 16 0
2.74 -0.18000001 -0.68099999 35 16 0
2.7479999 -0.177 -0.67500001 35 16 0
2.76 -0.175 -0.66900003 36 16 0
2.7709999 -0.17299999 -0.66299999 36 16 0
2.776 -0.17 -0.65499997 35 16 0
2.7809999 -0.167 -0.648 28 16 0
2.7950001 -0.16500001 -0.64200002 28 16 0
2.8010001 -0.162 -0.63499999 29 16 0
2.812 -0.16 -0.62800002 29 16 0
2.8199999 -0.15800001 -0.62099999 30 16 0
2.8280001 -0.155 -0.61400002 30 16 0
2.835 -0.153 -0.60699999 30 16 0
2.8410001 -0.15000001 -0.59899998 30 16 0
2.8529999 -0.148 -0.59200001 30 16 0
2.8610001 -0.145 -0.58499998 30 16 0
2.8659999 -0.14300001 -0.57700002 30 16 0
2.8800001 -0.141 -0.57099998 30 16 0
2.8859999 -0.138 -0.56199998 30 16 0
2.8929999 -0.13500001 -0.55500001 28 16 0
2.902 -0.133 -0.54799998 30 16 0
2.9119999 -0.131 -0.54000002 30 16 0
2.9170001 -0.12800001 -0.53200001 28 16 0
2.928 -0.126 -0.52499998 29 16 0
2.9389999 -0.124 -0.51700002 28 16 0
2.941 -0.121 -0.50800002 29 16 0
2.9530001 -0.119 -0.50099999 29 16 0
2.9590001 -0.116 -0.493 28 16 0
2.9660001 -0.114 -0.484 29 16 0
2.9820001 -0.112 -0.47799999 29 16 0
2.9890001 -0.109 -0.46900001 30 16 0
3 -0.107 -0.461 30 16 0
3.0109999 -0.105 -0.454 32 16 0
3.0150001 -0.102 -0.44499999 31 16 0
3.023 -0.1 -0.43599999 29 16 0
3.0380001 -0.097999997 -0.42899999 30 16 0
3.0380001 -0.094999999 -0.419 27 16 0
3.056 -0.093000002 -0.412 27 16 0
3.063 -0.090999998 -0.403 27 16 0
3.069 -0.088 -0.39399999 27 16 0
3.082 -0.086000003 -0.38600001 27 16 0
3.086 -0.083999999 -0.377 28 16 0
3.0929999 -0.081 -0.368 29 16 0
3.1010001 -0.079000004 -0.359 34 16 0
3.1099999 -0.077 -0.34999999 46 16 0
3.118 -0.074000001 -0.34099999 89 16 0
3.1210001 -0.071999997 -0.33199999 142 16 0
3.1300001 -0.07 -0.32300001 150 16 0
3.132 -0.067000002 -0.31299999 150 16 0
3.135 -0.064999998 -0.30399999 150 16 0
3.1400001 -0.063000001 -0.294 150 16 0
3.1370001 -0.059999999 -0.28400001 150 16 0
3.1429999 -0.057999998 -0.27500001 150 16 0
3.1470001 -0.056000002 -0.26499999 150 16 0
3.148 -0.052999999 -0.255 150 16 0
3.155 -0.050999999 -0.24600001 150 16 0
3.1589999 -0.048999999 -0.236 150 16 0
3.161 -0.046999998 -0.226 150 16 0
3.1659999 -0.044 -0.21600001 150 16 0
3.1689999 -0.041999999 -0.207 150 16 0
3.1700001 -0.039999999 -0.197 150 16 0
3.1730001 -0.037999999 -0.18700001 150 16 0
3.175 -0.035999998 -0.177 150 16 0
3.184 -0.033 -0.167 150 16 0
3.184 -0.030999999 -0.15700001 150 16 0
3.188 -0.028999999 -0.147 150 16 0
3.1900001 -0.027000001 -0.13699999 150 16 0
3.194 -0.025 -0.127 150 16 0
3.2 -0.023 -0.117 150 16 0
3.198 -0.021 -0.107 104 16 0
3.2019999 -0.018999999 -0.097000003 65 16 0
3.207 -0.017000001 -0.086999997 49 16 0
3.2160001 -0.015 -0.077 38 16 0
3.2219999 -0.013 -0.067000002 31 16 0
3.2279999 -0.011 -0.057 24 16 0
3.2349999 -0.0089999996 -0.046999998 22 16 0
3.24 -0.0070000002 -0.035999998 20 16 0
3.257 -0.0049999999 -0.026000001 19 16 0
3.2609999 -0.003 -0.016000001 18 16 0
3.2709999 -0.001 -0.0049999999 19 16 0
3.2820001 0 0.0040000002 19 16 0
3.2920001 0.0020000001 0.014 20 16 0
3.296 0.0040000002 0.025 20 16 0
3.3080001 0.0060000001 0.035999998 20 16 0
3.313 0.0080000004 0.046 20 16 0
3.325 0.0099999998 0.057 21 16 0
3.335 0.012 0.068000004 22 16 0
3.336 0.014 0.079000004 25 16 0
3.3380001 0.016000001 0.089000002 40 16 0
3.319 0.017000001 0.098999999 36 16 0
3.2950001 0.018999999 0.109 43 16 0
3.28 0.021 0.119 150 16 0
3.283 0.023 0.13 150 16 0
3.2880001 0.024 0.14 150 16 0
3.289 0.026000001 0.15099999 150 16 0
3.2909999 0.028000001 0.162 150 16 0
3.2980001 0.028999999 0.17299999 150 16 0
3.299 0.030999999 0.183 150 16 0
3.306 0.033 0.19400001 150 16 0
3.3069999 0.035 0.205 150 16 0
3.313 0.035999998 0.21600001 150 16 0
3.3169999 0.037999999 0.227 150 16 0
3.322 0.039000001 0.23800001 150 16 0
3.323 0.041000001 0.248 150 16 0
3.3299999 0.043000001 0.25999999 150 16 0
3.3280001 0.044 0.27000001 150 16 0
3.335 0.046 0.28200001 150 16 0
3.3369999 0.046999998 0.29300001 150 16 0
3.345 0.048999999 0.30399999 150 16 0
3.345 0.050000001 0.315 150 16 0
3.3540001 0.052000001 0.32600001 150 16 0
3.3570001 0.054000001 0.338 150 16 0
3.3559999 0.055 0.34799999 150 16 0
3.346 0.056000002 0.35800001 45 16 0
3.3269999 0.057 0.36700001 39 16 0
3.3069999 0.057999998 0.375 38 16 0
3.289 0.059 0.384 38 16 0
3.2679999 0.059999999 0.39199999 36 16 0
3.2490001 0.061000001 0.40099999 37 16 0
3.2320001 0.061999999 0.40900001 38 16 0
3.211 0.063000001 0.41600001 38 16 0
3.1960001 0.064000003 0.42500001 40 16 0
3.177 0.064000003 0.433 39 16 0
3.1570001 0.064999998 0.44 37 16 0
3.141 0.066 0.44800001 38 16 0
3.1210001 0.066 0.456 37 16 0
3.0999999 0.067000002 0.463 36 16 0
3.086 0.068000004 0.47099999 40 16 0
3.0669999 0.068000004 0.47799999 40 16 0
3.0510001 0.068999998 0.48500001 41 16 0
3.0339999 0.07 0.49200001 40 16 0
3.0209999 0.07 0.5 42 16 0
3.003 0.071000002 0.50700003 41 16 0
2.99 0.071000002 0.51499999 40 16 0
2.9749999 0.071999997 0.52200001 40 16 0
2.9549999 0.071999997 0.528 40 16 0
2.941 0.072999999 0.53500003 40 16 0
2.9260001 0.072999999 0.542 43 16 0
2.904 0.072999999 0.54799998 40 16 0
2.892 0.074000001 0.55500001 43 16 0
2.8670001 0.074000001 0.56 42 16 0
2.852 0.074000001 0.56599998 55 16 0
2.8440001 0.074000001 0.574 50 16 0
2.825 0.074000001 0.579 70 16 0
2.816 0.075000003 0.58700001 70 16 0
2.8069999 0.075000003 0.59399998 48 16 0
2.7950001 0.075999998 0.60100001 56 16 0
2.7750001 0.075000003 0.60600001 54 16 0
2.767 0.075999998 0.61299998 52 16 0
2.753 0.075999998 0.61900002 91 16 0
2.737 0.075999998 0.625 97 16 0
2.7219999 0.075999998 0.63099998 93 16 0
2.7030001 0.075999998 0.63499999 116 16 0
2.694 0.075999998 0.64200002 113 16 0
2.6819999 0.075999998 0.648 117 16 0
2.6719999 0.075999998 0.65499997 121 16 0
2.6619999 0.075999998 0.66100001 115 16 0
2.6459999 0.075999998 0.66600001 114 16 0
2.632 0.075999998 0.671 130 16 0
2.628 0.075999998 0.67900002 105 16 0
2.615 0.075999998 0.68400002 115 16 0
2.598 0.075999998 0.68900001 116 16 0
2.5869999 0.075999998 0.69400001 129 16 0
2.576 0.075999998 0.69999999 129 16 0
2.559 0.075000003 0.704 130 16 0
2.5469999 0.075000003 0.70999998 130 16 0
2.536 0.075000003 0.71499997 125 16 0
2.5220001 0.075000003 0.71899998 136 16 0
2.513 0.074000001 0.72500002 134 16 0
2.497 0.074000001 0.72899997 136 16 0
2.4890001 0.074000001 0.73500001 135 16 0
2.477 0.072999999 0.74000001 144 16 0
2.4679999 0.072999999 0.74599999 139 16 0
2.451 0.072999999 0.74900001 150 16 0
2.4419999 0.071999997 0.75400001 150 16 0
2.4330001 0.071999997 0.75999999 150 16 0
2.424 0.071999997 0.76499999 150 16 0
2.408 0.071000002 0.76800001 150 16 0
2.404 0.071000002 0.77499998 150 16 0
2.3929999 0.07 0.77999997 150 16 0
2.382 0.07 0.78399998 150 16 0
2.3759999 0.068999998 0.79000002 150 16 0
2.3610001 0.068999998 0.79299998 150 16 0
2.349 0.068000004 0.79699999 150 16 0
2.345 0.068000004 0.80400002 150 16 0
2.336 0.067000002 0.80900002 150 16 0
2.3269999 0.067000002 0.81400001 150 16 0
2.3139999 0.066 0.81699997 150 16 0
2.299 0.064999998 0.81900001 150 16 0
2.296 0.064999998 0.82599998 150 16 0
2.2850001 0.064000003 0.82999998 150 16 0
2.277 0.063000001 0.83499998 150 16 0
2.266 0.061999999 0.83899999 150 16 0
2.257 0.061999999 0.84299999 150 16 0
2.2460001 0.061000001 0.84600002 150 16 0
2.2349999 0.059999999 0.85000002 150 16 0
2.2279999 0.059 0.85500002 150 16 0
2.2179999 0.059 0.85799998 150 16 0
2.214 0.057999998 0.86400002 150 16 0
2.201 0.057 0.86699998 150 16 0
2.188 0.056000002 0.86900002 150 16 0
2.178 0.055 0.87300003 150 16 0
2.174 0.054000001 0.87800002 150 16 0
2.1630001 0.052999999 0.88099998 150 16 0
2.158 0.052000001 0.88599998 150 16 0
2.1489999 0.052000001 0.88999999 150 16 0
2.1389999 0.050999999 0.89300001 150 16 0
2.131 0.050000001 0.89700001 150 16 0
2.128 0.048999999 0.903 150 16 0
2.1129999 0.048 0.90399998 150 16 0
2.1059999 0.046 0.90799999 150 16 0
2.0969999 0.045000002 0.91100001 150 16 0
2.092 0.044 0.91600001 150 16 0
2.086 0.043000001 0.92000002 150 16 0
2.079 0.041999999 0.92400002 150 16 0
2.0680001 0.041000001 0.926 150 16 0
2.0610001 0.039999999 0.93000001 150 16 0
2.056 0.039000001 0.935 150 16 0
2.046 0.037999999 0.93699998 150 16 0
2.0369999 0.035999998 0.94 150 16 0
2.027 0.035 0.94199997 150 16 0
2.0209999 0.034000002 0.94599998 150 16 0
2.003 0.032000002 0.94400001 150 19 0
2 0.030999999 0.94999999 150 16 0
1.993 0.029999999 0.95300001 150 16 0
1.988 0.028999999 0.95700002 150 16 0
1.984 0.027000001 0.96100003 150 16 0
1.975 0.026000001 0.963 150 16 0
1.969 0.025 0.96700001 150 16 0
1.961 0.023 0.96899998 150 16 0
1.951 0.022 0.97100002 150 16 0
1.946 0.021 0.97500002 150 16 0
1.941 0.018999999 0.97799999 150 16 0
1.9299999 0.017999999 0.97899997 150 16 0
1.927 0.016000001 0.98400003 150 16 0
1.916 0.015 0.98500001 150 16 0
1.91 0.013 0.98799998 150 16 0
1.905 0.012 0.991 150 16 0
1.901 0.0099999998 0.995 150 16 0
1.891 0.0089999996 0.99599999 150 16 0
1.8890001 0.0070000002 1.001 150 16 0
1.881 0.0060000001 1.002 150 16 0
1.87 0.0040000002 1.003 150 16 0
1.864 0.003 1.005 150 16 0
1.859 0.001 1.008 150 16 0
1.852 0 1.01 150 16 0
1.849 -0.001 1.0140001 150 16 0
1.844 -0.003 1.017 150 16 0
1.8380001 -0.0049999999 1.02 150 16 0
1.831 -0.0060000001 1.021 150 16 0
1.827 -0.0080000004 1.024 150 16 0
1.824 -0.0099999998 1.028 150 16 0
1.813 -0.011 1.027 150 16 0
1.807 -0.013 1.029 150 16 0
1.803 -0.015 1.0319999 150 16 0
1.796 -0.017000001 1.034 150 16 0
1.78 -0.017999999 1.029 150 19 0
1.775 -0.02 1.0319999 150 16 0
1.773 -0.022 1.036 150 16 0
1.768 -0.024 1.038 150 16 0
1.763 -0.026000001 1.04 150 16 0
1.7589999 -0.027000001 1.043 150 16 0
1.7589999 -0.028999999 1.0470001 150 16 0
1.755 -0.030999999 1.05 150 16 0
1.75 -0.033 1.052 150 16 0
1.7460001 -0.035 1.053 150 16 0
1.74 -0.037 1.0549999 150 16 0
1.737 -0.039000001 1.058 150 16 0
1.7359999 -0.041000001 1.061 150 16 0
1.733 -0.043000001 1.064 150 16 0
1.725 -0.045000002 1.064 150 16 0
1.724 -0.046999998 1.067 150 16 0
1.712 -0.048999999 1.064 150 16 0
1.712 -0.050999999 1.068 150 16 0
1.7079999 -0.052999999 1.0700001 150 16 0
1.702 -0.055 1.0700001 150 16 0
1.7 -0.057 1.073 150 16 0
1.692 -0.059 1.072 150 16 0
1.691 -0.061000001 1.075 150 16 0
1.6900001 -0.063000001 1.0779999 150 16 0
1.686 -0.064999998 1.08 150 16 0
1.684 -0.067000002 1.082 150 16 0
1.675 -0.068999998 1.08 150 16 0
1.674 -0.071000002 1.082 150 16 0
1.6720001 -0.074000001 1.085 150 16 0
1.669 -0.075999998 1.087 150 16 0
1.666 -0.078000002 1.0880001 150 16 0
1.665 -0.079999998 1.09 150 16 0
1.661 -0.082000002 1.091 150 16 0
1.659 -0.085000001 1.0930001 150 16 0
1.6569999 -0.086999997 1.095 150 16 0
1.655 -0.089000002 1.096 150 16 0
1.654 -0.090999998 1.098 150 16 0
1.65 -0.093000002 1.098 150 16 0
1.648 -0.096000001 1.1 150 16 0
1.648 -0.097999997 1.103 150 16 0
1.643 -0.1 1.102 150 16 0
1.642 -0.102 1.104 150 16 0
1.642 -0.105 1.1059999 150 16 0
1.632 -0.107 1.102 150 19 0
1.625 -0.109 1.1 150 16 0
1.626 -0.111 1.102 150 16 0
1.62 -0.113 1.1 150 16 0
1.62 -0.115 1.103 150 16 0
1.619 -0.118 1.104 150 16 0
1.618 -0.12 1.105 150 16 0
1.612 -0.122 1.103 150 16 0
1.6109999 -0.124 1.104 150 16 0
1.614 -0.127 1.107 150 16 0
1.613 -0.12899999 1.108 150 16 0
1.609 -0.131 1.107 150 16 0
1.607 -0.134 1.107 150 16 0
1.607 -0.13600001 1.108 150 16 0
1.6059999 -0.138 1.109 150 16 0
1.605 -0.14 1.109 150 16 0
1.605 -0.14300001 1.11 150 16 0
1.605 -0.145 1.1109999 150 16 0
1.603 -0.147 1.1109999 150 16 0
1.604 -0.15000001 1.112 150 16 0
1.603 -0.152 1.112 150 16 0
1.601 -0.154 1.1109999 150 16 0
1.601 -0.15700001 1.112 150 16 0
1.601 -0.15899999 1.112 150 16 0
1.601 -0.161 1.113 150 16 0
1.6 -0.164 1.112 150 16 0
1.601 -0.16599999 1.113 150 16 0
1.599 -0.168 1.112 150 16 0
1.599 -0.17 1.112 150 16 0
1.599 -0.17299999 1.112 150 16 0
1.6 -0.175 1.112 150 16 0
1.601 -0.177 1.112 150 16 0
1.601 -0.18000001 1.112 150 16 0
1.603 -0.182 1.113 150 16 0
1.6 -0.184 1.11 150 16 0
1.604 -0.18700001 1.113 150 16 0
1.604 -0.189 1.112 150 16 0
1.605 -0.191 1.1109999 150 16 0
1.6059999 -0.193 1.112 150 16 0
1.607 -0.19599999 1.1109999 150 16 0
1.6059999 -0.198 1.11 150 16 0
1.607 -0.2 1.109 150 16 0
1.6109999 -0.20200001 1.1109999 150 16 0
1.608 -0.204 1.107 150 16 0
1.61 -0.206 1.107 150 16 0
1.6109999 -0.208 1.1059999 150 16 0
1.613 -0.211 1.1059999 150 16 0
1.614 -0.213 1.105 150 16 0
1.613 -0.215 1.102 150 16 0
1.6210001 -0.21799999 1.1059999 150 19 0
1.623 -0.22 1.1059999 150 16 0
1.624 -0.222 1.104 150 16 0
1.625 -0.22400001 1.103 150 16 0
1.626 -0.226 1.102 150 16 0
1.627 -0.228 1.1 150 16 0
1.636 -0.23100001 1.104 150 19 0
1.641 -0.233 1.105 150 16 0
1.642 -0.235 1.103 150 16 0
1.643 -0.237 1.101 150 16 0
1.6440001 -0.23899999 1.099 150 16 0
1.645 -0.241 1.097 150 16 0
1.65 -0.243 1.097 150 16 0
1.653 -0.245 1.096 150 16 0
1.652 -0.24600001 1.0930001 150 16 0
1.654 -0.248 1.091 150 16 0
1.661 -0.25099999 1.0930001 150 16 0
1.661 -0.252 1.089 150 16 0
1.666 -0.255 1.089 150 16 0
1.668 -0.25600001 1.087 150 16 0
1.6720001 -0.25799999 1.087 150 16 0
1.676 -0.25999999 1.086 150 16 0
1.678 -0.26199999 1.0829999 150 16 0
1.683 -0.264 1.0829999 150 16 0
1.6849999 -0.266 1.081 150 16 0
1.687 -0.26699999 1.0779999 150 16 0
1.696 -0.27000001 1.08 150 16 0
1.697 -0.271 1.077 150 16 0
1.705 -0.27399999 1.0779999 150 16 0
1.706 -0.27500001 1.075 150 16 0
1.711 -0.27700001 1.074 150 16 0
1.7130001 -0.278 1.071 150 16 0
1.717 -0.28 1.069 126 16 0
1.735 -0.28400001 1.076 114 18 0
1.739 -0.285 1.074 132 16 0
1.728 -0.28400001 1.062 150 19 0
1.728 -0.285 1.058 150 16 0
1.732 -0.287 1.056 150 16 0
1.734 -0.28799999 1.053 150 16 0
1.751 -0.292 1.058 150 18 0
1.7539999 -0.29300001 1.0549999 150 16 0
1.76 -0.29499999 1.054 150 16 0
1.763 -0.296 1.051 150 16 0
1.77 -0.29800001 1.05 150 16 0
1.772 -0.29899999 1.046 150 16 0
1.784 -0.301 1.049 150 16 0
1.786 -0.30199999 1.045 150 16 0
1.791 -0.303 1.0420001 150 16 0
1.799 -0.30500001 1.0420001 150 16 0
1.801 -0.30599999 1.038 150 16 0
1.807 -0.30700001 1.036 150 16 0
1.813 -0.30899999 1.034 150 16 0
1.816 -0.31 1.03 150 16 0
1.8200001 -0.31099999 1.027 150 16 0
1.829 -0.31200001 1.026 150 16 0
1.8329999 -0.31299999 1.023 150 16 0
1.839 -0.315 1.021 150 16 0
1.8430001 -0.315 1.018 150 16 0
1.849 -0.317 1.015 150 16 0
1.858 -0.31799999 1.0140001 150 16 0
1.867 -0.31999999 1.0140001 150 16 0
1.872 -0.32100001 1.01 150 16 0
1.88 -0.322 1.0089999 150 16 0
1.885 -0.32300001 1.005 150 16 0
1.888 -0.32300001 1.001 150 16 0
1.896 -0.324 1 150 16 0
1.902 -0.32499999 0.99599999 150 16 0
1.9119999 -0.32699999 0.99599999 150 16 0
1.9170001 -0.32699999 0.99199998 150 16 0
1.923 -0.32800001 0.98900002 150 16 0
1.9299999 -0.329 0.98699999 150 16 0
1.941 -0.33000001 0.986 150 16 0
1.9450001 -0.331 0.98199999 150 16 0
1.95 -0.331 0.97799999 150 16 0
1.959 -0.33199999 0.97600001 150 16 0
1.961 -0.33199999 0.97100002 150 16 0
1.969 -0.333 0.96799999 150 16 0
1.9809999 -0.33399999 0.96799999 150 16 0
1.983 -0.33399999 0.96200001 150 16 0
1.993 -0.33500001 0.95999998 150 16 0
2.0039999 -0.336 0.95899999 150 16 0
2.0120001 -0.33700001 0.95599997 150 16 0
2.02 -0.338 0.95300001 150 16 0
2.026 -0.338 0.949 150 16 0
2.0339999 -0.338 0.94599998 150 16 0
2.0420001 -0.33899999 0.94300002 150 16 0
2.0469999 -0.33899999 0.93900001 150 16 0
2.059 -0.34 0.93699998 123 16 0
2.0610001 -0.33899999 0.93199998 135 16 0
2.072 -0.34 0.93000001 145 16 0
2.079 -0.34 0.926 143 16 0
2.085 -0.34 0.92199999 126 16 0
2.095 -0.34099999 0.91900003 131 16 0
2.102 -0.34099999 0.91500002 140 16 0
2.1129999 -0.34200001 0.91299999 129 16 0
2.1210001 -0.34200001 0.90899998 129 16 0
2.1240001 -0.34099999 0.903 135 16 0
2.1329999 -0.34099999 0.89999998 127 16 0
2.1470001 -0.34200001 0.89899999 138 16 0
2.1489999 -0.34099999 0.89300001 90 16 0
2.1659999 -0.34200001 0.89200002 89 16 0
2.174 -0.34200001 0.88800001 98 16 0
2.1760001 -0.34099999 0.88200003 83 16 0
2.191 -0.34200001 0.88099998 90 16 0
2.197 -0.34200001 0.87599999 91 16 0
2.2030001 -0.34099999 0.87099999 80 16 0
2.2130001 -0.34099999 0.86699998 79 16 0
2.227 -0.34200001 0.86500001 93 16 0
2.2379999 -0.34200001 0.86199999 94 16 0
2.243 -0.34099999 0.85699999 87 16 0
2.253 -0.34099999 0.85299999 90 16 0
2.2579999 -0.34 0.847 85 16 0
2.2690001 -0.33899999 0.84399998 88 16 0
2.2820001 -0.34 0.84100002 82 16 0
2.293 -0.33899999 0.838 81 16 0
2.3 -0.33899999 0.833 72 16 0
2.3099999 -0.338 0.829 85 16 0
2.3180001 -0.338 0.824 83 16 0
2.3280001 -0.33700001 0.81999999 91 16 0
2.3380001 -0.33700001 0.81599998 81 16 0
2.346 -0.336 0.81 76 16 0
2.355 -0.33500001 0.80599999 77 16 0
2.368 -0.33500001 0.80199999 78 16 0
2.375 -0.33399999 0.79699999 82 16 0
2.3859999 -0.333 0.79299998 72 16 0
2.4000001 -0.333 0.79000002 77 16 0
2.405 -0.331 0.78399998 72 16 0
2.4170001 -0.331 0.77999997 69 16 0
2.4260001 -0.329 0.77399999 79 16 0
2.4319999 -0.32800001 0.76800001 64 16 0
2.4460001 -0.32800001 0.76499999 72 16 0
2.4579999 -0.32699999 0.76099998 65 16 0
2.4690001 -0.32600001 0.75599998 67 16 0
2.48 -0.32499999 0.75099999 65 16 0
2.4890001 -0.324 0.74599999 65 16 0
0 0 0 0 0 0
0 0 0 0 0 0
0 0 0 0 0 0
0 0 0 0 0 0
0 0 0 0 0 0
0 0 0 0 0 0
0 0 0 0 0 0
0 0 0 0 0 0
0 0 0 0 0 0
0 0 0 0 0 0
0 0 0 0 0 0
0 0 0 0 0 0
0 0 0 0 0 0
0 0 0 0 0 0
0 0 0 0 0 0
0 0 0 0 0 0
0 0 0 0 0 0
0 0 0 0 0 0
0 0 0 0 0 0
0 0 0 0 0 0
0 0 0 0 0 0
0 0 0 0 0 0
0 0 0 0 0 0
0 0 0 0 0 0
0 0 0 0 0 0
0 0 0 0 0 0
0 0 0 0 0 0
0 0 0 0 0 0
0 0 0 0 0 0
0 0 0 0 0 0
0 0 0 0 0 0
0 0 0 0 0 0
0 0 0 0 0 0
0 0 0 0 0 0
0 0 0 0 0 0
0 0 0 0 0 0
0 0 0 0 0 0
0 0 0 0 0 0
0 0 0 0 0 0
0 0 0 0 0 0
0 0 0 0 0 0
0 0 0 0 0 0
0 0 0 0 0 0
0 0 0 0 0 0
0 0 0 0 0 0
0 0 0 0 0 0
0 0 0 0 0 0
0 0 0 0 0 0
0 0 0 0 0 0
0 0 0 0 0 0
0 0 0 0 0 0
0 0 0 0 0 0
0 0 0 0 0 0
0 0 0 0 0 0
0 0 0 0 0 0
0 0 0 0 0 0
0 0 0 0 0 0
0 0 0 0 0 0
0 0 0 0 0 0
0 0 0 0 0 0
0 0 0 0 0 0
0 0 0 0 0 0
0 0 0 0 0 0
0 0 0 0 0 0
0 0 0 0 0 0
0 0 0 0 0 0
0 0 0 0 0 0
0 0 0 0 0 0
0 0 0 0 0 0
0 0 0 0 0 0
0 0 0 0 0 0
0 0 0 0 0 0
0 0 0 0 0 0
0 0 0 0 0 0
0 0 0 0 0 0
0 0 0 0 0 0
0 0 0 0 0 0
0 0 0 0 0 0
0 0 0 0 0 0
0 0 0 0 0 0
0 0 0 0 0 0
0 0 0 0 0 0
0 0 0 0 0 0
0 0 0 0 0 0
0 0 0 0 0 0
0 0 0 0 0 0
0 0 0 0 0 0
0 0 0 0 0 0
0 0 0 0 0 0
0 0 0 0 0 0
0 0 0 0 0 0
0 0 0 0 0 0
0 0 0 0 0 0
0 0 0 0 0 0
0 0 0 0 0 0
0 0 0 0 0 0
3.2579999 -0.011 0.021 17 16 0
3.2709999 -0.0060000001 0.011 14 16 0
3.279 -0.001 0.0020000001 15 16 0
3.2839999 0.003 -0.0060000001 15 16 0
3.299 0.0080000004 -0.016000001 16 16 0
3.3039999 0.014 -0.025 18 16 0
3.3110001 0.018999999 -0.034000002 22 16 0
3.312 0.024 -0.044 35 16 0
3.3050001 0.028999999 -0.052999999 46 16 0
3.293 0.035 -0.061999999 52 16 0
3.2869999 0.039999999 -0.071000002 52 16 0
3.283 0.045000002 -0.079999998 46 16 0
3.2780001 0.050000001 -0.089000002 36 16 0
3.273 0.055 -0.097999997 38 16 0
3.2650001 0.061000001 -0.107 44 16 0
3.2539999 0.066 -0.116 52 16 0
3.25 0.071000002 -0.125 51 16 0
3.25 0.075999998 -0.134 53 16 0
3.2379999 0.081 -0.14300001 52 16 0
3.2360001 0.086999997 -0.152 52 16 0
3.2290001 0.092 -0.16 59 16 0
3.223 0.097000003 -0.169 61 16 0
3.214 0.102 -0.178 57 16 0
3.204 0.107 -0.186 58 16 0
3.201 0.112 -0.19499999 59 16 0
3.191 0.117 -0.20299999 50 16 0
3.184 0.122 -0.211 55 16 0
3.177 0.127 -0.22 49 16 0
3.1700001 0.133 -0.228 54 16 0
3.168 0.138 -0.237 58 16 0
3.1559999 0.14300001 -0.244 52 16 0
3.154 0.148 -0.25299999 53 16 0
3.1440001 0.153 -0.26100001 50 16 0
3.1400001 0.15800001 -0.26899999 50 16 0
3.132 0.163 -0.27700001 52 16 0
3.1240001 0.168 -0.285 56 16 0
3.115 0.17299999 -0.29300001 66 16 0
3.1129999 0.178 -0.301 53 16 0
3.1070001 0.184 -0.30899999 56 16 0
3.1029999 0.189 -0.317 62 16 0
3.0929999 0.19400001 -0.32499999 57 16 0
3.0869999 0.199 -0.333 60 16 0
3.0799999 0.204 -0.34 61 16 0
3.075 0.20900001 -0.34799999 68 16 0
3.0680001 0.214 -0.35600001 64 16 0
3.0639999 0.219 -0.36399999 67 16 0
3.0569999 0.22400001 -0.37099999 65 16 0
3.049 0.229 -0.37900001 49 16 0
3.04 0.234 -0.38600001 51 16 0
3.0369999 0.23899999 -0.39399999 70 16 0
3.03 0.244 -0.40099999 62 16 0
3.026 0.249 -0.40900001 81 16 0
3.017 0.25400001 -0.41600001 91 16 0
3.0120001 0.259 -0.42399999 83 16 0
3.01 0.26499999 -0.43099999 81 16 0
3.0020001 0.27000001 -0.43799999 87 16 0
2.9960001 0.27500001 -0.44600001 78 16 0
2.983 0.27900001 -0.45199999 72 16 0
2.9809999 0.28400001 -0.45899999 80 16 0
2.9790001 0.28999999 -0.46700001 83 16 0
2.9660001 0.294 -0.47299999 91 16 0
2.964 0.30000001 -0.48100001 91 16 0
2.964 0.30500001 -0.48899999 92 16 0
2.954 0.31 -0.495 94 16 0
2.9489999 0.315 -0.50199997 100 16 0
2.9430001 0.31999999 -0.509 107 16 0
2.941 0.32600001 -0.51700002 97 16 0
2.934 0.33000001 -0.52399999 100 16 0
2.927 0.33500001 -0.52999997 98 16 0
2.9119999 0.33899999 -0.53500003 114 16 0
2.9100001 0.345 -0.54299998 130 16 0
2.9030001 0.34999999 -0.54900002 124 16 0
2.895 0.35499999 -0.55599999 108 16 0
2.8929999 0.36000001 -0.56300002 115 16 0
2.8870001 0.36500001 -0.56900001 132 16 0
2.8829999 0.37 -0.57599998 129 16 0
2.8770001 0.375 -0.583 132 16 0
2.8729999 0.38100001 -0.58999997 128 16 0
2.8629999 0.38499999 -0.59500003 124 16 0
2.8599999 0.38999999 -0.602 135 16 0
2.8559999 0.396 -0.60900003 148 16 0
2.846 0.40000001 -0.61400002 117 16 0
2.8440001 0.40599999 -0.62099999 116 16 0
2.836 0.41 -0.62699997 137 16 0
2.832 0.41600001 -0.634 122 16 0
2.829 0.421 -0.64099997 146 16 0
2.822 0.426 -0.64600003 145 16 0
2.8180001 0.43099999 -0.653 135 16 0
2.8099999 0.43599999 -0.65899998 137 16 0
2.8080001 0.44100001 -0.66500002 141 16 0
2.802 0.44600001 -0.671 145 16 0
2.796 0.45199999 -0.67699999 147 16 0
2.79 0.456 -0.68300003 138 16 0
2.783 0.461 -0.68800002 150 16 0
2.7750001 0.46599999 -0.69400001 145 16 0
2.7750001 0.472 -0.70099998 150 16 0
2.7650001 0.47600001 -0.70599997 147 16 0
2.763 0.48199999 -0.71200001 150 16 0
2.757 0.48699999 -0.71799999 150 16 0
2.75 0.491 -0.72299999 150 16 0
2.747 0.49700001 -0.72899997 150 16 0
2.744 0.50300002 -0.736 150 16 0
2.7349999 0.50700003 -0.74000001 150 16 0
2.7320001 0.51200002 -0.74699998 150 16 0
2.724 0.51700002 -0.75099999 150 16 0
2.7160001 0.52200001 -0.75599998 150 16 0
2.7119999 0.52700001 -0.76200002 150 16 0
2.7090001 0.53200001 -0.76800001 150 16 0
2.7049999 0.53799999 -0.77399999 150 16 0
2.697 0.542 -0.778 150 16 0
2.6919999 0.54699999 -0.78299999 150 16 0
2.6889999 0.55299997 -0.78899997 150 16 0
2.6860001 0.55800003 -0.79500002 150 16 0
2.681 0.56400001 -0.801 150 16 0
2.6719999 0.56800002 -0.80400002 150 16 0
2.6689999 0.57300001 -0.81 150 16 0
2.664 0.579 -0.815 150 16 0
2.6600001 0.58399999 -0.82099998 150 16 0
2.6570001 0.58999997 -0.82599998 150 16 0
2.6489999 0.59399998 -0.83099997 150 16 0
2.6429999 0.59899998 -0.83499998 150 16 0
2.6400001 0.60399997 -0.83999997 150 16 0
2.6370001 0.61000001 -0.84600002 150 16 0
2.625 0.61400002 -0.84899998 150 16 0
2.6210001 0.61900002 -0.85399997 150 16 0
2.618 0.62400001 -0.85900003 150 16 0
2.612 0.62900001 -0.86299998 150 16 0
2.609 0.63499999 -0.86900002 150 16 0
2.6070001 0.64099997 -0.87400001 150 16 0
2.5969999 0.64499998 -0.87699997 150 16 0
2.5969999 0.65100002 -0.88300002 150 16 0
2.5910001 0.65600002 -0.88700002 150 16 0
2.5880001 0.662 -0.89200002 150 16 0
2.5810001 0.66600001 -0.89600003 150 16 0
2.5840001 0.67299998 -0.903 96 16 0
2.5780001 0.67799997 -0.90700001 19 16 0
2.5780001 0.685 -0.91299999 4 16 0
2.5940001 0.69499999 -0.92500001 0 16 0
2.6459999 0.71600002 -0.949 0 16 0
2.6440001 0.722 -0.95499998 0 16 0
2.6289999 0.72399998 -0.95499998 0 16 0
2.642 0.73500001 -0.96600002 0 16 0
2.6300001 0.73799998 -0.96700001 0 16 0
2.6300001 0.745 -0.97299999 0 16 0
2.608 0.745 -0.97100002 0 16 0
2.612 0.75300002 -0.97799999 0 16 0
2.5799999 0.75 -0.972 0 18 0
2.6129999 0.76599997 -0.99000001 0 16 0
2.5969999 0.76800001 -0.98900002 0 16 0
2.5799999 0.76999998 -0.98799998 0 16 0
2.5769999 0.77600002 -0.99299997 0 16 0
2.566 0.77899998 -0.99400002 0 16 0
2.4909999 0.76300001 -0.97000003 1 17 0
2.4990001 0.77200001 -0.97799999 11 16 0
2.4920001 0.77600002 -0.98100001 33 16 0
2.483 0.77999997 -0.98299998 150 16 0
2.48 0.78500003 -0.98699999 150 16 0
2.4760001 0.79000002 -0.99000001 150 16 0
2.4749999 0.79699999 -0.995 150 16 0
2.467 0.80000001 -0.99599999 150 16 0
2.4660001 0.80599999 -1 150 16 0
2.46 0.81099999 -1.003 150 16 0
2.4560001 0.81599998 -1.006 150 16 0
2.451 0.82099998 -1.0089999 150 16 0
2.45 0.82700002 -1.013 150 16 0
2.4430001 0.83099997 -1.015 150 16 0
2.4400001 0.83700001 -1.018 150 16 0
2.437 0.84200001 -1.021 150 16 0
2.4330001 0.847 -1.024 150 16 0
2.431 0.85299999 -1.027 150 16 0
2.4230001 0.85600001 -1.028 150 16 0
2.424 0.86299998 -1.033 150 16 0
2.4189999 0.86799997 -1.035 150 16 0
2.4159999 0.87300003 -1.038 150 16 0
2.4119999 0.87800002 -1.041 150 16 0
2.408 0.88300002 -1.043 150 16 0
2.405 0.88800001 -1.045 150 16 0
2.3989999 0.89200002 -1.0470001 150 16 0
2.3959999 0.898 -1.049 150 16 0
2.3929999 0.903 -1.052 150 16 0
2.3900001 0.90799999 -1.054 150 16 0
2.3870001 0.91299999 -1.056 150 16 0
2.3800001 0.91600001 -1.057 150 16 0
2.375 0.921 -1.058 150 16 0
2.3699999 0.92500001 -1.059 150 16 0
2.3710001 0.93099999 -1.063 150 16 0
2.3640001 0.935 -1.063 150 16 0
2.3629999 0.94099998 -1.066 150 16 0
2.362 0.94700003 -1.069 150 16 0
2.3740001 0.95700002 -1.077 151 19 0
2.3659999 0.95999998 -1.077 151 16 0
2.3570001 0.963 -1.076 151 16 0
2.348 0.96499997 -1.074 150 16 0
2.3429999 0.96899998 -1.075 150 16 0
2.3380001 0.97299999 -1.075 150 16 0
2.332 0.97600001 -1.075 150 16 0
2.3329999 0.98199999 -1.0779999 150 16 0
2.3299999 0.98699999 -1.079 150 16 0
2.326 0.991 -1.08 150 16 0
2.325 0.99699998 -1.082 150 16 0
2.3210001 1.001 -1.082 150 16 0
2.3199999 1.006 -1.084 150 16 0
2.3139999 1.0089999 -1.0829999 150 16 0
2.3099999 1.013 -1.0829999 150 16 0
2.309 1.018 -1.085 150 16 0
2.3069999 1.023 -1.086 150 16 0
2.3050001 1.027 -1.086 150 16 0
2.299 1.03 -1.085 150 16 0
2.3 1.036 -1.0880001 150 16 0
2.2950001 1.039 -1.086 150 16 0
2.293 1.043 -1.087 150 16 0
2.2920001 1.048 -1.0880001 150 16 0
2.2880001 1.052 -1.087 150 16 0
2.286 1.056 -1.0880001 150 16 0
2.286 1.061 -1.089 151 16 0
2.2820001 1.064 -1.0880001 151 16 0
2.28 1.068 -1.0880001 150 16 0
2.279 1.072 -1.0880001 150 16 0
2.277 1.076 -1.0880001 150 16 0
2.2750001 1.08 -1.0880001 150 16 0
2.273 1.084 -1.087 150 16 0
2.273 1.089 -1.0880001 150 16 0
2.27 1.092 -1.087 151 16 0
2.266 1.095 -1.085 150 16 0
2.267 1.1 -1.086 151 16 0
2.2639999 1.103 -1.085 151 16 0
2.2639999 1.107 -1.084 151 16 0
2.2620001 1.11 -1.084 151 16 0
2.2609999 1.114 -1.0829999 151 16 0
2.2609999 1.118 -1.0829999 151 16 0
2.2579999 1.1210001 -1.081 150 16 0
2.2550001 1.123 -1.079 151 16 0
2.2550001 1.127 -1.079 151 16 0
2.2550001 1.131 -1.0779999 151 16 0
2.253 1.1339999 -1.076 151 16 0
2.2539999 1.138 -1.076 151 16 0
2.2520001 1.141 -1.074 151 16 0
2.2509999 1.1440001 -1.073 151 16 0
2.2479999 1.146 -1.0700001 151 16 0
2.2509999 1.151 -1.071 151 16 0
2.247 1.152 -1.067 151 16 0
2.2479999 1.156 -1.067 151 16 0
2.2449999 1.158 -1.064 151 16 0
2.2460001 1.161 -1.063 151 16 0
2.2460001 1.164 -1.061 151 16 0
2.2449999 1.1670001 -1.059 151 16 0
2.2449999 1.169 -1.057 151 16 0
2.243 1.171 -1.0549999 151 16 0
2.243 1.173 -1.053 151 16 0
2.2420001 1.176 -1.051 151 16 0
2.244 1.179 -1.049 151 16 0
2.2420001 1.1799999 -1.046 151 16 0
2.2390001 1.181 -1.043 151 16 0
2.2420001 1.1849999 -1.0420001 151 16 0
2.2460001 1.189 -1.041 151 16 0
2.2420001 1.189 -1.0369999 151 16 0
2.2420001 1.191 -1.034 151 16 0
2.244 1.193 -1.0319999 151 16 0
2.243 1.194 -1.029 151 16 0
2.244 1.197 -1.027 151 16 0
2.243 1.198 -1.024 151 16 0
2.2449999 1.2 -1.022 151 16 0
2.244 1.201 -1.018 151 16 0
2.2449999 1.202 -1.015 151 16 0
2.2479999 1.206 -1.0140001 151 16 0
2.247 1.206 -1.01 151 16 0
2.2479999 1.207 -1.007 151 16 0
2.247 1.2079999 -1.003 151 16 0
2.2479999 1.209 -1 151 16 0
2.2509999 1.211 -0.99800003 151 16 0
2.2509999 1.212 -0.99400002 151 16 0
2.2509999 1.212 -0.99000001 151 16 0
2.2539999 1.214 -0.98799998 151 16 0
2.2539999 1.214 -0.98400003 151 16 0
2.257 1.216 -0.98199999 151 16 0
2.2550001 1.215 -0.977 151 16 0
2.256 1.215 -0.97299999 151 16 0
2.2609999 1.2180001 -0.97100002 151 16 0
2.2590001 1.216 -0.96600002 151 16 0
2.2620001 1.217 -0.963 151 16 0
2.263 1.2180001 -0.95899999 151 16 0
2.266 1.219 -0.95700002 151 16 0
2.266 1.2180001 -0.95200002 151 16 0
2.2679999 1.2180001 -0.94800001 151 16 0
2.267 1.217 -0.94300002 151 16 0
2.2679999 1.217 -0.94 151 16 0
2.2720001 1.2180001 -0.93699998 151 16 0
2.2739999 1.2180001 -0.93300003 150 16 0
2.273 1.216 -0.92799997 150 16 0
2.279 1.2180001 -0.92500001 150 16 0
2.28 1.217 -0.921 150 16 0
2.29 1.221 -0.92000002 151 16 0
2.2869999 1.217 -0.91399997 151 16 0
2.29 1.2180001 -0.91100001 151 16 0
2.2950001 1.2180001 -0.90799999 150 16 0
2.2969999 1.217 -0.903 50 16 0
2.3039999 1.219 -0.90100002 12 16 0
2.312 1.221 -0.89899999 3 16 0
2.3199999 1.223 -0.89700001 3 16 0
2.323 1.222 -0.89300001 3 16 0
2.323 1.22 -0.88800001 3 16 0
2.323 1.2180001 -0.88200003 3 16 0
2.3269999 1.217 -0.87900001 4 16 0
2.3310001 1.217 -0.875 4 16 0
2.3299999 1.214 -0.86900002 4 16 0
2.3429999 1.217 -0.86799997 4 16 0
2.3410001 1.214 -0.86199999 4 16 0
2.346 1.2130001 -0.85900003 5 16 0
2.3469999 1.211 -0.85399997 6 16 0
2.3499999 1.209 -0.84899998 6 16 0
2.355 1.2079999 -0.84500003 6 16 0
2.3570001 1.206 -0.84100002 4 16 0
2.3559999 1.2029999 -0.83499998 4 16 0
2.3659999 1.204 -0.833 4 16 0
2.3610001 1.198 -0.82499999 9 16 0
2.3559999 1.192 -0.81800002 34 16 0
2.3559999 1.188 -0.81199998 150 16 0
2.3529999 1.183 -0.80599999 151 16 0
2.359 1.182 -0.80199999 150 16 0
2.362 1.1799999 -0.79699999 150 16 0
2.3640001 1.177 -0.792 150 16 0
2.3699999 1.175 -0.78899997 150 16 0
2.369 1.171 -0.78299999 150 16 0
2.3740001 1.169 -0.77899998 150 16 0
2.3759999 1.166 -0.773 150 16 0
2.3800001 1.163 -0.76899999 150 16 0
2.3829999 1.161 -0.764 150 16 0
2.388 1.159 -0.75999999 150 16 0
2.3889999 1.154 -0.755 150 16 0
2.3929999 1.152 -0.75 150 16 0
2.395 1.148 -0.745 150 16 0
2.4000001 1.146 -0.741 150 16 0
2.404 1.143 -0.736 150 16 0
2.408 1.14 -0.73199999 150 16 0
2.4170001 1.14 -0.72899997 150 16 0
2.421 1.136 -0.72399998 150 16 0
2.4219999 1.132 -0.71899998 150 16 0
2.427 1.1289999 -0.71399999 150 16 0
2.4300001 1.125 -0.70899999 150 16 0
2.431 1.1210001 -0.704 150 16 0
2.4400001 1.119 -0.70099998 150 16 0
2.4460001 1.117 -0.69599998 150 16 0
2.4489999 1.113 -0.69199997 150 16 0
2.447 1.1059999 -0.685 150 16 0
2.4549999 1.105 -0.68199998 150 16 0
2.4560001 1.099 -0.676 150 16 0
2.4619999 1.096 -0.67199999 150 16 0
2.4649999 1.092 -0.667 150 16 0
2.4690001 1.0880001 -0.662 150 16 0
2.4719999 1.084 -0.65700001 150 16 0
2.4790001 1.081 -0.653 150 16 0
2.4820001 1.077 -0.648 150 16 0
2.4879999 1.073 -0.64399999 150 16 0
2.4920001 1.069 -0.639 150 16 0
2.494 1.064 -0.634 150 16 0
2.4909999 1.057 -0.62800002 150 16 0
2.5020001 1.0549999 -0.625 150 16 0
2.5050001 1.051 -0.62 150 16 0
2.5139999 1.048 -0.616 150 16 0
2.517 1.043 -0.611 150 16 0
2.52 1.038 -0.60600001 150 16 0
2.523 1.033 -0.60100001 150 16 0
2.527 1.028 -0.59600002 150 16 0
2.533 1.025 -0.59200001 150 16 0
2.5369999 1.0190001 -0.588 150 16 0
2.54 1.0140001 -0.583 150 16 0
2.5439999 1.0089999 -0.57800001 150 16 0
2.546 1.0039999 -0.57300001 150 16 0
2.5510001 0.99900001 -0.56800002 150 16 0
2.5539999 0.99299997 -0.56300002 150 16 0
2.5580001 0.98799998 -0.55900002 150 16 0
2.5610001 0.98299998 -0.55400002 150 16 0
2.573 0.98100001 -0.551 150 16 0
2.5810001 0.977 -0.54699999 150 16 0
2.595 0.97600001 -0.54400003 150 16 0
2.612 0.97500002 -0.542 150 16 0
2.602 0.96399999 -0.53500003 150 16 0
2.595 0.95499998 -0.528 150 16 0
2.5969999 0.94800001 -0.52200001 150 16 0
2.602 0.94400001 -0.51800001 150 16 0
2.6099999 0.93900001 -0.514 150 16 0
2.615 0.93400002 -0.50999999 150 16 0
2.6199999 0.92900002 -0.505 150 16 0
2.6240001 0.92299998 -0.50099999 150 16 0
2.6270001 0.917 -0.49599999 150 16 0
2.6340001 0.912 -0.49200001 150 16 0
2.6400001 0.90700001 -0.48699999 150 16 0
2.642 0.89999998 -0.48199999 150 16 0
2.651 0.89600003 -0.479 150 16 0
2.655 0.88999999 -0.47400001 150 16 0
2.658 0.884 -0.46900001 150 16 0
2.664 0.87900001 -0.465 150 16 0
2.6730001 0.87400001 -0.461 150 16 0
2.6760001 0.86799997 -0.45699999 150 16 0
2.6789999 0.861 -0.45199999 150 16 0
2.6819999 0.85500002 -0.447 150 16 0
2.6889999 0.84899998 -0.44299999 150 16 0
2.694 0.84399998 -0.43900001 150 16 0
2.7 0.838 -0.43399999 150 16 0
2.7060001 0.83200002 -0.43000001 150 16 0
2.711 0.82599998 -0.426 150 16 0
2.714 0.81900001 -0.421 150 16 0
2.7179999 0.81300002 -0.417 150 16 0
2.723 0.80599999 -0.412 150 16 0
2.727 0.80000001 -0.40799999 150 16 0
2.7320001 0.79400003 -0.403 150 16 0
2.7409999 0.78899997 -0.40000001 150 16 0
2.75 0.78299999 -0.396 150 16 0
2.75 0.77499998 -0.391 150 16 0
2.7620001 0.77100003 -0.38699999 150 16 0
2.766 0.764 -0.38299999 150 16 0
2.7690001 0.75700003 -0.37799999 150 16 0
2.773 0.75099999 -0.37400001 150 16 0
2.779 0.74400002 -0.36899999 150 16 0
2.7809999 0.73699999 -0.36500001 150 16 0
2.7920001 0.73199999 -0.361 150 16 0
2.7909999 0.72399998 -0.35600001 150 16 0
2.8 0.71799999 -0.35299999 150 16 0
2.8050001 0.71100003 -0.34799999 150 16 0
2.8139999 0.70499998 -0.34400001 150 16 0
2.8169999 0.69800001 -0.34 150 16 0
2.823 0.69099998 -0.336 150 16 0
2.825 0.68300003 -0.331 150 16 0
2.8340001 0.67699999 -0.32699999 150 16 0
2.8399999 0.671 -0.32300001 150 16 0
2.8469999 0.66399997 -0.31900001 150 16 0
2.849 0.65600002 -0.31400001 150 16 0
2.8570001 0.64999998 -0.31099999 150 16 0
2.859 0.64200002 -0.30599999 150 16 0
2.8599999 0.634 -0.301 150 16 0
2.8699999 0.62800002 -0.29800001 150 16 0
2.875 0.62099999 -0.29300001 150 16 0
2.8789999 0.61299998 -0.289 150 16 0
2.8870001 0.60600001 -0.285 150 16 0
2.895 0.60000002 -0.28099999 150 16 0
2.901 0.59200001 -0.27700001 150 16 0
2.904 0.58499998 -0.273 150 16 0
2.9119999 0.57800001 -0.26899999 150 16 0
2.9119999 0.56900001 -0.264 150 16 0
2.925 0.56300002 -0.26100001 150 16 0
2.9319999 0.55599999 -0.257 150 16 0
2.934 0.54799998 -0.252 150 16 0
2.9400001 0.54000002 -0.248 150 16 0
2.95 0.53399998 -0.244 150 16 0
2.951 0.52499998 -0.23999999 150 16 0
2.9579999 0.51800001 -0.236 150 16 0
2.9630001 0.50999999 -0.23199999 150 16 0
2.967 0.50199997 -0.228 150 16 0
2.9749999 0.495 -0.22400001 150 16 0
2.984 0.48699999 -0.22 150 16 0
2.9860001 0.479 -0.215 150 16 0
2.9909999 0.47099999 -0.211 150 16 0
3.0009999 0.46399999 -0.208 150 16 0
3.0009999 0.45500001 -0.20299999 150 16 0
3.0120001 0.44800001 -0.199 150 16 0
3.02 0.44 -0.19599999 150 16 0
3.0220001 0.43099999 -0.191 150 16 0
3.0280001 0.42300001 -0.18700001 150 16 0
3.03 0.41499999 -0.183 150 16 0
3.04 0.40700001 -0.17900001 150 16 0
3.046 0.39899999 -0.175 150 16 0
3.053 0.391 -0.171 150 16 0
3.0599999 0.38299999 -0.167 146 16 0
3.063 0.37400001 -0.163 144 16 0
3.069 0.366 -0.15899999 150 16 0
3.0780001 0.35800001 -0.155 138 16 0
3.079 0.34900001 -0.15099999 149 16 0
3.092 0.34099999 -0.147 146 16 0
3.095 0.33199999 -0.14300001 150 16 0
3.1029999 0.324 -0.139 130 16 0
3.112 0.31600001 -0.13500001 136 16 0
3.119 0.30700001 -0.131 136 16 0
3.1229999 0.29800001 -0.127 122 16 0
3.128 0.289 -0.123 132 16 0
