# .PCD v0.7 - Point Cloud Data file format
VERSION 0.7
FIELDS x y z intensity tag line
SIZE 4 4 4 4 1 1
TYPE F F F F U U
COUNT 1 1 1 1 1 1
WIDTH 1365
HEIGHT 1
VIEWPOINT 0 0 0 1 0 0 0
POINTS 1365
DATA ascii
2.6329999 -0.33700001 -0.071000002 35 16 0
2.622 -0.34400001 -0.072999999 41 16 0
2.6029999 -0.34999999 -0.074000001 34 16 0
2.5929999 -0.35699999 -0.075999998 36 16 0
2.5810001 -0.36300001 -0.078000002 39 16 0
2.556 -0.368 -0.079000004 39 16 0
2.5469999 -0.37400001 -0.081 46 16 0
2.5369999 -0.38100001 -0.082999997 42 16 0
2.5150001 -0.38600001 -0.083999999 45 16 0
2.503 -0.39199999 -0.086000003 44 16 0
2.493 -0.398 -0.088 54 16 0
2.48 -0.40400001 -0.089000002 55 16 0
2.4690001 -0.41 -0.090999998 50 16 0
2.4579999 -0.41600001 -0.093000002 56 16 0
2.4449999 -0.421 -0.094999999 55 16 0
2.427 -0.426 -0.096000001 53 16 0
2.4189999 -0.43200001 -0.097999997 54 16 0
2.3989999 -0.43599999 -0.098999999 54 16 0
2.3900001 -0.442 -0.101 52 16 0
2.3770001 -0.44800001 -0.103 60 16 0
2.3610001 -0.45199999 -0.104 51 16 0
2.3510001 -0.458 -0.106 59 16 0
2.335 -0.46200001 -0.107 47 16 0
2.329 -0.46799999 -0.109 55 16 0
2.3150001 -0.47299999 -0.111 56 16 0
2.303 -0.477 -0.113 64 16 0
2.283 -0.47999999 -0.114 55 16 0
2.277 -0.48699999 -0.116 62 16 0
2.2709999 -0.49200001 -0.118 60 16 0
2.2520001 -0.49599999 -0.119 70 16 0
2.2460001 -0.50099999 -0.121 70 16 0
2.234 -0.50599998 -0.122 67 16 0
2.22 -0.50999999 -0.124 67 16 0
2.2090001 -0.514 -0.126 68 16 0
2.2030001 -0.51999998 -0.12800001 76 16 0
2.194 -0.52399999 -0.12899999 77 16 0
2.1830001 -0.52899998 -0.131 83 16 0
2.164 -0.53100002 -0.132 80 16 0
2.155 -0.53600001 -0.134 78 16 0
2.1470001 -0.54100001 -0.13600001 85 16 0
2.1370001 -0.54500002 -0.13699999 88 16 0
2.1210001 -0.54799998 -0.139 75 16 0
2.115 -0.55299997 -0.141 79 16 0
2.1059999 -0.55699998 -0.142 83 16 0
2.095 -0.56099999 -0.14399999 90 16 0
2.085 -0.565 -0.146 85 16 0
2.075 -0.56800002 -0.147 90 16 0
2.0669999 -0.57300001 -0.149 92 16 0
2.0550001 -0.57599998 -0.15000001 92 16 0
2.049 -0.58099997 -0.152 92 16 0
2.0380001 -0.58399999 -0.154 100 16 0
2.029 -0.588 -0.156 98 16 0
2.0179999 -0.59100002 -0.15700001 83 16 0
2.0109999 -0.59500003 -0.15899999 104 16 0
2.0020001 -0.59899998 -0.161 91 16 0
1.9910001 -0.602 -0.162 99 16 0
1.984 -0.60600001 -0.164 110 16 0
1.973 -0.60900003 -0.16599999 107 16 0
1.966 -0.61299998 -0.168 101 16 0
1.9579999 -0.61699998 -0.169 98 16 0
1.943 -0.61799997 -0.171 102 16 0
1.936 -0.62199998 -0.17200001 104 16 0
1.927 -0.625 -0.17399999 102 16 0
1.921 -0.62900001 -0.176 100 16 0
1.916 -0.634 -0.178 106 16 0
1.91 -0.63800001 -0.18000001 116 16 0
1.901 -0.64099997 -0.182 101 16 0
1.89 -0.64300001 -0.183 114 16 0
1.877 -0.64399999 -0.184 121 16 0
1.874 -0.64899999 -0.18700001 147 16 0
1.87 -0.65399998 -0.189 131 16 0
1.862 -0.65700001 -0.19 141 16 0
1.8559999 -0.66000003 -0.192 134 16 0
1.848 -0.66299999 -0.19400001 149 16 0
1.835 -0.66399997 -0.19499999 133 16 0
1.826 -0.667 -0.197 140 16 0
1.822 -0.671 -0.199 143 16 0
1.813 -0.67299998 -0.20100001 1 0 0
1.808 -0.67699999 -0.20299999 140 16 0
1.8 -0.68000001 -0.205 145 16 0
1.799 -0.685 -0.207 150 16 0
1.785 -0.685 -0.208 147 16 0
1.78 -0.68800002 -0.20999999 150 16 0
1.771 -0.69 -0.212 150 16 0
1.762 -0.69199997 -0.213 150 16 0
1.758 -0.69599998 -0.215 150 16 0
1.753 -0.699 -0.21699999 150 16 0
1.745 -0.70099998 -0.219 150 16 0
1.739 -0.704 -0.221 1 0 0
1.7309999 -0.70599997 -0.223 1 0 0
1.73 -0.71100003 -0.22499999 148 16 0
1.726 -0.71499997 -0.228 150 16 0
1.711 -0.71399999 -0.228 144 16 0
1.7079999 -0.71799999 -0.23100001 150 16 0
1.699 -0.71899998 -0.23199999 1 0 0
1.691 -0.72100002 -0.234 1 0 0
1.689 -0.72500002 -0.236 1 0 0
1.678 -0.72500002 -0.237 150 16 0
1.674 -0.72799999 -0.23999999 2 0 0
1.671 -0.73199999 -0.242 47 0 0
1.661 -0.73199999 -0.243 2 0 0
1.659 -0.736 -0.24600001 2 0 0
1.655 -0.73900002 -0.248 50 0 0
1.649 -0.741 -0.25 150 16 0
1.641 -0.74199998 -0.25099999 59 0 0
1.636 -0.745 -0.25400001 47 0 0
1.628 -0.74599999 -0.255 1 0 0
1.624 -0.74900001 -0.257 150 16 0
1.619 -0.75099999 -0.259 62 0 0
1.6160001 -0.75400001 -0.26199999 58 0 0
1.6109999 -0.75700003 -0.264 56 0 0
1.596 -0.75400001 -0.264 150 19 0
1.5930001 -0.75700003 -0.26699999 1 0 0
1.591 -0.75999999 -0.26899999 150 16 0
1.586 -0.76200002 -0.271 1 0 0
1.579 -0.764 -0.273 71 0 0
1.576 -0.76599997 -0.27500001 150 16 0
1.571 -0.76800001 -0.27700001 150 16 0
1.568 -0.77100003 -0.27900001 47 0 0
1.563 -0.773 -0.28099999 59 0 0
1.558 -0.77399999 -0.28299999 59 0 0
1.55 -0.77499998 -0.285 93 0 0
1.5470001 -0.77700001 -0.287 63 0 0
1.544 -0.77999997 -0.289 76 0 0
1.5420001 -0.78299999 -0.292 78 0 0
1.535 -0.78299999 -0.294 73 0 0
1.531 -0.78500003 -0.296 60 0 0
1.524 -0.78500003 -0.29699999 60 0 0
1.52 -0.787 -0.29899999 77 0 0
1.515 -0.78799999 -0.301 86 0 0
1.51 -0.78899997 -0.303 80 0 0
1.51 -0.79299998 -0.30599999 72 0 0
1.507 -0.79500002 -0.30899999 69 0 0
1.499 -0.79500002 -0.31 63 0 0
1.494 -0.796 -0.31200001 81 0 0
1.494 -0.79900002 -0.315 75 0 0
1.484 -0.79799998 -0.31600001 94 0 0
1.4809999 -0.79900002 -0.31799999 91 0 0
1.478 -0.801 -0.31999999 83 0 0
1.473 -0.80199999 -0.322 114 0 0
1.471 -0.80400002 -0.32499999 87 0 0
1.467 -0.80500001 -0.32699999 137 0 0
1.4579999 -0.80299997 -0.32800001 89 0 0
1.46 -0.80800003 -0.331 88 0 0
1.457 -0.80900002 -0.333 69 0 0
1.452 -0.81 -0.33500001 111 0 0
1.45 -0.81099999 -0.33700001 91 0 0
1.446 -0.81199998 -0.33899999 102 0 0
1.439 -0.81099999 -0.34099999 120 0 0
1.436 -0.81199998 -0.34299999 115 0 0
1.4349999 -0.815 -0.34599999 120 0 0
1.429 -0.81400001 -0.347 87 0 0
1.429 -0.81599998 -0.34999999 94 0 0
1.427 -0.81800002 -0.352 105 0 0
1.42 -0.81699997 -0.354 93 0 0
1.421 -0.81999999 -0.35699999 91 0 0
1.4170001 -0.81999999 -0.359 106 0 0
1.416 -0.82200003 -0.361 123 0 0
1.413 -0.82200003 -0.36300001 123 0 0
1.408 -0.82200003 -0.36500001 113 0 0
1.405 -0.82300001 -0.36700001 123 0 0
1.401 -0.82300001 -0.36899999 121 0 0
1.4 -0.824 -0.37099999 129 0 0
1.398 -0.82499999 -0.373 110 0 0
1.398 -0.82700002 -0.37599999 141 0 0
1.3940001 -0.82700002 -0.37799999 140 0 0
1.388 -0.82499999 -0.37900001 147 0 0
1.386 -0.82599998 -0.38100001 150 0 0
1.385 -0.82700002 -0.384 150 0 0
1.381 -0.82700002 -0.38499999 125 0 0
1.38 -0.82800001 -0.38800001 129 0 0
1.381 -0.82999998 -0.391 150 0 0
1.378 -0.829 -0.39199999 114 0 0
1.376 -0.82999998 -0.39500001 130 0 0
1.375 -0.82999998 -0.39700001 150 0 0
1.373 -0.83099997 -0.39899999 150 0 0
1.372 -0.83200002 -0.40099999 150 0 0
1.3710001 -0.83200002 -0.40400001 150 0 0
1.3660001 -0.83099997 -0.405 150 0 0
1.368 -0.833 -0.40799999 150 0 0
1.363 -0.83099997 -0.40900001 150 0 0
1.3609999 -0.83099997 -0.41100001 150 0 0
1.362 -0.83200002 -0.414 150 0 0
1.3609999 -0.833 -0.41600001 150 0 0
1.359 -0.83200002 -0.41800001 150 0 0
1.358 -0.83200002 -0.41999999 150 0 0
1.358 -0.833 -0.42199999 150 0 0
1.3559999 -0.833 -0.42399999 150 0 0
1.3559999 -0.833 -0.426 121 0 0
1.357 -0.83399999 -0.42899999 150 0 0
1.354 -0.833 -0.43099999 150 0 0
1.349 -0.82999998 -0.43099999 145 0 0
1.353 -0.833 -0.435 133 0 0
1.353 -0.833 -0.43700001 150 0 0
1.352 -0.833 -0.43900001 139 0 0
1.352 -0.833 -0.44100001 150 0 0
1.35 -0.83200002 -0.44299999 150 0 0
1.35 -0.83200002 -0.44499999 150 0 0
1.351 -0.833 -0.447 150 0 0
1.35 -0.83200002 -0.449 150 0 0
1.351 -0.83200002 -0.45100001 150 0 0
1.35 -0.83099997 -0.45300001 150 0 0
1.349 -0.82999998 -0.45500001 150 0 0
1.35 -0.82999998 -0.45699999 150 0 0
1.349 -0.829 -0.458 150 0 0
1.349 -0.829 -0.46000001 4 0 0
1.348 -0.82800001 -0.46200001 149 0 0
1.349 -0.82700002 -0.46399999 150 0 0
1.348 -0.82599998 -0.465 150 0 0
1.351 -0.82700002 -0.46799999 150 0 0
1.351 -0.82599998 -0.47 150 0 0
1.351 -0.82499999 -0.472 150 0 0
1.351 -0.824 -0.47299999 150 0 0
1.351 -0.82300001 -0.47499999 150 0 0
1.351 -0.82200003 -0.477 150 0 0
1.354 -0.82300001 -0.479 150 0 0
1.357 -0.82300001 -0.48100001 150 0 0
1.357 -0.82200003 -0.48300001 150 0 0
1.3559999 -0.81999999 -0.484 150 0 0
1.359 -0.81999999 -0.486 150 0 0
1.36 -0.81900001 -0.48800001 150 0 0
1.36 -0.81800002 -0.49000001 150 0 0
1.363 -0.81800002 -0.49200001 150 0 0
1.364 -0.81599998 -0.493 150 0 0
1.364 -0.815 -0.49399999 150 0 0
1.365 -0.81400001 -0.49599999 150 0 0
1.3660001 -0.81199998 -0.49700001 150 0 0
1.369 -0.81199998 -0.49900001 150 0 0
1.372 -0.81199998 -0.50199997 150 0 0
1.373 -0.81 -0.50300002 150 0 0
1.375 -0.80900002 -0.50400001 150 0 0
1.376 -0.80800003 -0.50599998 150 0 0
1.377 -0.80599999 -0.50700003 150 0 0
1.378 -0.80400002 -0.50800002 150 0 0
1.382 -0.80400002 -0.50999999 150 0 0
1.386 -0.80400002 -0.51200002 150 0 0
1.387 -0.80199999 -0.51300001 150 0 0
1.391 -0.80199999 -0.51499999 150 0 0
1.392 -0.80000001 -0.51599997 150 0 0
1.393 -0.79799998 -0.51700002 150 0 0
1.397 -0.79799998 -0.51899999 150 0 0
1.4 -0.79699999 -0.52100003 150 0 0
1.401 -0.79500002 -0.52200001 150 0 0
1.404 -0.79299998 -0.523 150 0 0
1.405 -0.79100001 -0.52399999 150 0 0
1.4069999 -0.78899997 -0.52499998 150 0 0
1.416 -0.79100001 -0.528 150 3 0
1.414 -0.787 -0.528 150 0 0
1.415 -0.78399998 -0.528 150 0 0
1.424 -0.78600001 -0.53100002 150 3 0
1.425 -0.78399998 -0.53200001 150 0 0
1.4299999 -0.78299999 -0.53399998 150 0 0
1.433 -0.78100002 -0.53500003 150 0 0
1.434 -0.778 -0.53500003 150 0 0
1.4349999 -0.77600002 -0.53500003 150 0 0
1.4450001 -0.778 -0.53899997 150 3 0
1.45 -0.77700001 -0.54000002 150 0 0
1.451 -0.77399999 -0.54000002 150 0 0
1.4529999 -0.77100003 -0.54100001 150 0 0
1.457 -0.76899999 -0.542 150 0 0
1.461 -0.76800001 -0.54299998 150 0 0
1.467 -0.76800001 -0.54500002 150 0 0
1.469 -0.76499999 -0.54500002 150 0 0
1.474 -0.76300001 -0.546 150 0 0
1.478 -0.76200002 -0.54699999 150 0 0
1.482 -0.75999999 -0.54799998 150 0 0
1.485 -0.75800002 -0.54799998 150 0 0
1.49 -0.75599998 -0.54900002 150 0 0
1.494 -0.75400001 -0.55000001 150 0 0
1.495 -0.75099999 -0.54900002 150 0 0
1.5 -0.74900001 -0.55000001 150 0 0
1.508 -0.74900001 -0.55199999 150 0 0
1.5140001 -0.74800003 -0.55299997 150 0 0
1.516 -0.745 -0.55299997 150 0 0
1.52 -0.74199998 -0.55400002 150 0 0
1.526 -0.741 -0.55400002 150 0 0
1.53 -0.73900002 -0.55500001 150 0 0
1.534 -0.736 -0.55500001 150 0 0
1.5369999 -0.73299998 -0.55500001 146 0 0
1.541 -0.73100001 -0.55500001 150 0 0
1.541 -0.72600001 -0.55400002 4 0 0
1.5470001 -0.72500002 -0.55400002 5 0 0
1.552 -0.72299999 -0.55500001 3 0 0
1.5599999 -0.722 -0.55599999 4 0 0
1.564 -0.71899998 -0.55599999 149 0 0
1.566 -0.71600002 -0.55500001 5 0 0
1.573 -0.71499997 -0.55599999 5 0 0
1.579 -0.71200001 -0.55599999 2 0 0
1.5829999 -0.70999998 -0.55599999 150 0 0
1.587 -0.70700002 -0.55599999 150 16 0
1.598 -0.70700002 -0.55800003 150 0 0
1.602 -0.704 -0.55699998 150 16 0
1.602 -0.699 -0.55599999 150 0 0
1.613 -0.699 -0.55800003 148 0 0
1.617 -0.69599998 -0.55699998 143 0 0
1.623 -0.69400001 -0.55699998 150 0 0
1.63 -0.69199997 -0.55699998 150 0 0
1.6339999 -0.68900001 -0.55699998 150 0 0
1.6390001 -0.68699998 -0.55699998 150 16 0
1.647 -0.685 -0.55699998 134 0 0
1.656 -0.68400002 -0.55800003 150 0 0
1.66 -0.68000001 -0.55699998 140 0 0
1.671 -0.68000001 -0.55800003 133 0 0
1.678 -0.67799997 -0.55900002 115 0 0
1.678 -0.67299998 -0.55599999 127 0 0
1.683 -0.67000002 -0.55599999 128 0 0
1.691 -0.66799998 -0.55599999 80 0 0
1.6950001 -0.66500002 -0.55500001 94 0 0
1.7 -0.662 -0.55400002 110 0 0
1.7079999 -0.66000003 -0.55400002 133 0 0
1.711 -0.65600002 -0.55199999 102 0 0
1.722 -0.65499997 -0.55299997 139 0 0
1.726 -0.65100002 -0.55199999 2 0 0
1.734 -0.64899999 -0.55199999 2 0 0
1.74 -0.64600003 -0.551 2 0 0
1.75 -0.64499998 -0.551 2 0 0
1.7539999 -0.64099997 -0.55000001 2 0 0
1.757 -0.63700002 -0.54799998 2 0 0
1.766 -0.63499999 -0.54799998 150 16 0
1.77 -0.63099998 -0.546 2 0 0
1.778 -0.62900001 -0.546 150 16 0
1.784 -0.62599999 -0.54400003 2 0 0
1.795 -0.62400001 -0.54500002 150 16 0
1.803 -0.62199998 -0.54400003 2 0 0
1.808 -0.61799997 -0.54299998 150 16 0
1.817 -0.616 -0.542 150 16 0
1.823 -0.61299998 -0.54100001 150 16 0
1.827 -0.60900003 -0.53899997 150 16 0
1.8380001 -0.60699999 -0.53899997 150 16 0
1.8430001 -0.60399997 -0.537 150 16 0
1.854 -0.602 -0.537 150 16 0
1.859 -0.59799999 -0.53500003 150 16 0
1.865 -0.59500003 -0.53299999 150 16 0
1.875 -0.59200001 -0.53299999 150 16 0
1.8789999 -0.588 -0.53100002 150 16 0
1.886 -0.58499998 -0.52899998 150 16 0
1.892 -0.58099997 -0.52700001 150 16 0
1.8940001 -0.57700002 -0.52399999 150 16 0
1.913 -0.57700002 -0.52600002 150 19 0
1.92 -0.574 -0.52399999 150 16 0
1.925 -0.56999999 -0.52200001 150 16 0
1.937 -0.56800002 -0.52100003 150 16 0
1.941 -0.56300002 -0.51899999 150 16 0
1.954 -0.56199998 -0.51899999 150 16 0
1.959 -0.55699998 -0.51599997 147 16 0
1.966 -0.55400002 -0.514 150 16 0
1.975 -0.551 -0.51300001 150 16 0
1.9809999 -0.54699999 -0.50999999 150 16 0
1.992 -0.54500002 -0.509 150 16 0
2.0020001 -0.542 -0.50800002 127 16 0
2.0079999 -0.53799999 -0.50599998 115 16 0
2.0150001 -0.53399998 -0.50300002 121 16 0
2.029 -0.53200001 -0.50300002 123 16 0
2.036 -0.52899998 -0.5 110 16 0
2.046 -0.52499998 -0.49900001 106 16 0
2.053 -0.52200001 -0.49599999 99 16 0
2.0610001 -0.51800001 -0.49399999 107 16 0
2.0669999 -0.514 -0.491 90 16 0
2.0739999 -0.50999999 -0.48899999 100 16 0
2.0880001 -0.50800002 -0.48800001 93 16 0
2.0969999 -0.50400001 -0.48500001 94 16 0
2.102 -0.5 -0.48199999 98 16 0
2.1110001 -0.49599999 -0.47999999 93 16 0
2.1289999 -0.495 -0.47999999 90 16 0
2.1400001 -0.49200001 -0.47799999 95 16 0
2.1470001 -0.48699999 -0.47499999 84 16 0
2.1600001 -0.48500001 -0.47299999 83 16 0
2.1630001 -0.479 -0.46900001 85 16 0
2.1730001 -0.47600001 -0.46700001 78 16 0
2.1800001 -0.472 -0.46399999 78 16 0
2.194 -0.46900001 -0.46200001 79 16 0
2.2019999 -0.465 -0.45899999 71 16 0
2.21 -0.461 -0.456 75 16 0
2.2160001 -0.456 -0.45300001 67 16 0
2.2279999 -0.45300001 -0.44999999 64 16 0
2.2409999 -0.44999999 -0.44800001 69 16 0
2.2460001 -0.44499999 -0.44400001 68 16 0
2.2590001 -0.442 -0.442 70 16 0
2.2690001 -0.43799999 -0.43900001 67 16 0
2.279 -0.43399999 -0.43599999 68 16 0
2.286 -0.43000001 -0.433 69 16 0
2.3010001 -0.426 -0.43000001 64 16 0
2.309 -0.42199999 -0.42699999 67 16 0
2.325 -0.419 -0.42500001 68 16 0
2.3329999 -0.414 -0.421 52 16 0
2.3410001 -0.41 -0.417 49 16 0
2.352 -0.40599999 -0.414 64 16 0
2.3610001 -0.40200001 -0.41 63 16 0
2.3740001 -0.398 -0.40700001 56 16 0
2.385 -0.39399999 -0.40400001 54 16 0
2.401 -0.38999999 -0.40099999 57 16 0
2.4089999 -0.38600001 -0.39700001 59 16 0
2.4170001 -0.38100001 -0.39300001 59 16 0
2.431 -0.377 -0.38999999 55 16 0
2.4400001 -0.373 -0.38600001 42 16 0
2.4489999 -0.368 -0.382 42 16 0
2.464 -0.36399999 -0.37900001 39 16 0
2.4719999 -0.359 -0.375 45 16 0
2.4860001 -0.35499999 -0.37099999 34 16 0
2.494 -0.34999999 -0.36700001 35 16 0
2.51 -0.347 -0.36399999 33 16 0
2.5190001 -0.34200001 -0.359 32 16 0
2.529 -0.33700001 -0.35499999 33 16 0
2.5380001 -0.33199999 -0.34999999 33 16 0
2.556 -0.32800001 -0.347 32 16 0
2.5669999 -0.324 -0.34299999 32 16 0
2.5799999 -0.31900001 -0.33899999 33 16 0
2.589 -0.31400001 -0.33399999 32 16 0
2.6029999 -0.31 -0.33000001 33 16 0
2.6140001 -0.30500001 -0.32499999 35 16 0
2.6259999 -0.30000001 -0.32100001 33 16 0
2.638 -0.29499999 -0.31600001 31 16 0
2.6500001 -0.28999999 -0.31099999 32 16 0
2.6670001 -0.28600001 -0.30700001 31 16 0
2.6800001 -0.28099999 -0.30199999 33 16 0
2.6949999 -0.27599999 -0.29800001 32 16 0
2.707 -0.271 -0.29300001 31 16 0
2.7160001 -0.266 -0.28799999 30 16 0
2.7249999 -0.25999999 -0.28200001 31 16 0
2.734 -0.255 -0.27700001 30 16 0
2.753 -0.25 -0.27200001 29 16 0
2.767 -0.245 -0.26699999 31 16 0
2.779 -0.23999999 -0.26199999 30 16 0
2.7939999 -0.235 -0.257 28 16 0
2.806 -0.229 -0.252 31 16 0
2.8210001 -0.22400001 -0.24600001 29 16 0
2.836 -0.219 -0.241 28 16 0
2.849 -0.213 -0.235 29 16 0
2.8659999 -0.208 -0.23 29 16 0
2.8789999 -0.20299999 -0.22400001 29 16 0
2.891 -0.197 -0.21799999 29 16 0
2.9070001 -0.191 -0.213 29 16 0
2.9230001 -0.186 -0.207 29 16 0
2.9400001 -0.18000001 -0.20100001 28 16 0
2.9560001 -0.175 -0.19499999 28 16 0
2.97 -0.169 -0.189 27 16 0
2.983 -0.163 -0.183 28 16 0
2.9979999 -0.15700001 -0.177 28 16 0
3.017 -0.152 -0.171 29 16 0
3.039 -0.146 -0.16500001 30 16 0
3.046 -0.14 -0.15800001 28 16 0
3.069 -0.134 -0.152 28 16 0
3.085 -0.12800001 -0.145 28 16 0
3.099 -0.122 -0.138 27 16 0
3.1170001 -0.116 -0.131 27 16 0
3.135 -0.109 -0.125 28 16 0
3.1500001 -0.103 -0.118 28 16 0
3.165 -0.097000003 -0.111 29 16 0
3.1860001 -0.090999998 -0.104 29 16 0
3.204 -0.083999999 -0.097000003 29 16 0
3.2190001 -0.078000002 -0.089000002 33 16 0
3.2379999 -0.071000002 -0.082000002 78 16 0
3.2460001 -0.064000003 -0.074000001 150 16 0
3.243 -0.057 -0.066 150 16 0
3.244 -0.050000001 -0.057999998 150 16 0
3.2420001 -0.043000001 -0.050000001 150 16 0
3.243 -0.037 -0.043000001 150 16 0
3.243 -0.029999999 -0.035 150 16 0
3.24 -0.023 -0.027000001 150 16 0
3.2379999 -0.016000001 -0.018999999 42 16 0
3.247 -0.0089999996 -0.011 22 16 0
3.2690001 -0.0020000001 -0.003 18 16 0
3.286 0.0040000002 0.0040000002 19 16 0
3.309 0.011 0.013 20 16 0
3.323 0.017000001 0.021 21 16 0
3.346 0.025 0.028999999 35 16 0
3.346 0.032000002 0.037 92 16 0
3.3510001 0.039000001 0.046 62 16 0
3.3469999 0.045000002 0.054000001 13 16 0
3.296 0.052000001 0.061000001 8 18 0
3.302 0.059 0.07 16 16 0
3.313 0.066 0.078000002 9 16 0
3.3429999 0.072999999 0.086999997 22 16 0
3.326 0.079999998 0.094999999 35 16 0
3.306 0.086000003 0.103 33 16 0
3.2869999 0.092 0.111 32 16 0
3.2709999 0.097999997 0.118 33 16 0
3.25 0.104 0.126 45 16 0
3.243 0.111 0.134 144 16 0
3.2409999 0.117 0.142 150 16 0
3.2479999 0.124 0.15000001 150 16 0
3.244 0.13 0.15800001 150 16 0
3.2390001 0.13699999 0.16599999 150 16 0
3.2449999 0.14399999 0.175 150 16 0
3.2460001 0.15000001 0.183 150 16 0
3.247 0.15700001 0.192 150 16 0
3.2479999 0.163 0.2 150 16 0
3.2060001 0.168 0.206 150 18 0
3.1140001 0.169 0.208 41 19 0
3.0220001 0.17 0.20900001 23 19 0
3.075 0.17900001 0.221 91 16 0
3.1830001 0.192 0.237 150 16 0
3.247 0.20200001 0.25 150 16 0
3.2479999 0.20900001 0.259 150 16 0
3.2449999 0.215 0.26699999 150 16 0
3.25 0.221 0.27599999 150 16 0
3.2490001 0.228 0.28400001 150 16 0
3.2449999 0.234 0.292 150 16 0
3.2479999 0.23999999 0.301 150 16 0
3.2460001 0.24699999 0.30899999 150 16 0
3.2449999 0.25299999 0.31799999 150 16 0
3.244 0.259 0.32600001 150 16 0
3.247 0.266 0.33500001 150 16 0
3.2479999 0.27200001 0.34400001 150 16 0
3.2509999 0.278 0.352 150 16 0
3.25 0.285 0.361 150 16 0
3.2520001 0.29100001 0.37 150 16 0
3.247 0.29699999 0.37799999 150 16 0
3.2479999 0.303 0.38699999 150 16 0
3.2479999 0.30899999 0.39500001 150 16 0
3.2420001 0.315 0.403 53 16 0
3.2190001 0.31900001 0.40900001 45 16 0
3.2049999 0.324 0.41600001 43 16 0
3.1889999 0.32800001 0.42199999 44 16 0
3.177 0.333 0.42899999 43 16 0
3.161 0.33700001 0.43599999 44 16 0
3.1459999 0.34099999 0.442 41 16 0
3.135 0.34599999 0.449 44 16 0
3.118 0.34999999 0.45500001 44 16 0
3.102 0.354 0.461 41 16 0
3.089 0.35800001 0.46799999 44 16 0
3.069 0.36199999 0.47299999 41 16 0
3.0539999 0.366 0.479 41 16 0
3.05 0.37099999 0.48699999 42 16 0
3.029 0.37400001 0.49200001 43 16 0
3.0139999 0.37799999 0.498 42 16 0
3.0009999 0.38100001 0.50400001 46 16 0
2.9890001 0.38499999 0.50999999 44 16 0
2.973 0.389 0.51599997 42 16 0
2.9630001 0.39300001 0.52200001 43 16 0
2.944 0.396 0.52700001 43 16 0
2.938 0.40000001 0.53399998 43 16 0
2.9170001 0.403 0.53899997 52 16 0
2.905 0.40599999 0.54500002 64 16 0
2.891 0.40900001 0.55000001 68 16 0
2.8789999 0.41299999 0.55599999 60 16 0
2.8640001 0.41600001 0.56099999 66 16 0
2.8529999 0.419 0.56699997 51 16 0
2.8440001 0.42300001 0.57300001 58 16 0
2.8299999 0.426 0.57800001 65 16 0
2.8169999 0.42899999 0.58399999 74 16 0
2.8050001 0.43200001 0.58899999 78 16 0
2.7909999 0.435 0.59399998 77 16 0
2.779 0.43799999 0.60000002 68 16 0
2.767 0.44100001 0.60500002 75 16 0
2.7550001 0.44299999 0.61000001 76 16 0
2.7409999 0.44600001 0.61500001 73 16 0
2.7309999 0.449 0.62099999 73 16 0
2.7219999 0.45199999 0.62699997 80 16 0
2.7130001 0.45500001 0.63200003 90 16 0
2.701 0.458 0.63700002 91 16 0
2.6849999 0.46000001 0.64099997 87 16 0
2.6760001 0.463 0.64700001 92 16 0
2.664 0.465 0.65200001 87 16 0
2.648 0.46700001 0.65600002 85 16 0
2.6400001 0.47 0.662 92 16 0
2.6300001 0.472 0.667 88 16 0
2.6229999 0.47499999 0.67299998 95 16 0
2.609 0.477 0.67699999 96 16 0
2.602 0.47999999 0.68300003 91 16 0
2.589 0.48199999 0.68699998 86 16 0
2.5780001 0.484 0.69199997 94 16 0
2.5710001 0.48699999 0.69800001 107 16 0
2.5550001 0.48800001 0.70099998 102 16 0
2.5409999 0.49000001 0.70499998 100 16 0
2.5350001 0.49200001 0.71100003 104 16 0
2.5239999 0.49399999 0.71499997 104 16 0
2.5090001 0.495 0.71899998 115 16 0
2.5020001 0.498 0.72399998 127 16 0
2.4879999 0.49900001 0.72799999 123 16 0
2.48 0.50099999 0.73299998 120 16 0
2.473 0.50400001 0.73799998 130 16 0
2.461 0.505 0.74199998 125 16 0
2.454 0.50700003 0.74800003 124 16 0
2.4449999 0.509 0.75199997 126 16 0
2.4319999 0.50999999 0.75599998 130 16 0
2.421 0.51099998 0.75999999 134 16 0
2.4119999 0.51300001 0.764 150 16 0
2.4030001 0.51499999 0.76899999 150 16 0
2.3900001 0.51599997 0.77200001 150 16 0
2.3789999 0.51700002 0.77600002 150 16 0
2.3710001 0.51800001 0.77999997 150 16 0
2.3610001 0.51899999 0.78399998 150 16 0
2.352 0.52100003 0.78899997 150 16 0
2.3440001 0.52200001 0.79299998 150 16 0
2.335 0.52399999 0.79699999 150 16 0
2.3239999 0.52399999 0.801 150 16 0
2.319 0.52700001 0.80699998 150 16 0
2.3110001 0.528 0.81099999 150 16 0
2.303 0.52899998 0.815 150 16 0
2.29 0.52899998 0.81800002 150 16 0
2.2839999 0.53100002 0.82300001 150 16 0
2.2690001 0.52999997 0.824 150 16 0
2.2609999 0.53200001 0.829 150 16 0
2.2579999 0.53399998 0.83499998 150 16 0
2.2460001 0.53399998 0.83700001 150 16 0
2.234 0.53399998 0.83999997 150 16 0
2.224 0.53399998 0.84299999 150 16 0
2.2219999 0.537 0.84899998 150 16 0
2.21 0.53600001 0.852 150 16 0
2.2060001 0.53799999 0.85699999 150 16 0
2.1919999 0.537 0.85900003 150 16 0
2.1860001 0.53799999 0.86299998 150 16 0
2.178 0.53899997 0.86699998 148 16 0
2.1670001 0.53899997 0.86900002 150 16 0
2.1589999 0.53899997 0.87300003 150 16 0
2.1530001 0.54000002 0.87800002 150 16 0
2.1429999 0.54000002 0.88 150 16 0
2.1340001 0.54000002 0.88300002 150 16 0
2.1270001 0.54100001 0.88700002 150 16 0
2.122 0.542 0.89200002 150 16 0
2.1140001 0.542 0.89499998 150 16 0
2.098 0.54000002 0.89499998 150 16 0
2.0929999 0.54100001 0.89899999 150 16 0
2.086 0.54100001 0.903 150 16 0
2.0780001 0.54100001 0.90600002 150 16 0
2.073 0.542 0.91000003 150 16 0
2.0639999 0.542 0.91299999 150 16 0
2.059 0.542 0.917 150 16 0
2.0480001 0.54100001 0.91900003 150 16 0
2.0420001 0.542 0.92299998 150 16 0
2.0339999 0.54100001 0.92500001 150 16 0
2.0250001 0.54100001 0.92799997 150 16 0
2.0209999 0.54100001 0.93199998 150 16 0
2.0109999 0.54000002 0.93400002 150 16 0
2.0050001 0.54000002 0.93699998 150 16 0
1.9960001 0.54000002 0.93900001 150 16 0
1.9910001 0.54000002 0.94300002 150 16 0
1.988 0.54100001 0.94800001 150 16 0
1.978 0.53899997 0.949 150 16 0
1.972 0.53899997 0.95200002 150 16 0
1.9680001 0.53899997 0.95700002 150 16 0
1.96 0.53799999 0.95899999 150 16 0
1.956 0.53899997 0.963 150 16 0
1.946 0.537 0.96399999 150 16 0
1.9349999 0.53500003 0.96399999 150 16 0
1.926 0.53399998 0.96600002 150 16 0
1.923 0.53399998 0.97000003 150 16 0
1.916 0.53299999 0.972 150 16 0
1.913 0.53299999 0.977 150 16 0
1.9069999 0.53299999 0.97899997 150 16 0
1.9 0.53200001 0.98100001 150 16 0
1.897 0.53200001 0.98500001 150 16 0
1.887 0.52999997 0.986 150 16 0
1.88 0.52899998 0.98799998 150 16 0
1.875 0.528 0.99000001 150 16 0
1.8710001 0.52700001 0.99400002 150 16 0
1.868 0.52700001 0.99800003 150 16 0
1.8559999 0.52499998 0.99699998 150 16 0
1.853 0.52399999 1 150 16 0
1.849 0.52399999 1.0039999 150 16 0
1.847 0.523 1.008 150 16 0
1.8380001 0.52100003 1.008 150 16 0
1.834 0.52100003 1.011 150 16 0
1.831 0.51999998 1.0140001 150 16 0
1.824 0.51800001 1.015 150 16 0
1.819 0.51700002 1.017 150 16 0
1.813 0.51499999 1.0190001 150 16 0
1.809 0.514 1.022 150 16 0
1.806 0.514 1.025 150 16 0
1.8 0.51200002 1.026 150 16 0
1.794 0.50999999 1.027 150 16 0
1.7920001 0.50999999 1.031 150 16 0
1.783 0.50700003 1.03 150 16 0
1.779 0.50599998 1.0319999 150 16 0
1.776 0.505 1.035 150 16 0
1.766 0.50099999 1.033 150 16 0
1.7690001 0.50199997 1.04 150 16 0
1.762 0.5 1.04 150 16 0
1.76 0.498 1.043 150 16 0
1.758 0.498 1.046 150 16 0
1.751 0.495 1.046 150 16 0
1.747 0.49399999 1.048 150 16 0
1.743 0.49200001 1.049 150 16 0
1.743 0.491 1.053 150 16 0
1.739 0.48899999 1.0549999 150 16 0
1.733 0.48699999 1.054 150 16 0
1.728 0.48500001 1.0549999 150 16 0
1.729 0.484 1.059 150 16 0
1.721 0.48100001 1.058 150 16 0
1.719 0.47999999 1.0599999 150 16 0
1.714 0.477 1.0599999 150 16 0
1.714 0.47600001 1.064 150 16 0
1.7079999 0.47400001 1.063 150 16 0
1.707 0.472 1.066 150 16 0
1.706 0.47099999 1.068 150 16 0
1.705 0.46900001 1.071 150 16 0
1.689 0.46399999 1.064 150 17 0
1.687 0.46200001 1.0650001 150 16 0
1.686 0.461 1.068 150 16 0
1.682 0.458 1.068 150 16 0
1.683 0.45699999 1.071 150 16 0
1.679 0.454 1.071 150 16 0
1.675 0.45199999 1.071 150 16 0
1.677 0.45100001 1.074 150 16 0
1.674 0.449 1.075 150 16 0
1.673 0.447 1.077 150 16 0
1.6720001 0.44499999 1.0779999 150 16 0
1.6720001 0.44299999 1.08 150 16 0
1.671 0.44100001 1.081 150 16 0
1.666 0.43799999 1.08 150 16 0
1.6619999 0.435 1.079 150 16 0
1.6619999 0.433 1.081 150 16 0
1.661 0.43200001 1.082 150 16 0
1.66 0.42899999 1.0829999 150 16 0
1.66 0.42699999 1.084 150 16 0
1.6569999 0.42500001 1.084 150 16 0
1.6569999 0.42300001 1.085 150 16 0
1.658 0.421 1.087 150 16 0
1.656 0.41800001 1.087 150 16 0
1.656 0.41600001 1.0880001 150 16 0
1.656 0.414 1.089 150 16 0
1.656 0.412 1.09 150 16 0
1.652 0.40900001 1.0880001 150 16 0
1.652 0.40700001 1.089 150 16 0
1.652 0.40400001 1.089 150 16 0
1.653 0.40200001 1.09 150 16 0
1.653 0.40000001 1.091 150 16 0
1.648 0.396 1.0880001 150 19 0
1.646 0.39300001 1.087 150 16 0
1.653 0.39300001 1.092 150 19 0
1.646 0.389 1.0880001 150 16 0
1.648 0.38699999 1.089 150 16 0
1.652 0.38499999 1.091 150 16 0
1.648 0.382 1.0880001 150 16 0
1.649 0.37900001 1.089 150 16 0
1.649 0.377 1.089 150 16 0
1.65 0.37400001 1.089 150 16 0
1.65 0.37200001 1.0880001 150 16 0
1.651 0.36899999 1.0880001 150 16 0
1.65 0.36700001 1.087 150 16 0
1.652 0.36399999 1.0880001 150 16 0
1.654 0.36199999 1.0880001 150 16 0
1.653 0.359 1.087 150 16 0
1.654 0.35699999 1.087 150 16 0
1.655 0.354 1.086 150 16 0
1.659 0.352 1.0880001 150 16 0
1.658 0.34900001 1.086 150 16 0
1.66 0.347 1.085 150 16 0
1.66 0.34400001 1.084 150 16 0
1.659 0.34099999 1.082 150 16 0
1.6619999 0.33899999 1.082 150 16 0
1.663 0.336 1.082 150 16 0
1.6670001 0.33399999 1.082 150 16 0
1.666 0.331 1.08 150 16 0
1.669 0.329 1.08 150 16 0
1.675 0.32699999 1.082 150 16 0
1.6720001 0.324 1.0779999 150 16 0
1.6799999 0.322 1.081 150 16 0
1.6799999 0.31900001 1.0779999 150 16 0
1.681 0.317 1.077 150 16 0
1.682 0.31400001 1.075 150 16 0
1.6849999 0.31200001 1.075 150 16 0
1.687 0.30899999 1.073 150 16 0
1.691 0.30700001 1.073 150 16 0
1.693 0.30399999 1.072 150 16 0
1.698 0.30199999 1.073 150 16 0
1.7 0.29899999 1.071 150 16 0
1.702 0.29699999 1.069 150 16 0
1.7029999 0.294 1.067 150 16 0
1.707 0.292 1.066 150 16 0
1.7079999 0.289 1.064 150 16 0
1.71 0.28600001 1.062 150 16 0
1.712 0.28400001 1.0599999 150 16 0
1.72 0.28200001 1.061 150 16 0
1.723 0.27900001 1.0599999 150 16 0
1.721 0.27599999 1.0549999 150 16 0
1.727 0.27399999 1.0549999 150 16 0
1.73 0.27200001 1.054 150 16 0
1.732 0.26899999 1.051 150 16 0
1.735 0.266 1.049 150 16 0
1.737 0.264 1.0470001 150 16 0
1.7410001 0.26100001 1.045 150 16 0
1.743 0.259 1.043 150 16 0
1.747 0.25600001 1.041 150 16 0
1.75 0.25400001 1.039 150 16 0
1.752 0.25099999 1.036 150 16 0
1.7690001 0.25099999 1.0420001 150 18 0
1.771 0.248 1.039 150 16 0
1.777 0.24600001 1.038 150 16 0
1.781 0.244 1.036 150 16 0
1.785 0.241 1.034 150 16 0
1.789 0.23899999 1.0319999 150 16 0
1.796 0.237 1.031 150 16 0
1.801 0.235 1.03 150 16 0
1.806 0.23199999 1.028 150 16 0
1.809 0.23 1.025 150 16 0
1.817 0.228 1.025 150 16 0
1.8200001 0.22499999 1.022 150 16 0
1.826 0.223 1.02 150 16 0
1.829 0.221 1.017 150 16 0
1.829 0.21799999 1.012 150 16 0
1.84 0.21600001 1.013 150 16 0
1.842 0.214 1.0089999 150 16 0
1.851 0.212 1.0089999 150 16 0
1.853 0.20999999 1.005 150 16 0
1.859 0.207 1.003 150 16 0
1.869 0.206 1.003 150 16 0
1.872 0.20299999 0.99900001 150 16 0
1.876 0.20100001 0.99599999 150 16 0
1.89 0.2 0.99800003 150 16 0
1.8940001 0.197 0.995 150 16 0
1.896 0.19499999 0.99000001 150 16 0
1.902 0.193 0.98699999 150 16 0
1.905 0.19 0.98400003 150 16 0
1.915 0.189 0.98299998 150 16 0
1.921 0.186 0.98000002 150 16 0
1.923 0.184 0.97600001 150 16 0
1.934 0.182 0.97500002 150 16 0
1.939 0.18000001 0.972 150 16 0
1.951 0.17900001 0.972 150 16 0
1.954 0.176 0.96799999 150 16 0
1.96 0.17399999 0.96499997 150 16 0
1.9680001 0.17299999 0.963 150 16 0
1.97 0.17 0.958 150 16 0
1.977 0.168 0.95499998 150 16 0
1.983 0.16599999 0.95200002 150 16 0
1.993 0.16500001 0.94999999 150 16 0
1.9960001 0.162 0.94499999 150 16 0
2.013 0.161 0.94700003 150 16 0
2.0150001 0.15899999 0.94199997 150 16 0
2.026 0.15700001 0.94099998 150 16 0
2.03 0.155 0.93599999 150 16 0
2.039 0.153 0.93400002 150 16 0
2.049 0.152 0.93199998 145 16 0
2.0539999 0.15000001 0.92799997 150 16 0
2.0610001 0.148 0.92400002 150 16 0
2.0680001 0.146 0.921 150 16 0
2.073 0.14399999 0.917 150 16 0
2.085 0.142 0.91500002 148 16 0
2.0929999 0.141 0.912 150 16 0
2.099 0.139 0.90799999 143 16 0
2.108 0.13699999 0.90499997 137 16 0
2.1140001 0.13500001 0.90100002 138 16 0
2.1229999 0.133 0.898 148 16 0
2.131 0.132 0.89399999 138 16 0
2.138 0.13 0.88999999 135 16 0
2.1429999 0.12800001 0.88499999 138 16 0
2.154 0.126 0.88300002 138 16 0
2.164 0.125 0.88 140 16 0
2.1670001 0.123 0.87400001 141 16 0
2.177 0.121 0.87099999 142 16 0
2.1889999 0.12 0.86900002 121 16 0
2.1989999 0.118 0.86500001 143 16 0
2.21 0.116 0.86199999 133 16 0
2.2119999 0.115 0.85600001 138 16 0
2.2260001 0.113 0.85399997 135 16 0
2.233 0.111 0.84899998 120 16 0
2.237 0.11 0.84399998 119 16 0
2.2520001 0.108 0.84200001 147 16 0
2.263 0.107 0.838 136 16 0
2.2679999 0.105 0.833 131 16 0
2.2820001 0.104 0.82999998 132 16 0
2.2920001 0.102 0.82700002 100 16 0
2.299 0.1 0.82200003 92 16 0
2.3080001 0.098999999 0.81699997 95 16 0
2.3210001 0.097999997 0.81400001 96 16 0
2.3280001 0.096000001 0.80900002 94 16 0
2.339 0.093999997 0.80500001 90 16 0
2.3510001 0.093000002 0.801 97 16 0
2.358 0.092 0.796 100 16 0
2.369 0.090000004 0.792 110 16 0
2.3740001 0.088 0.78600001 92 16 0
2.3859999 0.086999997 0.78200001 88 16 0
2.398 0.086000003 0.778 99 16 0
2.404 0.083999999 0.77200001 86 16 0
2.414 0.082999997 0.76700002 82 16 0
2.428 0.081 0.76300001 87 16 0
2.437 0.079999998 0.75800002 84 16 0
2.4449999 0.079000004 0.75199997 93 16 0
2.4579999 0.077 0.74800003 96 16 0
2.4690001 0.075999998 0.74299997 94 16 0
2.48 0.075000003 0.73799998 84 16 0
2.4909999 0.072999999 0.73299998 93 16 0
2.5039999 0.071999997 0.72899997 80 16 0
2.513 0.071000002 0.72399998 75 16 0
2.5280001 0.068999998 0.71899998 75 16 0
2.5380001 0.068000004 0.71399999 77 16 0
2.5480001 0.067000002 0.708 80 16 0
2.563 0.066 0.704 74 16 0
2.572 0.064000003 0.69800001 71 16 0
2.586 0.063000001 0.69300002 66 16 0
2.5969999 0.061999999 0.68800002 73 16 0
2.615 0.061000001 0.68400002 69 16 0
2.6229999 0.059999999 0.67699999 72 16 0
2.6370001 0.057999998 0.67199999 66 16 0
2.645 0.057 0.66500002 70 16 0
2.6619999 0.056000002 0.66100001 67 16 0
2.671 0.055 0.65399998 81 16 0
2.6830001 0.054000001 0.648 65 16 0
2.6919999 0.052000001 0.64099997 65 16 0
2.7079999 0.050999999 0.63599998 59 16 0
2.7249999 0.050000001 0.63099998 59 16 0
2.733 0.048999999 0.62400001 58 16 0
2.753 0.048 0.62 52 16 0
2.7650001 0.046999998 0.61299998 50 16 0
2.7739999 0.046 0.60600001 43 16 0
2.7920001 0.045000002 0.60100001 34 16 0
2.8039999 0.044 0.59399998 33 16 0
2.8150001 0.041999999 0.588 33 16 0
2.8329999 0.041000001 0.58200002 38 16 0
2.845 0.039999999 0.57499999 39 16 0
2.852 0.039000001 0.56699997 34 16 0
2.872 0.037999999 0.56199998 33 16 0
2.885 0.037 0.55500001 34 16 0
2.898 0.035999998 0.54799998 32 16 0
2.9200001 0.035 0.542 30 16 0
2.938 0.035 0.53600001 32 16 0
2.951 0.034000002 0.52899998 31 16 0
2.9719999 0.033 0.523 31 16 0
2.9860001 0.032000002 0.51499999 33 16 0
2.9949999 0.030999999 0.50700003 33 16 0
3.017 0.029999999 0.50099999 33 16 0
3.0309999 0.028999999 0.49399999 33 16 0
3.046 0.028000001 0.486 33 16 0
3.0650001 0.027000001 0.479 34 16 0
3.0799999 0.026000001 0.47099999 33 16 0
3.0910001 0.025 0.463 33 16 0
3.118 0.025 0.45699999 32 16 0
3.1400001 0.024 0.44999999 34 16 0
3.1530001 0.023 0.44100001 34 16 0
3.175 0.022 0.43399999 34 16 0
3.198 0.021 0.42699999 35 16 0
3.2060001 0.021 0.417 34 16 0
3.2309999 0.02 0.41 34 16 0
3.2520001 0.018999999 0.40200001 31 16 0
3.2720001 0.017999999 0.39399999 30 16 0
3.2839999 0.017999999 0.38499999 30 16 0
3.3069999 0.017000001 0.37599999 30 16 0
3.3210001 0.016000001 0.36700001 30 16 0
3.346 0.015 0.359 31 16 0
3.3659999 0.015 0.34999999 39 16 0
3.3710001 0.014 0.34 120 16 0
3.3699999 0.013 0.329 109 16 0
3.3629999 0.012 0.317 95 16 0
3.3629999 0.012 0.30599999 98 16 0
3.3599999 0.011 0.29499999 96 16 0
3.3559999 0.0099999998 0.28400001 103 16 0
3.3429999 0.0099999998 0.27200001 109 16 0
3.3440001 0.0089999996 0.26100001 109 16 0
3.3380001 0.0080000004 0.25 116 16 0
3.3340001 0.0080000004 0.23899999 108 16 0
3.3299999 0.0070000002 0.228 108 16 0
3.326 0.0070000002 0.21600001 113 16 0
3.313 0.0060000001 0.205 112 16 0
3.309 0.0060000001 0.19400001 115 16 0
3.3039999 0.0049999999 0.183 102 16 0
3.302 0.0049999999 0.17200001 113 16 0
3.299 0.0040000002 0.161 123 16 0
3.2969999 0.0040000002 0.15099999 117 16 0
3.29 0.003 0.139 137 16 0
3.29 0.003 0.12899999 124 16 0
3.2869999 0.0020000001 0.118 103 16 0
3.2980001 0.0020000001 0.108 35 16 0
3.3139999 0.0020000001 0.097999997 29 16 0
3.3199999 0.001 0.086999997 19 16 0
3.3139999 0.001 0.075999998 17 16 0
3.3139999 0.001 0.064999998 17 16 0
3.3039999 0.001 0.055 17 16 0
3.302 0 0.044 16 16 0
3.299 0 0.033 16 16 0
3.293 0 0.023 16 16 0
3.286 0 0.012 16 16 0
3.283 0 0.001 16 16 0
3.2750001 0 -0.0080000004 16 16 0
3.2750001 0 -0.018999999 16 16 0
3.2690001 0 -0.028999999 16 16 0
3.2639999 0 -0.039999999 16 16 0
3.2550001 0 -0.050999999 16 16 0
3.257 0 -0.061000001 16 16 0
3.2550001 0 -0.071999997 16 16 0
3.244 0 -0.082000002 15 16 0
3.24 0 -0.092 16 16 0
3.24 0 -0.103 16 16 0
3.234 0 -0.113 16 16 0
3.2290001 0 -0.123 16 16 0
3.2260001 0 -0.134 16 16 0
3.2190001 0 -0.14399999 16 16 0
3.2190001 0 -0.154 16 16 0
3.214 0 -0.16500001 16 16 0
3.21 0 -0.175 16 16 0
3.207 0 -0.185 16 16 0
3.2049999 0 -0.19499999 16 16 0
3.197 0 -0.205 16 16 0
3.1960001 0 -0.21600001 16 16 0
3.1930001 0 -0.226 16 16 0
3.1849999 0.001 -0.235 15 16 0
3.184 0.001 -0.24600001 15 16 0
3.1819999 0.001 -0.25600001 16 16 0
3.1700001 0.001 -0.26499999 16 16 0
3.174 0.0020000001 -0.27599999 16 16 0
3.1670001 0.0020000001 -0.28600001 16 16 0
3.1659999 0.0020000001 -0.296 16 16 0
3.165 0.003 -0.30599999 16 16 0
3.1659999 0.003 -0.31600001 16 16 0
3.1559999 0.0040000002 -0.32499999 16 16 0
3.1530001 0.0040000002 -0.33500001 17 16 0
3.154 0.0040000002 -0.34599999 17 16 0
3.145 0.0049999999 -0.35499999 17 16 0
3.1470001 0.0049999999 -0.366 17 16 0
3.1440001 0.0060000001 -0.37599999 17 16 0
3.138 0.0060000001 -0.38499999 18 16 0
3.142 0.0070000002 -0.396 18 16 0
3.1370001 0.0080000004 -0.40599999 18 16 0
3.1289999 0.0080000004 -0.41499999 19 16 0
3.128 0.0089999996 -0.42500001 19 16 0
3.1289999 0.0089999996 -0.435 19 16 0
3.1270001 0.0099999998 -0.44499999 20 16 0
3.1240001 0.011 -0.45500001 21 16 0
3.1229999 0.011 -0.465 23 16 0
3.1210001 0.012 -0.47499999 25 16 0
3.115 0.013 -0.484 27 16 0
3.1140001 0.013 -0.49399999 29 16 0
3.1099999 0.014 -0.50400001 31 16 0
3.1059999 0.015 -0.51300001 33 16 0
3.102 0.016000001 -0.523 36 16 0
3.099 0.016000001 -0.53299999 40 16 0
3.085 0.017000001 -0.54000002 45 16 0
3.0869999 0.017999999 -0.551 46 16 0
3.0799999 0.018999999 -0.56 49 16 0
3.0769999 0.02 -0.56900001 56 16 0
3.073 0.021 -0.579 54 16 0
3.0710001 0.022 -0.588 68 16 0
3.063 0.022 -0.597 75 16 0
3.059 0.023 -0.60600001 71 16 0
3.0510001 0.024 -0.61500001 75 16 0
3.0420001 0.025 -0.62300003 64 16 0
3.04 0.026000001 -0.63200003 63 16 0
3.0350001 0.027000001 -0.64099997 63 16 0
3.0320001 0.028000001 -0.65100002 76 16 0
3.0220001 0.028999999 -0.65899998 67 16 0
3.02 0.029999999 -0.66799998 71 16 0
3.0179999 0.032000002 -0.67799997 75 16 0
3.0120001 0.033 -0.68599999 76 16 0
3.006 0.034000002 -0.69499999 92 16 0
3.0020001 0.035 -0.704 69 16 0
3 0.035999998 -0.713 63 16 0
2.9920001 0.037 -0.72100002 52 16 0
2.99 0.039000001 -0.73100001 47 16 0
2.9849999 0.039999999 -0.73900002 46 16 0
2.9820001 0.041000001 -0.74800003 43 16 0
2.977 0.041999999 -0.75700003 41 16 0
2.9719999 0.044 -0.76599997 42 16 0
2.97 0.045000002 -0.77499998 41 16 0
2.96 0.046 -0.78200001 37 16 0
2.9549999 0.048 -0.79100001 38 16 0
2.9460001 0.048999999 -0.79799998 38 16 0
2.9360001 0.050000001 -0.80500001 46 16 0
2.9389999 0.052000001 -0.81599998 54 16 0
2.944 0.052999999 -0.82700002 83 16 0
2.937 0.055 -0.83499998 95 16 0
2.934 0.056000002 -0.84399998 92 16 0
2.931 0.057999998 -0.85299999 92 16 0
2.925 0.059 -0.86000001 96 16 0
2.9219999 0.061000001 -0.86900002 83 16 0
2.9159999 0.061999999 -0.87699997 81 16 0
2.9100001 0.064000003 -0.88499999 102 16 0
2.908 0.066 -0.89399999 103 16 0
2.9030001 0.067000002 -0.90200001 93 16 0
2.898 0.068999998 -0.91000003 87 16 0
2.888 0.07 -0.917 87 16 0
2.888 0.071999997 -0.92699999 94 16 0
2.885 0.074000001 -0.935 88 16 0
2.8759999 0.075999998 -0.94199997 95 16 0
2.869 0.077 -0.949 83 16 0
2.8659999 0.079000004 -0.95700002 105 16 0
2.8659999 0.081 -0.96700001 86 16 0
2.858 0.082999997 -0.97399998 101 16 0
2.855 0.085000001 -0.98199999 123 16 0
2.8499999 0.086999997 -0.99000001 114 16 0
2.8469999 0.089000002 -0.99900001 116 16 0
2.8410001 0.090000004 -1.006 122 16 0
2.8399999 0.092 -1.015 120 16 0
2.8280001 0.093999997 -1.02 113 16 0
2.825 0.096000001 -1.029 130 16 0
2.826 0.097999997 -1.038 117 16 0
2.819 0.1 -1.045 113 16 0
2.816 0.102 -1.053 132 16 0
2.813 0.105 -1.061 125 16 0
2.806 0.107 -1.068 121 16 0
2.8010001 0.109 -1.075 150 16 0
2.796 0.111 -1.0829999 150 16 0
2.793 0.113 -1.091 140 16 0
2.78 0.115 -1.095 127 16 0
2.7739999 0.117 -1.102 137 16 0
2.7709999 0.119 -1.11 146 16 0
2.7739999 0.122 -1.12 150 16 0
2.7720001 0.124 -1.128 150 16 0
2.76 0.126 -1.133 150 16 0
2.7520001 0.12800001 -1.138 150 16 0
2.7490001 0.131 -1.146 150 16 0
2.7449999 0.133 -1.153 150 16 0
2.7420001 0.13600001 -1.161 150 16 0
2.7360001 0.138 -1.168 150 16 0
2.733 0.141 -1.175 150 16 0
2.7320001 0.14300001 -1.183 150 16 0
2.7279999 0.146 -1.191 150 16 0
2.7179999 0.148 -1.1950001 150 16 0
2.72 0.15099999 -1.205 150 16 0
2.7119999 0.153 -1.21 150 16 0
2.7079999 0.156 -1.217 150 16 0
2.7049999 0.15800001 -1.224 150 16 0
2.7019999 0.161 -1.2309999 150 16 0
2.698 0.164 -1.238 150 16 0
2.691 0.16599999 -1.244 136 16 0
2.6889999 0.169 -1.252 150 16 0
2.6819999 0.17200001 -1.257 150 16 0
2.677 0.175 -1.263 143 16 0
2.671 0.177 -1.2690001 150 16 0
2.6700001 0.18000001 -1.277 143 16 0
2.6630001 0.183 -1.2819999 138 16 0
2.6619999 0.186 -1.289 150 16 0
2.6570001 0.189 -1.295 150 16 0
2.654 0.192 -1.302 149 16 0
2.648 0.19400001 -1.307 150 16 0
2.642 0.197 -1.312 135 16 0
2.641 0.2 -1.3200001 132 16 0
2.6359999 0.20299999 -1.326 150 16 0
2.632 0.206 -1.332 147 16 0
2.6289999 0.20900001 -1.3380001 141 16 0
2.619 0.212 -1.341 143 16 0
2.618 0.215 -1.349 132 16 0
2.612 0.21799999 -1.353 141 16 0
2.609 0.221 -1.36 135 16 0
2.6059999 0.22499999 -1.365 137 16 0
2.6010001 0.228 -1.3710001 130 16 0
2.598 0.23100001 -1.377 143 16 0
2.5910001 0.234 -1.381 127 16 0
2.5880001 0.237 -1.387 137 16 0
2.5840001 0.23999999 -1.392 131 16 0
2.5840001 0.244 -1.399 135 16 0
2.5780001 0.24699999 -1.403 129 16 0
2.5739999 0.25 -1.409 133 16 0
2.5710001 0.25400001 -1.414 136 16 0
2.566 0.257 -1.419 125 16 0
2.562 0.25999999 -1.423 115 16 0
2.5610001 0.264 -1.4299999 125 16 0
2.55 0.26699999 -1.431 117 16 0
2.552 0.27000001 -1.439 125 16 0
2.546 0.27399999 -1.443 121 16 0
2.543 0.27700001 -1.448 143 16 0
2.54 0.28099999 -1.4529999 139 16 0
2.5309999 0.28400001 -1.454 133 16 0
2.5280001 0.287 -1.459 129 16 0
2.5250001 0.29100001 -1.464 137 16 0
2.5220001 0.294 -1.4680001 133 16 0
2.5190001 0.29800001 -1.473 126 16 0
2.516 0.301 -1.478 128 16 0
2.5120001 0.30500001 -1.4809999 132 16 0
2.5090001 0.308 -1.4859999 118 16 0
2.506 0.31200001 -1.49 126 16 0
2.5009999 0.31600001 -1.493 134 16 0
2.4979999 0.31900001 -1.497 126 16 0
2.4960001 0.32300001 -1.501 116 16 0
2.4920001 0.32600001 -1.505 115 16 0
2.4860001 0.33000001 -1.507 114 16 0
2.4809999 0.333 -1.51 118 16 0
2.483 0.33700001 -1.516 118 16 0
2.4779999 0.34099999 -1.5190001 113 16 0
2.4690001 0.34400001 -1.5190001 118 16 0
2.467 0.347 -1.522 112 16 0
2.4619999 0.35100001 -1.525 116 16 0
2.461 0.35499999 -1.529 120 16 0
2.4590001 0.359 -1.5319999 119 16 0
2.4560001 0.36199999 -1.535 112 16 0
2.454 0.366 -1.539 110 16 0
2.447 0.36899999 -1.539 109 16 0
2.441 0.37200001 -1.54 108 16 0
2.4449999 0.377 -1.5470001 117 16 0
2.4400001 0.38100001 -1.548 117 16 0
2.434 0.384 -1.548 114 16 0
2.434 0.38800001 -1.553 124 16 0
2.428 0.391 -1.553 127 16 0
2.4260001 0.39500001 -1.5549999 106 16 0
2.4289999 0.39899999 -1.561 125 16 0
2.421 0.40200001 -1.5599999 117 16 0
2.4189999 0.40599999 -1.562 121 16 0
2.4170001 0.41 -1.564 119 16 0
2.415 0.414 -1.566 121 16 0
2.4130001 0.417 -1.568 124 16 0
2.411 0.421 -1.5700001 121 16 0
2.4070001 0.42399999 -1.5700001 120 16 0
2.4000001 0.42699999 -1.568 115 16 0
2.398 0.43099999 -1.5700001 121 16 0
2.3959999 0.435 -1.571 106 16 0
2.4000001 0.43900001 -1.577 116 16 0
2.3929999 0.442 -1.574 113 16 0
2.3989999 0.447 -1.581 116 16 0
2.3889999 0.449 -1.576 109 16 0
2.388 0.45300001 -1.5779999 112 16 0
2.3840001 0.456 -1.577 121 16 0
2.382 0.46000001 -1.5779999 126 16 0
2.3840001 0.46399999 -1.58 119 16 0
2.3770001 0.46700001 -1.5779999 118 16 0
2.3800001 0.47099999 -1.581 127 16 0
2.3710001 0.47299999 -1.576 115 16 0
2.3770001 0.47799999 -1.581 119 16 0
2.3710001 0.48100001 -1.579 112 16 0
2.368 0.484 -1.5779999 115 16 0
2.3670001 0.48699999 -1.5779999 110 16 0
2.3659999 0.491 -1.5779999 107 16 0
2.368 0.495 -1.58 120 16 0
2.365 0.498 -1.5779999 109 16 0
2.3610001 0.5 -1.576 113 16 0
2.3629999 0.50400001 -1.5779999 113 16 0
2.3599999 0.50700003 -1.576 112 16 0
2.3599999 0.51099998 -1.576 110 16 0
2.3540001 0.51300001 -1.572 106 16 0
2.3529999 0.51599997 -1.571 110 16 0
2.3529999 0.51899999 -1.5700001 113 16 0
2.355 0.523 -1.571 122 16 0
2.3529999 0.52600002 -1.569 150 16 0
2.352 0.52899998 -1.568 144 16 0
2.3510001 0.53200001 -1.567 150 16 0
2.345 0.53399998 -1.561 150 16 0
2.3499999 0.53799999 -1.563 150 16 0
2.3499999 0.54100001 -1.562 150 16 0
2.345 0.54299998 -1.558 149 16 0
2.345 0.546 -1.556 146 16 0
2.345 0.54900002 -1.554 150 16 0
2.3429999 0.55199999 -1.552 141 16 0
2.345 0.55500001 -1.551 150 16 0
2.348 0.55900002 -1.551 150 16 0
2.346 0.56099999 -1.548 145 16 0
2.3469999 0.56300002 -1.546 147 16 0
2.3429999 0.565 -1.541 148 16 0
2.3399999 0.56699997 -1.5369999 150 16 0
2.3410001 0.56999999 -1.534 145 16 0
2.342 0.57200003 -1.5319999 149 16 0
2.342 0.57499999 -1.53 150 16 0
2.3429999 0.57800001 -1.528 139 16 0
2.3429999 0.57999998 -1.524 150 16 0
2.3429999 0.58200002 -1.521 150 16 0
2.3469999 0.58600003 -1.521 150 16 0
2.3410001 0.58600003 -1.513 150 16 0
2.3469999 0.58999997 -1.5140001 150 16 0
2.3429999 0.59100002 -1.508 150 16 0
2.3440001 0.59299999 -1.505 150 16 0
2.342 0.59500003 -1.5 150 16 0
2.346 0.59799999 -1.498 150 16 0
2.3469999 0.59899998 -1.495 150 16 0
2.345 0.60100001 -1.49 150 16 0
2.346 0.60299999 -1.4859999 150 16 0
2.3469999 0.60500002 -1.482 150 16 0
2.346 0.60600001 -1.478 150 16 0
2.348 0.60799998 -1.474 150 16 0
2.3499999 0.61000001 -1.471 150 16 0
2.3510001 0.61199999 -1.467 150 16 0
2.3529999 0.61400002 -1.4630001 150 16 0
2.355 0.61500001 -1.46 150 16 0
2.3540001 0.616 -1.454 150 16 0
2.3570001 0.61799997 -1.451 150 16 0
2.3610001 0.62 -1.448 150 16 0
2.3599999 0.62099999 -1.443 150 16 0
2.3629999 0.62300003 -1.439 150 16 0
2.3629999 0.62400001 -1.434 150 16 0
2.365 0.625 -1.429 150 16 0
2.3659999 0.62599999 -1.425 150 16 0
2.369 0.62800002 -1.421 150 16 0
2.369 0.62800002 -1.415 150 16 0
2.3710001 0.63 -1.411 150 16 0
2.3740001 0.63099998 -1.406 150 16 0
2.3759999 0.63200003 -1.402 150 16 0
2.3770001 0.63300002 -1.396 150 16 0
2.381 0.634 -1.393 150 16 0
2.3800001 0.634 -1.386 150 16 0
2.3840001 0.63599998 -1.382 150 16 0
2.3840001 0.63599998 -1.376 150 16 0
2.385 0.63599998 -1.37 150 16 0
2.392 0.63800001 -1.368 150 16 0
2.392 0.63800001 -1.3609999 150 16 0
2.3929999 0.63800001 -1.355 150 16 0
2.3970001 0.639 -1.351 150 16 0
2.4000001 0.63999999 -1.346 150 16 0
2.3970001 0.639 -1.337 150 16 0
2.404 0.63999999 -1.335 150 16 0
2.408 0.64099997 -1.33 150 16 0
2.404 0.639 -1.321 150 16 0
2.408 0.63999999 -1.316 150 16 0
2.4130001 0.64099997 -1.312 150 16 0
2.4119999 0.63999999 -1.3049999 150 16 0
2.415 0.63999999 -1.299 150 16 0
2.418 0.63999999 -1.294 150 16 0
2.421 0.63999999 -1.288 150 16 0
2.4219999 0.63999999 -1.2819999 150 16 0
2.427 0.63999999 -1.277 150 16 0
2.427 0.63999999 -1.27 150 16 0
2.4289999 0.639 -1.263 150 16 0
2.434 0.639 -1.2589999 150 16 0
2.4400001 0.63999999 -1.2539999 150 16 0
2.4400001 0.63800001 -1.247 150 16 0
2.448 0.639 -1.243 150 16 0
2.4460001 0.63800001 -1.235 150 16 0
2.4460001 0.63599998 -1.227 150 16 0
2.454 0.63700002 -1.224 150 16 0
2.457 0.63700002 -1.2180001 150 16 0
2.46 0.63599998 -1.212 150 16 0
2.4630001 0.63499999 -1.206 150 16 0
2.467 0.634 -1.199 150 16 0
2.47 0.634 -1.193 150 16 0
2.473 0.63300002 -1.187 150 16 0
2.4760001 0.63200003 -1.181 150 16 0
2.477 0.63 -1.173 150 16 0
2.483 0.63 -1.168 150 16 0
2.4860001 0.62900001 -1.1619999 150 16 0
2.4890001 0.62800002 -1.156 150 16 0
2.493 0.62699997 -1.15 150 16 0
2.497 0.62599999 -1.143 150 16 0
2.4990001 0.62400001 -1.136 150 16 0
2.503 0.62300003 -1.13 150 16 0
2.5050001 0.62199998 -1.123 150 16 0
2.51 0.62 -1.117 150 16 0
2.513 0.61900002 -1.1109999 150 16 0
2.516 0.61699998 -1.104 150 16 0
2.5190001 0.616 -1.097 150 16 0
2.5250001 0.61500001 -1.092 150 16 0
2.526 0.61299998 -1.084 150 16 0
2.5320001 0.61199999 -1.079 150 16 0
2.5350001 0.61000001 -1.072 150 16 0
2.5380001 0.60799998 -1.0650001 150 16 0
2.539 0.60600001 -1.057 150 16 0
2.5450001 0.60500002 -1.051 150 16 0
2.5510001 0.60299999 -1.046 150 16 0
2.5510001 0.60100001 -1.038 150 16 0
2.5599999 0.60000002 -1.033 150 16 0
2.562 0.59799999 -1.026 150 16 0
2.5669999 0.59600002 -1.0190001 150 16 0
2.579 0.59600002 -1.016 38 16 0
2.5739999 0.59200001 -1.006 3 16 0
2.5910001 0.59299999 -1.0039999 0 16 0
2.635 0.60000002 -1.013 0 16 0
2.658 0.602 -1.013 0 16 0
0 0 0 0 16 0
0 0 0 0 16 0
0 0 0 0 16 0
2.6359999 0.58399999 -0.97100002 0 16 0
2.638 0.58200002 -0.96399999 0 16 0
2.631 0.57700002 -0.95300001 0 16 0
0 0 0 0 16 0
2.642 0.57200003 -0.94 1 16 0
2.631 0.56699997 -0.92799997 28 16 0
2.635 0.56400001 -0.921 150 16 0
2.6400001 0.56199998 -0.91399997 150 16 0
2.6389999 0.55800003 -0.90600002 150 16 0
2.6400001 0.55500001 -0.898 150 16 0
2.6489999 0.55299997 -0.89300001 150 16 0
2.652 0.55000001 -0.88499999 150 16 0
2.655 0.54699999 -0.87800002 150 16 0
2.6619999 0.54500002 -0.87199998 150 16 0
2.665 0.542 -0.86400002 150 16 0
2.668 0.53899997 -0.85699999 150 16 0
2.675 0.53600001 -0.85100001 150 16 0
2.678 0.53299999 -0.84399998 150 16 0
2.681 0.52999997 -0.83600003 150 16 0
2.6860001 0.52700001 -0.82999998 150 16 0
2.6919999 0.52399999 -0.82300001 150 16 0
2.6960001 0.52100003 -0.81599998 150 16 0
2.6989999 0.51800001 -0.80900002 150 16 0
2.704 0.51499999 -0.80199999 150 16 0
2.707 0.51200002 -0.79500002 150 16 0
2.717 0.509 -0.78899997 150 16 0
2.717 0.505 -0.78100002 150 16 0
2.7190001 0.50199997 -0.773 150 16 0
2.7260001 0.49900001 -0.76700002 150 16 0
2.734 0.49599999 -0.76099998 150 16 0
