# .PCD v0.7 - Point Cloud Data file format
VERSION 0.7
FIELDS x y z intensity tag line
SIZE 4 4 4 4 1 1
TYPE F F F F U U
COUNT 1 1 1 1 1 1
WIDTH 1343
HEIGHT 1
VIEWPOINT 0 0 0 1 0 0 0
POINTS 1343
DATA ascii
1.42 -0.89899999 0.093999997 150 0 0
1.415 -0.89999998 0.092 109 0 0
1.411 -0.89999998 0.090999998 120 0 0
1.41 -0.903 0.089000002 130 0 0
1.406 -0.90399998 0.088 150 0 0
1.403 -0.90499997 0.086000003 150 0 0
1.4 -0.90700001 0.083999999 148 0 0
1.397 -0.90799999 0.082999997 150 0 0
1.392 -0.90700001 0.081 127 0 0
1.391 -0.91000003 0.079999998 128 0 0
1.3890001 -0.912 0.078000002 106 0 0
1.3839999 -0.91100001 0.075999998 138 0 0
1.38 -0.91100001 0.074000001 137 0 0
1.38 -0.91399997 0.072999999 128 0 0
1.377 -0.91500002 0.071000002 149 0 0
1.374 -0.91500002 0.07 143 0 0
1.37 -0.91500002 0.068000004 142 0 0
1.372 -0.91900003 0.066 135 0 0
1.3660001 -0.91799998 0.064000003 150 0 0
1.365 -0.92000002 0.063000001 112 0 0
1.364 -0.921 0.061000001 128 0 0
1.3609999 -0.921 0.059 145 0 0
1.358 -0.92199999 0.057999998 146 0 0
1.357 -0.92299998 0.056000002 148 0 0
1.3559999 -0.92400002 0.054000001 143 0 0
1.355 -0.92500001 0.052000001 150 0 0
1.354 -0.92699999 0.050999999 146 0 0
1.353 -0.92799997 0.048999999 143 0 0
1.352 -0.92900002 0.046999998 142 0 0
1.351 -0.93000001 0.045000002 150 0 0
1.346 -0.92900002 0.043000001 140 0 0
1.3430001 -0.92799997 0.041999999 139 0 0
1.342 -0.92900002 0.039999999 150 0 0
1.342 -0.93000001 0.037999999 150 0 0
1.341 -0.93099999 0.035999998 150 0 0
1.341 -0.93199998 0.034000002 136 0 0
1.339 -0.93199998 0.032000002 127 0 0
1.334 -0.93000001 0.029999999 96 3 0
1.335 -0.93199998 0.028999999 83 0 0
1.335 -0.93199998 0.027000001 115 0 0
1.3329999 -0.93199998 0.025 114 0 0
1.33 -0.93099999 0.023 142 0 0
1.332 -0.93300003 0.021 116 0 0
1.329 -0.93199998 0.018999999 140 0 0
1.329 -0.93199998 0.017000001 111 0 0
1.33 -0.93400002 0.016000001 106 0 0
1.325 -0.93099999 0.014 97 3 0
1.326 -0.93199998 0.012 148 0 0
1.327 -0.93300003 0.0099999998 131 0 0
1.325 -0.93199998 0.0080000004 122 0 0
1.325 -0.93199998 0.0060000001 125 0 0
1.322 -0.93000001 0.0040000002 133 0 0
1.322 -0.93000001 0.0020000001 129 0 0
1.322 -0.93000001 0.001 150 0 0
1.323 -0.93099999 0 148 0 0
1.325 -0.93199998 -0.0020000001 129 0 0
1.322 -0.93000001 -0.0040000002 120 0 0
1.325 -0.93099999 -0.0060000001 150 0 0
1.325 -0.93099999 -0.0080000004 105 0 0
1.323 -0.93000001 -0.0099999998 148 0 0
1.325 -0.93000001 -0.012 122 0 0
1.311 -0.92000002 -0.013 88 1 0
1.323 -0.92799997 -0.015 150 3 0
1.324 -0.92699999 -0.017000001 150 0 0
1.324 -0.92699999 -0.018999999 150 0 0
1.324 -0.926 -0.021 147 0 0
1.325 -0.926 -0.023 133 0 0
1.326 -0.92500001 -0.024 150 0 0
1.326 -0.92400002 -0.026000001 139 0 0
1.326 -0.92299998 -0.028000001 130 0 0
1.332 -0.926 -0.029999999 129 3 0
1.3279999 -0.92199999 -0.032000002 150 0 0
1.329 -0.921 -0.034000002 150 0 0
1.33 -0.92000002 -0.035 150 0 0
1.33 -0.91900003 -0.037 150 0 0
1.335 -0.921 -0.039000001 150 0 0
1.336 -0.92000002 -0.041000001 139 0 0
1.335 -0.917 -0.041999999 125 0 0
1.332 -0.91399997 -0.044 130 0 0
1.3380001 -0.91600001 -0.046 150 0 0
1.342 -0.917 -0.048 150 0 0
1.341 -0.91399997 -0.050000001 125 0 0
1.341 -0.912 -0.050999999 141 0 0
1.342 -0.91000003 -0.052999999 150 0 0
1.3430001 -0.90899998 -0.055 146 0 0
1.344 -0.90799999 -0.056000002 146 0 0
1.35 -0.91000003 -0.057999998 150 0 0
1.347 -0.90499997 -0.059999999 138 0 0
1.355 -0.90799999 -0.061999999 150 0 0
1.3559999 -0.90600002 -0.063000001 150 0 0
1.3559999 -0.903 -0.064999998 150 0 0
1.3609999 -0.90399998 -0.067000002 150 0 0
1.36 -0.90100002 -0.068000004 145 0 0
1.362 -0.89899999 -0.07 112 0 0
1.367 -0.89999998 -0.071000002 150 0 0
1.367 -0.89700001 -0.072999999 150 0 0
1.368 -0.89499998 -0.074000001 150 0 0
1.3710001 -0.89399999 -0.075999998 148 0 0
1.377 -0.89499998 -0.078000002 150 0 0
1.376 -0.89099997 -0.079000004 150 0 0
1.38 -0.88999999 -0.081 141 0 0
1.382 -0.889 -0.082000002 110 0 0
1.383 -0.88599998 -0.083999999 148 0 0
1.386 -0.88499999 -0.085000001 150 0 0
1.387 -0.88200003 -0.086999997 150 0 0
1.39 -0.88099998 -0.088 140 0 0
1.393 -0.87900001 -0.090000004 150 0 0
1.3940001 -0.87599999 -0.090999998 131 0 0
1.396 -0.87400001 -0.092 150 0 0
1.402 -0.87400001 -0.093999997 146 0 0
1.406 -0.87300003 -0.094999999 145 0 0
1.408 -0.87 -0.097000003 135 0 0
1.411 -0.86900002 -0.097999997 145 0 0
1.4170001 -0.86799997 -0.1 146 0 0
1.415 -0.86299998 -0.101 145 0 0
1.423 -0.86400002 -0.102 150 0 0
1.425 -0.861 -0.104 150 0 0
1.429 -0.86000001 -0.105 150 0 0
1.4299999 -0.85699999 -0.106 150 0 0
1.4349999 -0.85600001 -0.107 150 0 0
1.437 -0.852 -0.108 150 0 0
1.444 -0.852 -0.11 121 0 0
1.446 -0.84899998 -0.111 140 0 0
1.447 -0.84600002 -0.112 137 0 0
1.452 -0.84399998 -0.113 138 0 0
1.459 -0.84399998 -0.115 150 0 0
1.461 -0.84100002 -0.116 150 0 0
1.4680001 -0.83999997 -0.117 150 0 0
1.475 -0.83999997 -0.119 143 0 0
1.477 -0.83700001 -0.12 138 0 0
1.484 -0.83600003 -0.121 140 0 0
1.487 -0.83399999 -0.122 150 0 0
1.487 -0.829 -0.123 116 0 0
1.495 -0.829 -0.124 136 0 0
1.4960001 -0.824 -0.125 142 0 0
1.503 -0.82300001 -0.126 101 0 0
1.507 -0.82099998 -0.127 117 0 0
1.5140001 -0.81999999 -0.12800001 108 0 0
1.516 -0.81599998 -0.12899999 118 0 0
1.515 -0.81099999 -0.13 119 0 0
1.528 -0.81300002 -0.131 150 3 0
1.534 -0.81099999 -0.132 150 0 0
1.538 -0.80800003 -0.133 146 0 0
1.541 -0.80500001 -0.134 133 0 0
1.545 -0.80199999 -0.13500001 115 0 0
1.553 -0.801 -0.13600001 117 0 0
1.557 -0.79799998 -0.13699999 118 0 0
1.5599999 -0.79500002 -0.13699999 119 0 0
1.568 -0.79299998 -0.138 113 0 0
1.574 -0.79100001 -0.139 128 0 0
1.576 -0.787 -0.14 150 0 0
1.5880001 -0.78799999 -0.141 105 0 0
1.592 -0.78399998 -0.142 127 0 0
1.595 -0.78100002 -0.142 136 0 0
1.601 -0.778 -0.14300001 114 0 0
1.605 -0.77499998 -0.14300001 133 0 0
1.609 -0.77200001 -0.14399999 113 0 0
1.614 -0.76800001 -0.145 101 0 0
1.619 -0.76499999 -0.145 121 0 0
1.6210001 -0.76099998 -0.145 141 0 0
1.635 -0.76200002 -0.147 85 0 0
1.6390001 -0.75800002 -0.147 117 0 0
1.651 -0.75800002 -0.148 101 0 0
1.654 -0.75400001 -0.149 114 0 0
1.66 -0.75099999 -0.149 2 0 0
1.664 -0.74699998 -0.15000001 2 0 0
1.677 -0.74800003 -0.15099999 150 16 0
1.682 -0.74400002 -0.15099999 150 16 0
1.686 -0.74000001 -0.15099999 150 16 0
1.691 -0.736 -0.152 150 16 0
1.697 -0.73400003 -0.152 150 16 0
1.7029999 -0.73000002 -0.153 87 0 0
1.7130001 -0.72899997 -0.153 79 0 0
1.717 -0.72500002 -0.153 94 0 0
1.725 -0.722 -0.154 64 0 0
1.737 -0.72100002 -0.155 67 0 0
1.743 -0.71799999 -0.155 72 0 0
1.753 -0.71600002 -0.156 57 0 0
1.758 -0.71200001 -0.156 2 0 0
1.7640001 -0.708 -0.156 1 0 0
1.7690001 -0.704 -0.156 1 0 0
1.771 -0.699 -0.156 2 0 0
1.786 -0.699 -0.15700001 2 0 0
1.788 -0.69400001 -0.156 1 0 0
1.796 -0.69 -0.15700001 2 0 0
1.808 -0.68900001 -0.15700001 150 16 0
1.812 -0.68400002 -0.15700001 150 16 0
1.821 -0.68099999 -0.15700001 150 16 0
1.8279999 -0.67799997 -0.15700001 150 16 0
1.8329999 -0.67400002 -0.15700001 2 0 0
1.844 -0.671 -0.15800001 2 0 0
1.858 -0.67000002 -0.15800001 150 16 0
1.862 -0.66500002 -0.15800001 150 16 0
1.867 -0.66100001 -0.15800001 150 16 0
1.874 -0.65700001 -0.15800001 150 16 0
1.8839999 -0.65399998 -0.15800001 150 16 0
1.89 -0.64999998 -0.15800001 150 16 0
1.903 -0.648 -0.15800001 142 16 0
1.911 -0.64399999 -0.15800001 142 16 0
1.916 -0.639 -0.15800001 147 16 0
1.925 -0.63599998 -0.15700001 148 16 0
1.928 -0.63 -0.15700001 150 16 0
1.936 -0.62699997 -0.15700001 132 16 0
1.956 -0.62599999 -0.15700001 137 19 0
1.965 -0.62300003 -0.15700001 134 16 0
1.969 -0.61699998 -0.15700001 141 16 0
1.982 -0.61500001 -0.15700001 134 16 0
1.989 -0.61000001 -0.156 128 16 0
1.998 -0.60600001 -0.156 119 16 0
2.006 -0.602 -0.156 134 16 0
2.0139999 -0.59799999 -0.155 131 16 0
2.0220001 -0.59299999 -0.155 129 16 0
2.036 -0.58999997 -0.155 128 16 0
2.0439999 -0.58600003 -0.154 108 16 0
2.0510001 -0.58099997 -0.154 99 16 0
2.0610001 -0.57700002 -0.153 103 16 0
2.075 -0.574 -0.153 100 16 0
2.0829999 -0.56999999 -0.153 100 16 0
2.0910001 -0.565 -0.152 89 16 0
2.0999999 -0.56 -0.15099999 95 16 0
2.1059999 -0.55500001 -0.15099999 93 16 0
2.1199999 -0.551 -0.15000001 96 16 0
2.131 -0.54699999 -0.15000001 87 16 0
2.1429999 -0.54299998 -0.149 91 16 0
2.152 -0.53899997 -0.149 87 16 0
2.161 -0.53399998 -0.148 91 16 0
2.1830001 -0.53200001 -0.148 96 19 0
2.1919999 -0.52700001 -0.147 81 16 0
2.2019999 -0.52200001 -0.146 83 16 0
2.207 -0.51599997 -0.145 87 16 0
2.2219999 -0.51200002 -0.145 79 16 0
2.2360001 -0.50800002 -0.14399999 67 16 0
2.24 -0.50199997 -0.14300001 60 16 0
2.2539999 -0.498 -0.142 65 16 0
2.267 -0.493 -0.142 62 16 0
2.2750001 -0.48699999 -0.14 60 16 0
2.286 -0.48199999 -0.14 67 16 0
2.3 -0.47799999 -0.139 59 16 0
2.3110001 -0.47299999 -0.138 60 16 0
2.323 -0.46799999 -0.13699999 55 16 0
2.335 -0.46200001 -0.13600001 52 16 0
2.352 -0.458 -0.13500001 56 16 0
2.3599999 -0.45199999 -0.134 50 16 0
2.3759999 -0.44800001 -0.133 44 16 0
2.3829999 -0.44100001 -0.131 51 16 0
2.4000001 -0.43700001 -0.131 49 16 0
2.415 -0.43200001 -0.12899999 55 16 0
2.4260001 -0.426 -0.12800001 53 16 0
2.4389999 -0.41999999 -0.127 52 16 0
2.4549999 -0.41499999 -0.126 52 16 0
2.4619999 -0.40799999 -0.124 45 16 0
2.4790001 -0.403 -0.123 51 16 0
2.494 -0.398 -0.122 49 16 0
2.5050001 -0.39199999 -0.12 45 16 0
2.5190001 -0.38600001 -0.119 37 16 0
2.53 -0.37900001 -0.117 44 16 0
2.5439999 -0.373 -0.116 38 16 0
2.5610001 -0.368 -0.114 38 16 0
2.576 -0.36199999 -0.113 38 16 0
2.5899999 -0.35600001 -0.111 29 16 0
2.6040001 -0.34900001 -0.11 29 16 0
2.6210001 -0.34299999 -0.108 29 16 0
2.632 -0.33700001 -0.106 29 16 0
2.645 -0.33000001 -0.105 30 16 0
2.6619999 -0.324 -0.103 30 16 0
2.678 -0.317 -0.101 28 16 0
2.6960001 -0.31099999 -0.098999999 28 16 0
2.7149999 -0.30399999 -0.097999997 29 16 0
2.727 -0.29699999 -0.096000001 27 16 0
2.7360001 -0.289 -0.093000002 27 16 0
2.7579999 -0.28299999 -0.092 29 16 0
2.77 -0.27599999 -0.090000004 27 16 0
2.7839999 -0.26899999 -0.086999997 27 16 0
2.803 -0.26199999 -0.085000001 27 16 0
2.8139999 -0.25400001 -0.082999997 26 16 0
2.836 -0.24699999 -0.081 26 16 0
2.8529999 -0.23999999 -0.079000004 26 16 0
2.8740001 -0.23199999 -0.077 26 16 0
2.8889999 -0.22499999 -0.074000001 27 16 0
2.908 -0.21699999 -0.071999997 26 16 0
2.9219999 -0.20900001 -0.07 27 16 0
2.9489999 -0.20200001 -0.067000002 26 16 0
2.964 -0.19400001 -0.064999998 27 16 0
2.98 -0.186 -0.061999999 26 16 0
3.0020001 -0.178 -0.059999999 25 16 0
3.0320001 -0.17 -0.057 27 16 0
3.043 -0.161 -0.055 26 16 0
3.0669999 -0.153 -0.052000001 26 16 0
3.0910001 -0.145 -0.048999999 26 16 0
3.108 -0.13600001 -0.046 26 16 0
3.1289999 -0.127 -0.043000001 27 16 0
3.1500001 -0.118 -0.041000001 26 16 0
3.171 -0.109 -0.037999999 26 16 0
3.194 -0.1 -0.035 27 16 0
3.2149999 -0.090999998 -0.030999999 26 16 0
3.2349999 -0.082000002 -0.028000001 28 16 0
3.2579999 -0.071999997 -0.025 43 16 0
3.2650001 -0.063000001 -0.022 150 16 0
3.257 -0.052000001 -0.017999999 118 16 0
3.257 -0.043000001 -0.015 120 16 0
3.253 -0.033 -0.011 114 16 0
3.243 -0.023 -0.0080000004 82 16 0
3.2460001 -0.013 -0.0040000002 24 16 0
3.2720001 -0.003 -0.001 17 16 0
3.299 0.0060000001 0.0020000001 18 16 0
3.319 0.016000001 0.0060000001 20 16 0
3.3399999 0.026000001 0.0089999996 40 16 0
3.3299999 0.037 0.013 57 16 0
3.3269999 0.046999998 0.017000001 69 16 0
3.3280001 0.057 0.02 42 16 0
3.3210001 0.067000002 0.024 53 16 0
3.3150001 0.077 0.028000001 72 16 0
3.3139999 0.086999997 0.030999999 73 16 0
3.3099999 0.097000003 0.035 62 16 0
3.3069999 0.107 0.039000001 67 16 0
3.3099999 0.117 0.043000001 71 16 0
3.2809999 0.126 0.046 93 16 0
3.237 0.134 0.048999999 102 16 0
3.2279999 0.14300001 0.052999999 103 16 0
3.227 0.153 0.057 100 16 0
3.227 0.163 0.059999999 101 16 0
3.2160001 0.17200001 0.064000003 102 16 0
3.2119999 0.18099999 0.068000004 96 16 0
3.21 0.191 0.071999997 80 16 0
3.204 0.2 0.075000003 94 16 0
3.201 0.20999999 0.079000004 98 16 0
3.201 0.219 0.082999997 96 16 0
3.1989999 0.229 0.086999997 98 16 0
3.191 0.23800001 0.090000004 90 16 0
3.1900001 0.24699999 0.093999997 98 16 0
3.1919999 0.257 0.097999997 87 16 0
3.1889999 0.26699999 0.102 93 16 0
3.1830001 0.27599999 0.106 73 16 0
3.187 0.28600001 0.11 54 16 0
3.1889999 0.29499999 0.114 56 16 0
3.21 0.30700001 0.119 127 16 0
3.2219999 0.31799999 0.124 150 16 0
3.2290001 0.32800001 0.12800001 124 16 0
3.2290001 0.338 0.132 98 16 0
3.227 0.347 0.13600001 61 16 0
3.22 0.35600001 0.14 44 16 0
3.207 0.36399999 0.14399999 40 16 0
3.198 0.373 0.147 35 16 0
3.1860001 0.38100001 0.15099999 32 16 0
3.178 0.38999999 0.155 31 16 0
3.1719999 0.398 0.15899999 31 16 0
3.1600001 0.40599999 0.162 31 16 0
3.1489999 0.414 0.16599999 31 16 0
3.1359999 0.42199999 0.169 30 16 0
3.131 0.43099999 0.17299999 31 16 0
3.125 0.43900001 0.177 34 16 0
3.1110001 0.44600001 0.18099999 35 16 0
3.1010001 0.454 0.184 34 16 0
3.089 0.46200001 0.18799999 38 16 0
3.085 0.47 0.192 47 16 0
3.079 0.479 0.19599999 83 16 0
3.0699999 0.486 0.2 140 16 0
3.0710001 0.49599999 0.204 150 16 0
3.0669999 0.50400001 0.208 150 16 0
3.0650001 0.51300001 0.212 150 16 0
3.0610001 0.52100003 0.21600001 150 16 0
3.059 0.52999997 0.221 150 16 0
3.0569999 0.53899997 0.22499999 150 16 0
3.05 0.54699999 0.229 150 16 0
3.052 0.55599999 0.233 150 16 0
3.046 0.56400001 0.237 150 16 0
3.0439999 0.57300001 0.242 150 16 0
3.04 0.58099997 0.24600001 150 16 0
3.036 0.58899999 0.25 150 16 0
3.0380001 0.59899998 0.255 150 16 0
3.0320001 0.60600001 0.259 150 16 0
3.033 0.616 0.26300001 150 16 0
3.0220001 0.62199998 0.26699999 150 16 0
3.0250001 0.63200003 0.27200001 150 16 0
3.0179999 0.639 0.27599999 150 16 0
3.026 0.64999998 0.28099999 150 16 0
3.0220001 0.65799999 0.285 150 16 0
3.02 0.667 0.28999999 150 16 0
3.013 0.67400002 0.294 150 16 0
3.0150001 0.68300003 0.29899999 150 16 0
3.0090001 0.69099998 0.303 150 16 0
3.0020001 0.69800001 0.30700001 150 16 0
3.0039999 0.70700002 0.31200001 150 16 0
3.003 0.71600002 0.317 150 16 0
3 0.72399998 0.32100001 150 16 0
3.0009999 0.73299998 0.32600001 150 16 0
2.99 0.73900002 0.33000001 150 16 0
2.9960001 0.74900001 0.33500001 150 16 0
2.9890001 0.75700003 0.34 150 16 0
2.987 0.76499999 0.34400001 150 16 0
2.9879999 0.77399999 0.34900001 150 16 0
2.977 0.77999997 0.35299999 150 16 0
2.9790001 0.78899997 0.35800001 150 16 0
2.9760001 0.79699999 0.36300001 150 16 0
2.9779999 0.80599999 0.368 150 16 0
2.98 0.815 0.37400001 150 16 0
2.9749999 0.82300001 0.37799999 150 16 0
2.974 0.83099997 0.38299999 150 16 0
2.974 0.83999997 0.38800001 150 16 0
2.9690001 0.847 0.39300001 150 16 0
2.9660001 0.85500002 0.39700001 150 16 0
2.9649999 0.86299998 0.40200001 150 16 0
2.9630001 0.87099999 0.40700001 150 16 0
2.96 0.87900001 0.412 150 16 0
2.9590001 0.88700002 0.417 150 16 0
2.954 0.89399999 0.42199999 150 16 0
2.9530001 0.90200001 0.42699999 150 16 0
2.9530001 0.91100001 0.43200001 150 16 0
2.9519999 0.91900003 0.43799999 150 16 0
2.95 0.926 0.44299999 150 16 0
2.947 0.93400002 0.44800001 150 16 0
2.9449999 0.94199997 0.45300001 150 16 0
2.9419999 0.949 0.458 150 16 0
2.944 0.958 0.463 150 16 0
2.9449999 0.96700001 0.46900001 150 16 0
2.9419999 0.97399998 0.47400001 150 16 0
2.9389999 0.98199999 0.479 150 16 0
2.9389999 0.99000001 0.48500001 150 16 0
2.9360001 0.99699998 0.49000001 150 16 0
2.9300001 1.0039999 0.495 150 16 0
2.9319999 1.013 0.50099999 150 16 0
2.928 1.0190001 0.505 150 16 0
2.9260001 1.027 0.51099998 150 16 0
2.925 1.035 0.51599997 150 16 0
2.9189999 1.041 0.52100003 150 16 0
2.9159999 1.048 0.52600002 150 16 0
2.9119999 1.054 0.53100002 92 16 0
2.904 1.0599999 0.53600001 44 16 0
2.8940001 1.064 0.54000002 41 16 0
2.881 1.067 0.54299998 39 16 0
2.8710001 1.071 0.54699999 39 16 0
2.8629999 1.076 0.551 39 16 0
2.855 1.081 0.55500001 40 16 0
2.8440001 1.084 0.55900002 39 16 0
2.835 1.089 0.56300002 39 16 0
2.8310001 1.095 0.56800002 41 16 0
2.8180001 1.097 0.57200003 39 16 0
2.8069999 1.1 0.57499999 39 16 0
2.8 1.105 0.57999998 41 16 0
2.7909999 1.109 0.58399999 39 16 0
2.7809999 1.112 0.58700001 40 16 0
2.7720001 1.1160001 0.59100002 41 16 0
2.7590001 1.118 0.59500003 46 16 0
2.756 1.124 0.60000002 45 16 0
2.7420001 1.126 0.602 46 16 0
2.7249999 1.126 0.60500002 44 16 0
2.721 1.131 0.61000001 44 16 0
2.711 1.1339999 0.61299998 43 16 0
2.7060001 1.1390001 0.61799997 41 16 0
2.6960001 1.142 0.62199998 43 16 0
2.687 1.145 0.625 42 16 0
2.6789999 1.148 0.62900001 42 16 0
2.668 1.15 0.63300002 43 16 0
2.6630001 1.154 0.63700002 43 16 0
2.6489999 1.155 0.63999999 44 16 0
2.641 1.158 0.64399999 43 16 0
2.6340001 1.1619999 0.648 44 16 0
2.6240001 1.163 0.65200001 41 16 0
2.619 1.1670001 0.65600002 43 16 0
2.6059999 1.168 0.65899998 44 16 0
2.5940001 1.169 0.662 42 16 0
2.589 1.173 0.66600001 42 16 0
2.5840001 1.176 0.671 49 16 0
2.572 1.177 0.67400002 42 16 0
2.566 1.1799999 0.67799997 44 16 0
2.5599999 1.183 0.68199998 49 16 0
2.5450001 1.182 0.68400002 42 16 0
2.5420001 1.186 0.68900001 41 16 0
2.536 1.189 0.69300002 42 16 0
2.5239999 1.189 0.69599998 41 16 0
2.516 1.191 0.699 42 16 0
2.507 1.193 0.70300001 41 16 0
2.497 1.193 0.70599997 41 16 0
2.4920001 1.196 0.70999998 43 16 0
2.484 1.197 0.71399999 40 16 0
2.4690001 1.196 0.71499997 40 16 0
2.4660001 1.199 0.72000003 40 16 0
2.46 1.201 0.72399998 42 16 0
2.448 1.2 0.72600001 44 16 0
2.4419999 1.202 0.73000002 39 16 0
2.4349999 1.204 0.73400003 41 16 0
2.4260001 1.204 0.73699999 39 16 0
2.4219999 1.207 0.741 39 16 0
2.4159999 1.2079999 0.745 42 16 0
2.4030001 1.206 0.74699998 39 16 0
2.395 1.207 0.75 39 16 0
2.388 1.2079999 0.75300002 42 16 0
2.3829999 1.209 0.75700003 52 16 0
2.3800001 1.212 0.76200002 55 16 0
2.3699999 1.211 0.764 60 16 0
2.358 1.209 0.76599997 58 16 0
2.3529999 1.211 0.76999998 50 16 0
2.3469999 1.211 0.773 61 16 0
2.3429999 1.2130001 0.77700001 60 16 0
2.3380001 1.214 0.78100002 59 16 0
2.3310001 1.214 0.78399998 57 16 0
2.3239999 1.214 0.787 59 16 0
2.3199999 1.215 0.79100001 61 16 0
2.313 1.215 0.79400003 62 16 0
2.302 1.2130001 0.796 58 16 0
2.299 1.214 0.80000001 56 16 0
2.2969999 1.216 0.80400002 70 16 0
2.28 1.21 0.80400002 58 19 0
2.277 1.212 0.80800003 58 16 0
2.2709999 1.211 0.81099999 57 16 0
2.266 1.211 0.81400001 53 16 0
2.2590001 1.21 0.81699997 54 16 0
2.2520001 1.209 0.81900001 53 16 0
2.244 1.207 0.82099998 53 16 0
2.234 1.204 0.82300001 54 16 0
2.2320001 1.205 0.82700002 69 16 0
2.221 1.202 0.82800001 60 16 0
2.217 1.202 0.83099997 65 16 0
2.2149999 1.2029999 0.83499998 62 16 0
2.2019999 1.198 0.83499998 51 19 0
2.2049999 1.201 0.84100002 62 16 0
2.198 1.199 0.84200001 57 16 0
2.191 1.197 0.84399998 68 16 0
2.1849999 1.1950001 0.847 68 16 0
2.1800001 1.194 0.84899998 74 16 0
2.1730001 1.191 0.85100001 67 16 0
2.168 1.1900001 0.85299999 73 16 0
2.165 1.189 0.85699999 75 16 0
2.158 1.187 0.85799998 72 16 0
2.154 1.1849999 0.861 66 16 0
2.1440001 1.181 0.861 54 16 0
2.142 1.181 0.86400002 29 16 0
2.141 1.1799999 0.86799997 20 16 0
2.1370001 1.179 0.87 13 16 0
2.1229999 1.1720001 0.86900002 6 18 0
2.1059999 1.163 0.866 4 16 0
2.0999999 1.16 0.86699998 4 16 0
2.0969999 1.158 0.86900002 4 16 0
2.1070001 1.164 0.87699997 8 18 0
2.1010001 1.161 0.87800002 15 16 0
2.1010001 1.161 0.88200003 20 16 0
2.1010001 1.161 0.88499999 28 16 0
2.096 1.158 0.88700002 36 16 0
2.092 1.155 0.889 62 16 0
2.0840001 1.15 0.889 84 16 0
2.0840001 1.15 0.89200002 101 16 0
2.0810001 1.148 0.89399999 103 16 0
2.0799999 1.146 0.89600003 88 16 0
2.0739999 1.142 0.89700001 87 16 0
2.0739999 1.141 0.89999998 89 16 0
2.0680001 1.137 0.89999998 89 16 0
2.0650001 1.135 0.90200001 87 16 0
2.0610001 1.131 0.903 85 16 0
2.059 1.1289999 0.90499997 90 16 0
2.059 1.127 0.90700001 94 16 0
2.053 1.123 0.90700001 94 16 0
2.052 1.1210001 0.91000003 94 16 0
2.0469999 1.1160001 0.91000003 92 16 0
2.043 1.112 0.91000003 91 16 0
2.043 1.1109999 0.91299999 96 16 0
2.0420001 1.108 0.91399997 99 16 0
2.039 1.105 0.91500002 95 16 0
2.0369999 1.101 0.91600001 97 16 0
2.0369999 1.099 0.91799998 95 16 0
2.033 1.095 0.91799998 93 16 0
2.03 1.091 0.91900003 99 16 0
2.03 1.089 0.921 101 16 0
2.023 1.0829999 0.91900003 105 19 0
2.0250001 1.081 0.92199999 93 16 0
2.0209999 1.076 0.921 106 16 0
2.02 1.073 0.92199999 103 16 0
2.02 1.0700001 0.92299998 105 16 0
2.0209999 1.068 0.92500001 106 16 0
2.0179999 1.064 0.92500001 97 16 0
2.017 1.0599999 0.926 106 16 0
2.0150001 1.056 0.926 104 16 0
2.016 1.053 0.92699999 104 16 0
2.0120001 1.049 0.92699999 108 16 0
2.013 1.046 0.92799997 113 16 0
2.013 1.0420001 0.92799997 103 16 0
2.0139999 1.04 0.93000001 105 16 0
2.0120001 1.035 0.92900002 113 16 0
2.0079999 1.029 0.92799997 102 16 0
2.0079999 1.026 0.92799997 104 16 0
2.0109999 1.024 0.93000001 112 16 0
2.007 1.018 0.92900002 106 16 0
2.006 1.0140001 0.92900002 116 16 0
2.0079999 1.011 0.92900002 114 16 0
2.007 1.006 0.92900002 114 16 0
2.0079999 1.003 0.92900002 114 16 0
2.0090001 0.99900001 0.93000001 118 16 0
2.01 0.99599999 0.93000001 120 16 0
2.007 0.99000001 0.92900002 115 16 0
2.01 0.98699999 0.93000001 115 16 0
2.01 0.98299998 0.92900002 99 16 0
2.0109999 0.97899997 0.92900002 116 16 0
2.0139999 0.97600001 0.93000001 117 16 0
2.0139999 0.972 0.93000001 113 16 0
2.0139999 0.96700001 0.92799997 115 16 0
2.013 0.96200001 0.92699999 93 16 0
2.017 0.95999998 0.92799997 108 16 0
2.0139999 0.954 0.926 94 16 0
2.0179999 0.95099998 0.92699999 107 16 0
2.02 0.94700003 0.92699999 88 16 0
2.0209999 0.94300002 0.926 103 16 0
2.0220001 0.93900001 0.92500001 99 16 0
2.02 0.93300003 0.92299998 97 16 0
2.0239999 0.93000001 0.92400002 111 16 0
2.0250001 0.926 0.92299998 104 16 0
2.03 0.92299998 0.92299998 119 16 0
2.0320001 0.91900003 0.92299998 127 16 0
2.036 0.91500002 0.92299998 131 16 0
2.0339999 0.91000003 0.92000002 105 16 0
2.0380001 0.90600002 0.92000002 130 16 0
2.0409999 0.90200001 0.92000002 130 16 0
2.0409999 0.89700001 0.91799998 129 16 0
2.043 0.89300001 0.917 127 16 0
2.046 0.889 0.91600001 137 16 0
2.05 0.88499999 0.91600001 129 16 0
2.05 0.88 0.91299999 127 16 0
2.053 0.87599999 0.912 133 16 0
2.0569999 0.87300003 0.912 128 16 0
2.059 0.86799997 0.91100001 132 16 0
2.062 0.86400002 0.90899998 133 16 0
2.062 0.85900003 0.90700001 131 16 0
2.0669999 0.85500002 0.90600002 137 16 0
2.0699999 0.85100001 0.90499997 137 16 0
2.072 0.84600002 0.903 134 16 0
2.0780001 0.84299999 0.903 141 16 0
2.0799999 0.83899999 0.90100002 140 16 0
2.0799999 0.833 0.89899999 120 16 0
2.085 0.82999998 0.898 123 16 0
2.089 0.82499999 0.89600003 118 16 0
2.0910001 0.81999999 0.89399999 113 16 0
2.0969999 0.81699997 0.89399999 113 16 0
2.098 0.81199998 0.89099997 120 16 0
2.102 0.80800003 0.88999999 121 16 0
2.112 0.80599999 0.89099997 123 16 0
2.1129999 0.801 0.88800001 141 16 0
2.1140001 0.796 0.88499999 122 16 0
2.1210001 0.792 0.884 133 16 0
2.1240001 0.78799999 0.88200003 124 16 0
2.128 0.78299999 0.88 139 16 0
2.135 0.77999997 0.87900001 130 16 0
2.1359999 0.77499998 0.87599999 137 16 0
2.141 0.77100003 0.875 140 16 0
2.1429999 0.76599997 0.87199998 140 16 0
2.1500001 0.76300001 0.87099999 129 16 0
2.1500001 0.75700003 0.86699998 125 16 0
2.1600001 0.75400001 0.86699998 121 16 0
2.1630001 0.75 0.86400002 124 16 0
2.1689999 0.74599999 0.86199999 125 16 0
2.1719999 0.741 0.85900003 117 16 0
2.1819999 0.73900002 0.86000001 132 16 0
2.1849999 0.73400003 0.85699999 132 16 0
2.1900001 0.73000002 0.85399997 128 16 0
2.197 0.72600001 0.85299999 135 16 0
2.2 0.72100002 0.85000002 123 16 0
2.207 0.71799999 0.84799999 128 16 0
2.211 0.713 0.84500003 122 16 0
2.2190001 0.70999998 0.84399998 124 16 0
2.2249999 0.70599997 0.84200001 130 16 0
2.2279999 0.70099998 0.838 128 16 0
2.237 0.69800001 0.83700001 130 16 0
2.2409999 0.69300002 0.83399999 118 16 0
2.247 0.68900001 0.83099997 112 16 0
2.25 0.68400002 0.82800001 110 16 0
2.2579999 0.68000001 0.82599998 119 16 0
2.2690001 0.67799997 0.82499999 118 16 0
2.2709999 0.67199999 0.82099998 124 16 0
2.276 0.66799998 0.81800002 124 16 0
2.28 0.66299999 0.815 131 16 0
2.286 0.65899998 0.81199998 117 16 0
2.2920001 0.65499997 0.80900002 114 16 0
2.2950001 0.64999998 0.80500001 112 16 0
2.306 0.64700001 0.80400002 105 16 0
2.309 0.64200002 0.80000001 94 16 0
2.316 0.63800001 0.79699999 105 16 0
2.319 0.63300002 0.79299998 117 16 0
2.3280001 0.62900001 0.79100001 19 16 0
2.3640001 0.63300002 0.79799998 6 18 0
2.4100001 0.639 0.80699998 3 16 0
2.425 0.63700002 0.80699998 3 16 0
2.4519999 0.63800001 0.81099999 3 16 0
2.464 0.63499999 0.80900002 9 16 0
2.4779999 0.63200003 0.80800003 15 16 0
2.48 0.62599999 0.80299997 10 16 0
2.461 0.61500001 0.79100001 3 19 0
2.4159999 0.59799999 0.77100003 2 16 0
2.411 0.59100002 0.76300001 14 16 0
2.4100001 0.58499998 0.75700003 50 16 0
2.421 0.58099997 0.755 89 16 0
2.431 0.57800001 0.75199997 93 16 0
2.4389999 0.574 0.74900001 91 16 0
2.4419999 0.56800002 0.74400002 84 16 0
2.454 0.565 0.74199998 85 16 0
2.46 0.56099999 0.73799998 85 16 0
2.4679999 0.55699998 0.73400003 85 16 0
2.477 0.55299997 0.73100001 86 16 0
2.4809999 0.54799998 0.72600001 83 16 0
2.4949999 0.54500002 0.72399998 86 16 0
2.4979999 0.54000002 0.71899998 87 16 0
2.5120001 0.53600001 0.71700001 82 16 0
2.5179999 0.53200001 0.71200001 79 16 0
2.5250001 0.52700001 0.708 83 16 0
2.5350001 0.523 0.70499998 84 16 0
2.546 0.51999998 0.70099998 80 16 0
2.5550001 0.51599997 0.69800001 81 16 0
2.5710001 0.51300001 0.69599998 80 16 0
2.5769999 0.50800002 0.69099998 69 16 0
2.5840001 0.50400001 0.68599999 86 16 0
2.5910001 0.49900001 0.68199998 66 16 0
2.602 0.495 0.67799997 64 16 0
2.609 0.49000001 0.67299998 78 16 0
2.6229999 0.48699999 0.67000002 73 16 0
2.6289999 0.48199999 0.66500002 68 16 0
2.6370001 0.47799999 0.66100001 61 16 0
2.6459999 0.47400001 0.65600002 65 16 0
2.655 0.46900001 0.65200001 64 16 0
2.668 0.46599999 0.648 62 16 0
2.677 0.461 0.64399999 55 16 0
2.6860001 0.45699999 0.639 39 16 0
2.694 0.45199999 0.634 45 16 0
2.707 0.44800001 0.63 40 16 0
2.7190001 0.44400001 0.62599999 40 16 0
2.7309999 0.44 0.62199998 40 16 0
2.737 0.435 0.616 39 16 0
2.753 0.43200001 0.61299998 39 16 0
2.7579999 0.42699999 0.60699999 39 16 0
2.7709999 0.42300001 0.60299999 38 16 0
2.7820001 0.419 0.59799999 36 16 0
2.7939999 0.414 0.59299999 39 16 0
2.8069999 0.41 0.58899999 37 16 0
2.8199999 0.40599999 0.58399999 38 16 0
2.8239999 0.40099999 0.57800001 37 16 0
2.835 0.396 0.57200003 37 16 0
2.8540001 0.39300001 0.56900001 36 16 0
2.8659999 0.389 0.56400001 37 16 0
2.8710001 0.38299999 0.55699998 34 16 0
2.8900001 0.38 0.55400002 34 16 0
2.8989999 0.375 0.54799998 35 16 0
2.914 0.37099999 0.54299998 35 16 0
2.924 0.366 0.537 35 16 0
2.9419999 0.36199999 0.53299999 34 16 0
2.95 0.35699999 0.52600002 34 16 0
2.964 0.35299999 0.52100003 36 16 0
2.9779999 0.34900001 0.51599997 36 16 0
2.9960001 0.345 0.51099998 34 16 0
3.0009999 0.33899999 0.50400001 34 16 0
3.0150001 0.33500001 0.498 35 16 0
3.03 0.33000001 0.493 34 16 0
3.0409999 0.32600001 0.48699999 34 16 0
3.0580001 0.32100001 0.48100001 34 16 0
3.0669999 0.31600001 0.47499999 33 16 0
3.089 0.31200001 0.47 34 16 0
3.1010001 0.30700001 0.463 35 16 0
3.109 0.30199999 0.456 34 16 0
3.1329999 0.29800001 0.45199999 34 16 0
3.145 0.29300001 0.44499999 35 16 0
3.1559999 0.28799999 0.43799999 35 16 0
3.1789999 0.28400001 0.433 36 16 0
3.1900001 0.27900001 0.426 35 16 0
3.204 0.27399999 0.419 36 16 0
3.22 0.26899999 0.41299999 34 16 0
3.237 0.26499999 0.40599999 35 16 0
3.2449999 0.259 0.39899999 37 16 0
3.2679999 0.255 0.39300001 49 16 0
3.2709999 0.249 0.384 149 16 0
3.2720001 0.243 0.37599999 145 16 0
3.273 0.237 0.36700001 135 16 0
3.2750001 0.23100001 0.35800001 116 16 0
3.273 0.22400001 0.34900001 123 16 0
3.2750001 0.21799999 0.34099999 123 16 0
3.273 0.212 0.33199999 110 16 0
3.267 0.206 0.322 120 16 0
3.266 0.2 0.31400001 119 16 0
3.27 0.19400001 0.30500001 137 16 0
3.2639999 0.18799999 0.296 125 16 0
3.2650001 0.182 0.287 138 16 0
3.227 0.17399999 0.27500001 150 19 0
3.098 0.161 0.255 150 18 0
3.0409999 0.153 0.243 99 16 0
3.1170001 0.15099999 0.23999999 150 16 0
3.2219999 0.15000001 0.23999999 150 16 0
3.2550001 0.146 0.233 116 16 0
3.2590001 0.14 0.22499999 123 16 0
3.257 0.134 0.215 132 16 0
3.257 0.12800001 0.207 133 16 0
3.2579999 0.123 0.198 116 16 0
3.2579999 0.117 0.189 120 16 0
3.2590001 0.111 0.18000001 123 16 0
3.253 0.105 0.171 138 16 0
3.253 0.1 0.162 140 16 0
3.2550001 0.093999997 0.153 131 16 0
3.2520001 0.088 0.14399999 137 16 0
3.253 0.082999997 0.13500001 120 16 0
3.256 0.077 0.126 47 16 0
3.2739999 0.071999997 0.118 31 16 0
3.289 0.067000002 0.11 28 16 0
3.3169999 0.061999999 0.102 30 16 0
3.3210001 0.056000002 0.093000002 24 16 0
3.309 0.050000001 0.082999997 13 16 0
3.335 0.045000002 0.074000001 4 16 0
3.3540001 0.039000001 0.066 19 16 0
3.352 0.034000002 0.056000002 47 16 0
3.3529999 0.028000001 0.046999998 55 16 0
3.3410001 0.022 0.037999999 33 16 0
3.3299999 0.017000001 0.028000001 20 16 0
3.3139999 0.011 0.018999999 18 16 0
3.299 0.0060000001 0.0099999998 17 16 0
3.279 0 0.001 17 16 0
3.2650001 -0.0040000002 -0.0080000004 16 16 0
3.2490001 -0.0099999998 -0.016000001 17 16 0
3.233 -0.015 -0.025 22 16 0
3.23 -0.02 -0.034000002 40 16 0
3.2290001 -0.025 -0.043000001 89 16 0
3.224 -0.030999999 -0.052000001 112 16 0
3.227 -0.035999998 -0.061000001 111 16 0
3.223 -0.041000001 -0.07 98 16 0
3.22 -0.046 -0.079000004 105 16 0
3.223 -0.050999999 -0.088 126 16 0
3.223 -0.057 -0.097999997 115 16 0
3.217 -0.061999999 -0.107 142 16 0
3.217 -0.067000002 -0.116 127 16 0
3.217 -0.071999997 -0.125 58 16 0
3.2019999 -0.077 -0.133 35 16 0
3.1889999 -0.081 -0.142 26 16 0
3.175 -0.086000003 -0.15000001 25 16 0
3.1600001 -0.090999998 -0.15800001 26 16 0
3.1440001 -0.094999999 -0.16599999 25 16 0
3.1300001 -0.1 -0.175 24 16 0
3.119 -0.104 -0.183 25 16 0
3.1070001 -0.109 -0.191 23 16 0
3.0899999 -0.113 -0.199 24 16 0
3.079 -0.117 -0.207 23 16 0
3.0669999 -0.121 -0.215 23 16 0
3.053 -0.126 -0.223 24 16 0
3.0380001 -0.13 -0.23 24 16 0
3.029 -0.134 -0.23800001 24 16 0
3.0120001 -0.138 -0.24600001 25 16 0
2.993 -0.141 -0.25299999 23 16 0
2.9879999 -0.146 -0.26100001 24 16 0
2.9779999 -0.15000001 -0.26800001 24 16 0
2.9679999 -0.154 -0.27599999 23 16 0
2.95 -0.15700001 -0.28299999 23 16 0
2.941 -0.161 -0.29100001 24 16 0
2.9289999 -0.16500001 -0.29800001 24 16 0
2.9200001 -0.169 -0.30599999 24 16 0
2.9030001 -0.17200001 -0.31200001 24 16 0
2.8970001 -0.176 -0.31999999 24 16 0
2.881 -0.17900001 -0.32699999 23 16 0
2.875 -0.183 -0.33399999 24 16 0
2.8559999 -0.186 -0.34099999 23 16 0
2.8529999 -0.19 -0.34900001 24 16 0
2.8440001 -0.193 -0.35600001 23 16 0
2.8299999 -0.197 -0.36199999 23 16 0
2.823 -0.2 -0.37 23 16 0
2.809 -0.20299999 -0.37599999 23 16 0
2.796 -0.206 -0.38299999 26 16 0
2.7850001 -0.20900001 -0.389 27 16 0
2.78 -0.213 -0.39700001 26 16 0
2.77 -0.21600001 -0.40400001 26 16 0
2.763 -0.219 -0.41100001 26 16 0
2.75 -0.222 -0.417 26 16 0
2.74 -0.22499999 -0.42399999 26 16 0
2.7349999 -0.229 -0.43099999 27 16 0
2.7219999 -0.23100001 -0.43700001 26 16 0
2.7130001 -0.234 -0.44400001 27 16 0
2.7060001 -0.237 -0.45100001 26 16 0
2.7 -0.241 -0.458 27 16 0
2.6889999 -0.243 -0.46399999 26 16 0
2.6849999 -0.24699999 -0.472 26 16 0
2.678 -0.25 -0.479 27 16 0
2.665 -0.252 -0.484 27 16 0
2.654 -0.255 -0.491 26 16 0
2.6530001 -0.25799999 -0.498 27 16 0
2.638 -0.25999999 -0.50400001 26 16 0
2.6329999 -0.26300001 -0.51099998 26 16 0
2.6240001 -0.266 -0.51700002 27 16 0
2.612 -0.26800001 -0.52200001 28 16 0
2.602 -0.27000001 -0.528 29 16 0
2.5969999 -0.273 -0.53500003 28 16 0
2.585 -0.27500001 -0.54100001 28 16 0
2.579 -0.278 -0.54699999 29 16 0
2.572 -0.28099999 -0.55400002 30 16 0
2.5610001 -0.28299999 -0.55900002 30 16 0
2.5550001 -0.285 -0.56599998 28 16 0
2.5510001 -0.28799999 -0.57300001 28 16 0
2.539 -0.28999999 -0.57800001 28 16 0
2.533 -0.292 -0.58499998 29 16 0
2.529 -0.29499999 -0.59200001 30 16 0
2.5190001 -0.29699999 -0.597 28 16 0
2.513 -0.29899999 -0.60299999 28 16 0
2.5020001 -0.301 -0.60900003 27 16 0
2.4960001 -0.30399999 -0.61500001 28 16 0
2.4920001 -0.30599999 -0.62199998 28 16 0
2.48 -0.308 -0.62699997 28 16 0
2.4749999 -0.31 -0.63300002 28 16 0
2.4719999 -0.31299999 -0.63999999 29 16 0
2.46 -0.31400001 -0.64499998 30 16 0
2.4549999 -0.31600001 -0.65100002 28 16 0
2.448 -0.31799999 -0.65700001 29 16 0
2.4430001 -0.31999999 -0.66399997 29 16 0
2.431 -0.322 -0.66799998 28 16 0
2.427 -0.324 -0.67500001 46 16 0
2.4230001 -0.32600001 -0.68099999 42 16 0
2.4119999 -0.32699999 -0.68599999 42 16 0
2.4100001 -0.33000001 -0.69300002 45 16 0
2.408 -0.33199999 -0.69999999 56 16 0
2.3959999 -0.333 -0.704 47 16 0
2.391 -0.33500001 -0.70999998 41 16 0
2.382 -0.33700001 -0.71600002 42 16 0
2.3789999 -0.33899999 -0.722 45 16 0
2.375 -0.34099999 -0.72899997 49 16 0
2.3640001 -0.34200001 -0.73299998 50 16 0
2.3599999 -0.34400001 -0.74000001 48 16 0
2.3540001 -0.345 -0.745 46 16 0
2.3499999 -0.347 -0.75099999 48 16 0
2.346 -0.34900001 -0.75800002 49 16 0
2.3410001 -0.34999999 -0.764 52 16 0
2.3329999 -0.352 -0.76899999 53 16 0
2.3299999 -0.35299999 -0.77499998 53 16 0
2.3210001 -0.354 -0.77999997 48 16 0
2.3139999 -0.35499999 -0.78500003 56 16 0
2.312 -0.35699999 -0.792 59 16 0
2.3050001 -0.35800001 -0.79699999 57 16 0
2.299 -0.36000001 -0.80199999 56 16 0
2.2969999 -0.36199999 -0.80900002 56 16 0
2.2850001 -0.36199999 -0.81300002 54 16 0
2.2839999 -0.36399999 -0.81999999 51 16 0
2.28 -0.36500001 -0.82599998 54 16 0
2.2720001 -0.366 -0.82999998 45 16 0
2.27 -0.368 -0.83700001 52 16 0
2.2609999 -0.368 -0.84100002 50 16 0
2.2579999 -0.37 -0.84799999 52 16 0
2.2520001 -0.37 -0.85299999 52 16 0
2.2460001 -0.37099999 -0.85799998 36 16 0
2.2409999 -0.37200001 -0.86400002 53 16 0
2.2409999 -0.37400001 -0.87099999 54 16 0
2.2360001 -0.375 -0.87599999 56 16 0
2.234 -0.377 -0.88300002 53 16 0
2.2260001 -0.377 -0.88700002 43 16 0
2.22 -0.37799999 -0.89200002 41 16 0
2.214 -0.37799999 -0.89700001 44 16 0
2.21 -0.37900001 -0.903 44 16 0
2.2079999 -0.38100001 -0.90899998 42 16 0
2.2030001 -0.38100001 -0.91399997 47 16 0
2.1989999 -0.382 -0.92000002 46 16 0
2.1949999 -0.38299999 -0.926 47 16 0
2.194 -0.384 -0.93199998 60 16 0
2.1889999 -0.38499999 -0.93800002 67 16 0
2.1860001 -0.38600001 -0.94400001 91 16 0
2.1800001 -0.38600001 -0.94800001 89 16 0
2.178 -0.38699999 -0.95499998 89 16 0
2.1700001 -0.38699999 -0.958 88 16 0
2.1670001 -0.38800001 -0.96399999 91 16 0
2.161 -0.38800001 -0.96899998 89 16 0
2.1630001 -0.389 -0.977 99 16 0
2.1589999 -0.38999999 -0.98199999 99 16 0
2.155 -0.38999999 -0.98699999 93 16 0
2.1489999 -0.38999999 -0.99199998 88 16 0
2.1470001 -0.391 -0.99800003 92 16 0
2.1470001 -0.39199999 -1.005 94 16 0
2.138 -0.391 -1.008 87 16 0
2.1370001 -0.39199999 -1.015 88 16 0
2.135 -0.39199999 -1.02 82 16 0
2.125 -0.39199999 -1.022 83 16 0
2.1270001 -0.39300001 -1.031 84 16 0
2.1259999 -0.39300001 -1.0369999 95 16 0
2.119 -0.39300001 -1.04 82 16 0
2.119 -0.39399999 -1.0470001 84 16 0
2.1159999 -0.39399999 -1.053 86 16 0
2.1159999 -0.39399999 -1.0599999 83 16 0
2.1129999 -0.39500001 -1.0650001 82 16 0
2.1110001 -0.39500001 -1.0700001 75 16 0
2.1070001 -0.39399999 -1.075 81 16 0
2.109 -0.39500001 -1.0829999 87 16 0
2.1059999 -0.39500001 -1.0880001 86 16 0
2.0969999 -0.39399999 -1.09 86 16 0
2.0969999 -0.39399999 -1.097 88 16 0
2.0940001 -0.39399999 -1.102 78 16 0
2.0929999 -0.39399999 -1.108 78 16 0
2.0910001 -0.39399999 -1.113 84 16 0
2.095 -0.39500001 -1.122 81 16 0
2.085 -0.39300001 -1.124 75 16 0
2.085 -0.39399999 -1.13 77 16 0
2.0829999 -0.39300001 -1.135 72 16 0
2.0810001 -0.39300001 -1.14 74 16 0
2.0840001 -0.39300001 -1.148 70 16 0
2.0810001 -0.39300001 -1.153 76 16 0
2.0769999 -0.39199999 -1.1569999 75 16 0
2.0780001 -0.39199999 -1.164 83 16 0
2.076 -0.39199999 -1.169 68 16 0
2.073 -0.391 -1.174 72 16 0
2.073 -0.391 -1.1799999 71 16 0
2.072 -0.38999999 -1.1849999 77 16 0
2.0710001 -0.38999999 -1.1900001 73 16 0
2.0710001 -0.389 -1.196 70 16 0
2.069 -0.389 -1.201 72 16 0
2.0680001 -0.38800001 -1.206 71 16 0
2.0699999 -0.38800001 -1.2130001 74 16 0
2.0669999 -0.38699999 -1.2180001 69 16 0
2.0680001 -0.38600001 -1.224 68 16 0
2.0680001 -0.38499999 -1.229 73 16 0
2.066 -0.384 -1.234 69 16 0
2.0639999 -0.38299999 -1.238 65 16 0
2.063 -0.38299999 -1.244 67 16 0
2.0639999 -0.382 -1.25 69 16 0
2.063 -0.38100001 -1.2539999 79 16 0
2.0650001 -0.38 -1.261 84 16 0
2.069 -0.38 -1.268 77 16 0
2.066 -0.37799999 -1.272 75 16 0
2.0639999 -0.377 -1.276 74 16 0
2.0669999 -0.377 -1.283 77 16 0
2.066 -0.375 -1.2869999 77 16 0
2.069 -0.375 -1.294 76 16 0
2.066 -0.373 -1.2970001 77 16 0
2.069 -0.37200001 -1.304 82 16 0
2.0699999 -0.37099999 -1.309 78 16 0
2.0680001 -0.36899999 -1.313 73 16 0
2.066 -0.368 -1.316 74 16 0
2.0699999 -0.36700001 -1.323 75 16 0
2.072 -0.366 -1.329 82 16 0
2.0699999 -0.36399999 -1.332 80 16 0
2.0680001 -0.36199999 -1.335 82 16 0
2.0710001 -0.361 -1.341 79 16 0
2.0739999 -0.36000001 -1.347 73 16 0
2.073 -0.35800001 -1.351 78 16 0
2.0769999 -0.35699999 -1.357 73 16 0
2.0769999 -0.35499999 -1.362 82 16 0
2.0769999 -0.35299999 -1.365 73 16 0
2.079 -0.352 -1.3710001 74 16 0
2.0829999 -0.34999999 -1.377 71 16 0
2.0829999 -0.34900001 -1.38 67 16 0
2.0840001 -0.347 -1.3839999 71 16 0
2.085 -0.345 -1.388 68 16 0
2.0899999 -0.34400001 -1.395 72 16 0
2.095 -0.34200001 -1.402 67 16 0
2.0929999 -0.34 -1.403 64 16 0
2.096 -0.338 -1.408 69 16 0
2.1029999 -0.33700001 -1.416 63 16 0
2.102 -0.33399999 -1.418 57 16 0
2.102 -0.33199999 -1.421 58 16 0
2.108 -0.331 -1.428 59 16 0
2.1070001 -0.32800001 -1.429 56 16 0
2.1059999 -0.32499999 -1.431 57 16 0
2.115 -0.324 -1.4400001 60 19 0
2.1170001 -0.322 -1.443 52 16 0
2.1210001 -0.31999999 -1.448 58 16 0
2.1210001 -0.31799999 -1.45 58 16 0
2.1229999 -0.315 -1.4529999 53 16 0
2.128 -0.31299999 -1.459 51 16 0
2.131 -0.31099999 -1.462 49 16 0
2.132 -0.30899999 -1.465 49 16 0
2.1389999 -0.30700001 -1.471 46 19 0
2.145 -0.30500001 -1.476 47 16 0
2.148 -0.30199999 -1.479 44 16 0
2.152 -0.30000001 -1.484 50 16 0
2.155 -0.29699999 -1.4859999 48 16 0
2.1589999 -0.29499999 -1.49 50 16 0
2.161 -0.292 -1.492 46 16 0
2.1670001 -0.28999999 -1.497 40 19 0
2.1700001 -0.287 -1.499 37 16 0
2.1719999 -0.285 -1.502 39 16 0
2.1830001 -0.28299999 -1.5089999 40 18 0
2.188 -0.28099999 -1.513 39 16 0
2.1889999 -0.278 -1.513 40 16 0
2.1949999 -0.27500001 -1.518 41 16 0
2.197 -0.27200001 -1.5190001 42 16 0
2.201 -0.27000001 -1.521 39 16 0
2.2079999 -0.26699999 -1.526 41 16 0
2.214 -0.26499999 -1.529 40 16 0
2.217 -0.26199999 -1.531 44 16 0
2.221 -0.259 -1.533 42 16 0
2.2260001 -0.25600001 -1.535 37 16 0
2.234 -0.25400001 -1.54 38 16 0
2.237 -0.25099999 -1.541 38 16 0
2.24 -0.248 -1.541 37 16 0
2.247 -0.245 -1.545 37 16 0
2.2520001 -0.242 -1.5470001 41 16 0
2.2539999 -0.23899999 -1.5470001 38 16 0
2.266 -0.237 -1.553 37 19 0
2.2679999 -0.234 -1.552 37 16 0
2.2720001 -0.23100001 -1.553 37 16 0
2.2780001 -0.228 -1.5549999 36 16 0
2.2820001 -0.22499999 -1.556 35 16 0
2.2869999 -0.222 -1.557 36 16 0
2.296 -0.219 -1.5599999 37 16 0
2.3039999 -0.21600001 -1.563 37 16 0
2.3080001 -0.213 -1.563 35 16 0
2.312 -0.20999999 -1.563 37 16 0
2.322 -0.208 -1.566 36 16 0
2.326 -0.204 -1.566 37 16 0
2.3329999 -0.20100001 -1.568 37 16 0
2.3399999 -0.199 -1.569 39 16 0
2.3469999 -0.19599999 -1.571 40 16 0
2.3499999 -0.192 -1.569 40 16 0
2.3570001 -0.189 -1.5700001 40 16 0
2.359 -0.186 -1.567 39 16 0
2.369 -0.183 -1.5700001 38 16 0
2.3800001 -0.18099999 -1.574 41 16 0
2.3840001 -0.178 -1.572 40 16 0
2.3940001 -0.175 -1.574 40 16 0
2.4000001 -0.17200001 -1.574 40 16 0
2.405 -0.168 -1.573 40 16 0
2.4119999 -0.16599999 -1.573 41 16 0
2.418 -0.162 -1.572 41 16 0
2.4230001 -0.15899999 -1.571 40 16 0
2.4330001 -0.156 -1.572 39 16 0
2.441 -0.154 -1.572 40 16 0
2.447 -0.15000001 -1.571 39 16 0
2.454 -0.147 -1.5700001 40 16 0
2.4579999 -0.14399999 -1.568 41 16 0
2.467 -0.141 -1.568 41 16 0
2.474 -0.138 -1.566 40 16 0
2.483 -0.13600001 -1.567 42 16 0
2.4890001 -0.132 -1.5650001 41 16 0
2.493 -0.12899999 -1.561 40 16 0
2.503 -0.127 -1.562 41 16 0
2.5120001 -0.124 -1.561 42 16 0
2.5179999 -0.121 -1.558 43 16 0
2.526 -0.118 -1.558 43 16 0
2.53 -0.115 -1.554 42 16 0
2.5409999 -0.112 -1.554 42 16 0
2.552 -0.109 -1.554 42 16 0
2.552 -0.106 -1.548 45 16 0
2.5610001 -0.103 -1.546 42 16 0
2.5680001 -0.1 -1.544 53 16 0
2.575 -0.097000003 -1.541 85 16 0
2.589 -0.094999999 -1.543 150 16 0
2.5910001 -0.090999998 -1.5369999 150 16 0
2.5940001 -0.088 -1.531 150 16 0
2.596 -0.086000003 -1.526 150 16 0
2.602 -0.082999997 -1.522 150 16 0
2.598 -0.079999998 -1.512 150 16 0
2.6029999 -0.077 -1.508 150 16 0
2.5999999 -0.074000001 -1.499 150 16 0
2.602 -0.071000002 -1.492 150 16 0
2.605 -0.068000004 -1.4859999 150 16 0
2.6059999 -0.064999998 -1.479 150 16 0
2.609 -0.063000001 -1.474 150 16 0
2.6110001 -0.059999999 -1.467 150 16 0
2.6159999 -0.057 -1.462 150 16 0
2.609 -0.055 -1.45 150 16 0
2.6129999 -0.052000001 -1.4450001 150 16 0
2.6070001 -0.048999999 -1.433 150 16 0
2.609 -0.046999998 -1.426 150 16 0
2.6159999 -0.044 -1.4220001 150 16 0
2.6210001 -0.041999999 -1.4170001 150 16 0
2.622 -0.039000001 -1.409 89 16 0
2.625 -0.037 -1.403 43 16 0
2.6329999 -0.035 -1.399 36 16 0
2.6389999 -0.032000002 -1.3940001 31 16 0
2.6470001 -0.029999999 -1.39 27 16 0
2.655 -0.028000001 -1.386 28 16 0
2.6589999 -0.025 -1.3789999 28 16 0
2.668 -0.023 -1.375 28 16 0
2.671 -0.021 -1.368 28 16 0
2.678 -0.018999999 -1.363 28 16 0
2.688 -0.017000001 -1.36 29 16 0
2.6919999 -0.015 -1.353 29 16 0
2.6960001 -0.013 -1.346 29 16 0
2.7060001 -0.0099999998 -1.3430001 30 16 0
2.714 -0.0080000004 -1.3380001 30 16 0
2.717 -0.0060000001 -1.33 30 16 0
2.73 -0.0040000002 -1.3279999 26 16 0
2.7290001 -0.0020000001 -1.319 29 16 0
2.7409999 -0.001 -1.3150001 32 16 0
2.753 0 -1.312 42 16 0
2.7590001 0.0020000001 -1.306 70 16 0
2.763 0.0040000002 -1.299 108 16 0
2.7639999 0.0060000001 -1.29 142 16 0
2.77 0.0080000004 -1.283 150 16 0
2.7679999 0.0099999998 -1.273 150 16 0
2.7739999 0.011 -1.267 150 16 0
2.7750001 0.013 -1.258 150 16 0
2.773 0.015 -1.248 150 16 0
2.777 0.016000001 -1.24 150 16 0
2.78 0.017999999 -1.233 150 16 0
2.7809999 0.018999999 -1.224 150 16 0
2.783 0.021 -1.215 150 16 0
2.786 0.023 -1.207 150 16 0
2.7880001 0.024 -1.198 150 16 0
2.7950001 0.025 -1.192 150 16 0
2.7950001 0.027000001 -1.183 150 16 0
2.8 0.028000001 -1.175 150 16 0
2.8010001 0.029999999 -1.166 150 16 0
2.806 0.030999999 -1.159 150 16 0
2.8039999 0.032000002 -1.149 136 16 0
2.8169999 0.033 -1.145 124 16 0
2.8169999 0.035 -1.135 114 16 0
2.8199999 0.035999998 -1.127 111 16 0
2.8239999 0.037 -1.118 104 16 0
2.8269999 0.037999999 -1.11 104 16 0
2.8329999 0.039000001 -1.103 97 16 0
2.8329999 0.039999999 -1.094 104 16 0
2.8369999 0.041000001 -1.085 103 16 0
2.8399999 0.043000001 -1.077 114 16 0
2.8429999 0.044 -1.068 110 16 0
2.8499999 0.045000002 -1.061 122 16 0
2.849 0.045000002 -1.051 115 16 0
2.8570001 0.046 -1.044 129 16 0
2.859 0.046999998 -1.035 133 16 0
2.862 0.048 -1.027 138 16 0
2.8640001 0.048999999 -1.018 142 16 0
2.8659999 0.050000001 -1.0089999 150 16 0
2.869 0.050999999 -1 150 16 0
2.8770001 0.050999999 -0.99299997 150 16 0
2.878 0.052000001 -0.98400003 150 16 0
2.878 0.052999999 -0.97399998 150 16 0
2.881 0.052999999 -0.96499997 150 16 0
2.8870001 0.054000001 -0.95700002 150 16 0
2.8929999 0.055 -0.94999999 150 16 0
2.8940001 0.055 -0.94 150 16 0
2.8929999 0.056000002 -0.93000001 150 16 0
2.904 0.056000002 -0.92299998 150 16 0
2.9089999 0.057 -0.91600001 150 16 0
2.9100001 0.057 -0.90600002 150 16 0
2.914 0.057999998 -0.89700001 150 16 0
2.9170001 0.057999998 -0.88800001 150 16 0
2.9200001 0.059 -0.88 150 16 0
2.9230001 0.059 -0.87 150 16 0
2.9260001 0.059 -0.861 150 16 0
2.9289999 0.059999999 -0.85299999 150 16 0
2.9319999 0.059999999 -0.84299999 150 16 0
2.937 0.059999999 -0.83499998 150 16 0
2.9400001 0.061000001 -0.82599998 150 16 0
2.934 0.061000001 -0.815 117 16 0
2.928 0.061000001 -0.80299997 125 16 0
2.9360001 0.061000001 -0.79500002 116 16 0
2.937 0.061000001 -0.78600001 149 16 0
2.941 0.061000001 -0.77700001 150 16 0
2.944 0.061000001 -0.76800001 150 16 0
2.9489999 0.061000001 -0.759 150 16 0
2.9660001 0.061999999 -0.75400001 150 16 0
2.973 0.061999999 -0.745 150 16 0
2.9860001 0.061999999 -0.73900002 150 16 0
2.9820001 0.061999999 -0.72799999 135 16 0
2.9879999 0.061999999 -0.71899998 150 16 0
2.9890001 0.061999999 -0.70899999 150 16 0
2.9990001 0.061999999 -0.70200002 143 16 0
3.003 0.061999999 -0.69300002 150 16 0
3.0109999 0.061999999 -0.685 144 16 0
3.007 0.061000001 -0.67400002 150 16 0
3.013 0.061000001 -0.66500002 150 16 0
3.013 0.061000001 -0.65499997 149 16 0
3.02 0.061000001 -0.64700001 150 16 0
3.026 0.061000001 -0.63800001 150 16 0
3.027 0.059999999 -0.62800002 150 16 0
3.033 0.059999999 -0.61900002 150 16 0
3.036 0.059999999 -0.61000001 150 16 0
3.043 0.059 -0.60100001 150 16 0
3.0450001 0.059 -0.59100002 150 16 0
3.0550001 0.059 -0.583 150 16 0
3.049 0.057999998 -0.57200003 150 16 0
3.0639999 0.057999998 -0.565 143 16 0
3.066 0.057999998 -0.55500001 139 16 0
3.0739999 0.057 -0.546 134 16 0
3.0739999 0.057 -0.53600001 128 16 0
3.082 0.056000002 -0.52700001 123 16 0
3.0880001 0.056000002 -0.51800001 112 16 0
3.0899999 0.055 -0.509 104 16 0
3.0929999 0.055 -0.49900001 102 16 0
3.095 0.054000001 -0.48899999 89 16 0
3.099 0.052999999 -0.479 87 16 0
3.112 0.052999999 -0.47099999 74 16 0
3.108 0.052000001 -0.46000001 75 16 0
3.122 0.052000001 -0.45199999 69 16 0
3.1240001 0.050999999 -0.442 78 16 0
3.1240001 0.050000001 -0.43200001 50 16 0
3.1300001 0.048999999 -0.42300001 53 16 0
3.1340001 0.048999999 -0.41299999 55 16 0
3.142 0.048 -0.40400001 76 16 0
3.145 0.046999998 -0.39399999 76 16 0
3.151 0.046 -0.38499999 95 16 0
3.154 0.045000002 -0.375 117 16 0
3.158 0.045000002 -0.36500001 135 16 0
3.1630001 0.044 -0.35499999 138 16 0
3.164 0.043000001 -0.345 146 16 0
3.168 0.041999999 -0.33500001 150 16 0
3.174 0.041000001 -0.32499999 135 16 0
3.1819999 0.039999999 -0.31600001 132 16 0
3.1849999 0.039000001 -0.30599999 141 16 0
3.194 0.037999999 -0.296 120 16 0
3.197 0.037 -0.28600001 115 16 0
3.2030001 0.035999998 -0.27700001 123 16 0
3.211 0.035 -0.26699999 147 16 0
3.2119999 0.034000002 -0.25600001 137 16 0
3.221 0.033 -0.24699999 138 16 0
3.2219999 0.032000002 -0.236 119 16 0
3.234 0.029999999 -0.227 123 16 0
3.24 0.028999999 -0.21699999 103 16 0
3.2490001 0.028000001 -0.207 87 16 0
3.2460001 0.027000001 -0.19599999 58 16 0
3.2539999 0.026000001 -0.186 47 16 0
3.257 0.024 -0.176 43 16 0
3.2579999 0.023 -0.16599999 36 16 0
3.26 0.022 -0.155 30 16 0
3.267 0.02 -0.145 27 16 0
3.2639999 0.018999999 -0.13500001 24 16 0
3.2620001 0.017999999 -0.124 23 16 0
3.26 0.016000001 -0.113 21 16 0
3.263 0.015 -0.103 21 16 0
3.2609999 0.013 -0.093000002 20 16 0
3.266 0.012 -0.082000002 21 16 0
3.267 0.0099999998 -0.071999997 20 16 0
3.2650001 0.0089999996 -0.061000001 19 16 0
3.2690001 0.0070000002 -0.050999999 20 16 0
3.267 0.0060000001 -0.039999999 19 16 0
3.2690001 0.0040000002 -0.029999999 18 16 0
3.2709999 0.003 -0.018999999 18 16 0
3.2690001 0.001 -0.0089999996 18 16 0
3.277 0 0.001 19 16 0
3.277 -0.001 0.011 19 16 0
3.2720001 -0.003 0.022 19 16 0
3.2739999 -0.0049999999 0.032000002 19 16 0
3.2739999 -0.0060000001 0.041999999 22 16 0
3.2750001 -0.0080000004 0.052999999 25 16 0
3.276 -0.0099999998 0.063000001 30 16 0
3.2820001 -0.012 0.074000001 38 16 0
3.2850001 -0.013 0.085000001 49 16 0
3.2869999 -0.015 0.094999999 101 16 0
3.2909999 -0.017000001 0.106 126 16 0
3.3 -0.018999999 0.117 150 16 0
3.3010001 -0.021 0.127 150 16 0
3.309 -0.023 0.138 150 16 0
3.3150001 -0.025 0.149 150 16 0
3.3210001 -0.027000001 0.16 150 16 0
3.3280001 -0.028999999 0.171 150 16 0
3.332 -0.030999999 0.182 150 16 0
3.339 -0.033 0.192 150 16 0
3.348 -0.035 0.204 150 16 0
3.348 -0.037 0.214 150 16 0
3.3599999 -0.039000001 0.226 150 16 0
3.365 -0.041000001 0.237 150 16 0
3.3670001 -0.043000001 0.248 143 16 0
3.378 -0.045000002 0.259 140 16 0
3.381 -0.048 0.27000001 150 16 0
3.391 -0.050000001 0.28200001 150 16 0
3.3900001 -0.052000001 0.29300001 150 16 0
3.3970001 -0.054000001 0.30399999 150 16 0
3.402 -0.057 0.315 150 16 0
3.402 -0.059 0.32600001 150 16 0
3.402 -0.061000001 0.33700001 56 16 0
3.3840001 -0.063000001 0.34599999 38 16 0
3.3659999 -0.064999998 0.35499999 36 16 0
3.3410001 -0.067000002 0.36300001 36 16 0
3.3199999 -0.068999998 0.37099999 35 16 0
