# .PCD v0.7 - Point Cloud Data file format
VERSION 0.7
FIELDS x y z intensity tag line
SIZE 4 4 4 4 1 1
TYPE F F F F U U
COUNT 1 1 1 1 1 1
WIDTH 1355
HEIGHT 1
VIEWPOINT 0 0 0 1 0 0 0
POINTS 1355
DATA ascii
2.026 -0.41100001 -1.181 91 16 0
2.0309999 -0.40799999 -1.179 89 16 0
2.0409999 -0.40599999 -1.181 94 16 0
2.046 -0.403 -1.179 96 16 0
2.0550001 -0.40099999 -1.1799999 96 16 0
2.059 -0.398 -1.178 97 16 0
2.0669999 -0.39500001 -1.178 95 16 0
2.073 -0.39300001 -1.176 91 16 0
2.0810001 -0.391 -1.176 90 16 0
2.085 -0.38699999 -1.174 86 16 0
2.0880001 -0.384 -1.17 81 16 0
2.1010001 -0.38299999 -1.173 101 16 0
2.1029999 -0.37900001 -1.169 96 16 0
2.112 -0.377 -1.169 96 16 0
2.118 -0.37400001 -1.1670001 97 16 0
2.1259999 -0.37200001 -1.166 105 16 0
2.131 -0.36899999 -1.164 108 16 0
2.1429999 -0.36700001 -1.165 110 16 0
2.145 -0.36300001 -1.16 106 16 0
2.155 -0.361 -1.16 110 16 0
2.1619999 -0.35800001 -1.158 112 16 0
2.1670001 -0.35499999 -1.155 101 16 0
2.175 -0.35299999 -1.154 104 16 0
2.181 -0.34999999 -1.151 104 16 0
2.1889999 -0.34799999 -1.149 104 16 0
2.1930001 -0.34400001 -1.146 94 16 0
2.2 -0.34200001 -1.1440001 105 16 0
2.204 -0.33899999 -1.14 104 16 0
2.2119999 -0.336 -1.138 102 16 0
2.22 -0.33399999 -1.136 108 16 0
2.227 -0.331 -1.133 95 16 0
2.237 -0.32800001 -1.132 107 16 0
2.2420001 -0.32600001 -1.128 101 16 0
2.2460001 -0.322 -1.124 108 16 0
2.2550001 -0.31999999 -1.122 103 16 0
2.2609999 -0.317 -1.118 103 16 0
2.2720001 -0.315 -1.117 107 16 0
2.277 -0.31200001 -1.113 99 16 0
2.2850001 -0.30899999 -1.11 104 16 0
2.29 -0.30599999 -1.1059999 100 16 0
2.303 -0.30399999 -1.105 100 16 0
2.306 -0.301 -1.1 94 16 0
2.312 -0.29800001 -1.096 94 16 0
2.3210001 -0.296 -1.094 104 16 0
2.3239999 -0.29300001 -1.0880001 101 16 0
2.3410001 -0.29100001 -1.089 90 16 0
2.3469999 -0.28799999 -1.085 85 16 0
2.352 -0.285 -1.08 90 16 0
2.3610001 -0.28299999 -1.077 80 16 0
2.3670001 -0.28 -1.073 77 16 0
2.3759999 -0.278 -1.0700001 93 16 0
2.3800001 -0.27500001 -1.064 86 16 0
2.3900001 -0.27200001 -1.061 87 16 0
2.3959999 -0.27000001 -1.057 80 16 0
2.402 -0.26699999 -1.052 84 16 0
2.414 -0.26499999 -1.05 91 16 0
2.4189999 -0.26199999 -1.045 87 16 0
2.428 -0.259 -1.041 83 16 0
2.437 -0.257 -1.0369999 84 16 0
2.4400001 -0.25400001 -1.031 85 16 0
2.447 -0.25099999 -1.026 76 16 0
2.4530001 -0.248 -1.021 76 16 0
2.464 -0.24600001 -1.018 52 16 0
2.4690001 -0.243 -1.012 50 16 0
2.4849999 -0.242 -1.011 42 16 0
2.49 -0.23899999 -1.005 46 16 0
2.4949999 -0.236 -1 41 16 0
2.4990001 -0.233 -0.99299997 44 16 0
2.513 -0.23100001 -0.991 54 16 0
2.516 -0.228 -0.98400003 55 16 0
2.5280001 -0.226 -0.98100001 55 16 0
2.5409999 -0.22400001 -0.97799999 45 16 0
2.5450001 -0.221 -0.97100002 45 16 0
2.5480001 -0.219 -0.96399999 45 16 0
2.559 -0.21600001 -0.95999998 45 16 0
2.562 -0.214 -0.95300001 45 16 0
2.5699999 -0.211 -0.94800001 47 16 0
2.576 -0.208 -0.94199997 44 16 0
2.5829999 -0.206 -0.93599999 43 16 0
2.589 -0.20299999 -0.93000001 44 16 0
2.595 -0.20100001 -0.92400002 43 16 0
2.605 -0.199 -0.91900003 43 16 0
2.612 -0.19599999 -0.91299999 39 16 0
2.6210001 -0.19400001 -0.90799999 44 16 0
2.6270001 -0.192 -0.90200001 44 16 0
2.6340001 -0.189 -0.89499998 44 16 0
2.645 -0.18700001 -0.89099997 40 16 0
2.6500001 -0.184 -0.884 36 16 0
2.6589999 -0.182 -0.87800002 38 16 0
2.668 -0.18000001 -0.87300003 39 16 0
2.674 -0.177 -0.866 39 16 0
2.6800001 -0.175 -0.85900003 35 16 0
2.687 -0.17299999 -0.85299999 36 16 0
2.6930001 -0.17 -0.84600002 34 16 0
2.7019999 -0.168 -0.83999997 33 16 0
2.7149999 -0.16599999 -0.83499998 37 16 0
2.7219999 -0.164 -0.829 34 16 0
2.7290001 -0.162 -0.82200003 35 16 0
2.7360001 -0.15899999 -0.815 33 16 0
2.74 -0.15700001 -0.80699998 33 16 0
2.7509999 -0.155 -0.80199999 34 16 0
2.76 -0.153 -0.796 35 16 0
2.7650001 -0.15000001 -0.78799999 35 16 0
2.7739999 -0.148 -0.78200001 34 16 0
2.779 -0.146 -0.77399999 35 16 0
2.7909999 -0.14399999 -0.76800001 34 16 0
2.7950001 -0.142 -0.76099998 34 16 0
2.802 -0.14 -0.75300002 36 16 0
2.8069999 -0.13699999 -0.74599999 35 16 0
2.816 -0.13500001 -0.73900002 34 16 0
2.8269999 -0.133 -0.73299998 35 16 0
2.8299999 -0.131 -0.72399998 35 16 0
2.8410001 -0.12899999 -0.71799999 36 16 0
2.852 -0.127 -0.71100003 36 16 0
2.855 -0.125 -0.70300001 34 16 0
2.8629999 -0.123 -0.69599998 35 16 0
2.8729999 -0.121 -0.68900001 34 16 0
2.881 -0.119 -0.68099999 34 16 0
2.888 -0.117 -0.67400002 35 16 0
2.8970001 -0.115 -0.66600001 33 16 0
2.902 -0.113 -0.65799999 35 16 0
2.9100001 -0.111 -0.65100002 33 16 0
2.915 -0.109 -0.64200002 35 16 0
2.9219999 -0.107 -0.634 34 16 0
2.934 -0.105 -0.62699997 35 16 0
2.9389999 -0.103 -0.61900002 36 16 0
2.9419999 -0.101 -0.61000001 35 16 0
2.95 -0.098999999 -0.602 35 16 0
2.9690001 -0.097000003 -0.597 36 16 0
2.9779999 -0.094999999 -0.58899999 35 16 0
2.98 -0.093000002 -0.579 35 16 0
2.9909999 -0.090999998 -0.57200003 36 16 0
2.9990001 -0.089000002 -0.56400001 36 16 0
3.0039999 -0.088 -0.55500001 36 16 0
3.0120001 -0.086000003 -0.54699999 32 16 0
3.02 -0.083999999 -0.53799999 32 16 0
3.0280001 -0.082000002 -0.52999997 34 16 0
3.033 -0.079999998 -0.52100003 44 16 0
3.0380001 -0.078000002 -0.51200002 66 16 0
3.046 -0.077 -0.50400001 117 16 0
3.049 -0.075000003 -0.49399999 150 16 0
3.053 -0.072999999 -0.48500001 150 16 0
3.0580001 -0.071000002 -0.47600001 150 16 0
3.0599999 -0.068999998 -0.46700001 150 16 0
3.0680001 -0.067000002 -0.458 150 16 0
3.0669999 -0.064999998 -0.44800001 150 16 0
3.0710001 -0.064000003 -0.43900001 150 16 0
3.079 -0.061999999 -0.43000001 150 16 0
3.076 -0.059999999 -0.41999999 150 16 0
3.0829999 -0.057999998 -0.41 150 16 0
3.0880001 -0.057 -0.40099999 150 16 0
3.085 -0.055 -0.391 150 16 0
3.0969999 -0.052999999 -0.382 150 16 0
3.098 -0.052000001 -0.373 150 16 0
3.102 -0.050000001 -0.36300001 150 16 0
3.1029999 -0.048 -0.35299999 150 16 0
3.1059999 -0.046999998 -0.34400001 150 16 0
3.109 -0.045000002 -0.33399999 150 16 0
3.1110001 -0.043000001 -0.324 150 16 0
3.119 -0.041999999 -0.315 150 16 0
3.122 -0.039999999 -0.30500001 150 16 0
3.1240001 -0.039000001 -0.29499999 150 16 0
3.1300001 -0.037 -0.28600001 150 16 0
3.132 -0.035999998 -0.27599999 150 16 0
3.1389999 -0.034000002 -0.26699999 150 16 0
3.1370001 -0.033 -0.25600001 150 16 0
3.141 -0.030999999 -0.24600001 150 16 0
3.145 -0.029999999 -0.237 150 16 0
3.1459999 -0.028000001 -0.227 150 16 0
3.155 -0.027000001 -0.21699999 150 16 0
3.152 -0.025 -0.207 150 16 0
3.1619999 -0.024 -0.197 150 16 0
3.1619999 -0.022 -0.18700001 113 16 0
3.1730001 -0.021 -0.178 109 16 0
3.1730001 -0.02 -0.167 62 16 0
3.1800001 -0.017999999 -0.15700001 50 16 0
3.1819999 -0.017000001 -0.147 45 16 0
3.1830001 -0.016000001 -0.13699999 35 16 0
3.194 -0.014 -0.127 31 16 0
3.201 -0.013 -0.117 29 16 0
3.2060001 -0.012 -0.107 25 16 0
3.21 -0.011 -0.097000003 23 16 0
3.214 -0.0089999996 -0.086999997 22 16 0
3.2249999 -0.0080000004 -0.077 21 16 0
3.23 -0.0070000002 -0.067000002 20 16 0
3.2420001 -0.0060000001 -0.056000002 19 16 0
3.2479999 -0.0049999999 -0.046 18 16 0
3.2509999 -0.003 -0.035 18 16 0
3.2579999 -0.0020000001 -0.025 18 16 0
3.267 -0.001 -0.015 19 16 0
3.2720001 0 -0.0040000002 18 16 0
3.2809999 0 0.0049999999 19 16 0
3.29 0.001 0.016000001 19 16 0
3.2939999 0.0020000001 0.027000001 19 16 0
3.2980001 0.003 0.037 19 16 0
3.3099999 0.0040000002 0.048 19 16 0
3.313 0.0060000001 0.059 20 16 0
3.322 0.0070000002 0.07 20 16 0
3.325 0.0080000004 0.081 21 16 0
3.332 0.0089999996 0.090999998 33 16 0
3.316 0.0099999998 0.102 38 16 0
3.289 0.0099999998 0.112 56 16 0
3.283 0.011 0.122 150 16 0
3.283 0.012 0.132 150 16 0
3.2920001 0.013 0.14300001 150 16 0
3.296 0.014 0.154 150 16 0
3.3039999 0.015 0.16500001 150 16 0
3.3069999 0.016000001 0.176 150 16 0
3.3099999 0.017000001 0.18700001 150 16 0
3.316 0.017000001 0.198 150 16 0
3.322 0.017999999 0.20900001 150 16 0
3.325 0.018999999 0.22 150 16 0
3.3299999 0.02 0.23100001 150 16 0
3.332 0.02 0.242 150 16 0
3.3380001 0.021 0.25299999 150 16 0
3.3440001 0.022 0.26499999 150 16 0
3.346 0.023 0.27599999 150 16 0
3.3529999 0.023 0.287 150 16 0
3.3540001 0.024 0.29800001 150 16 0
3.3599999 0.025 0.31 150 16 0
3.3610001 0.025 0.32100001 150 16 0
3.365 0.026000001 0.33199999 150 16 0
3.368 0.026000001 0.34299999 150 16 0
3.3570001 0.027000001 0.35299999 46 16 0
3.3399999 0.027000001 0.36199999 38 16 0
3.319 0.028000001 0.37099999 37 16 0
3.3 0.028000001 0.37900001 37 16 0
3.2809999 0.028000001 0.38800001 37 16 0
3.26 0.028000001 0.396 44 16 0
3.2420001 0.028999999 0.40400001 44 16 0
3.22 0.028999999 0.412 43 16 0
3.2019999 0.028999999 0.41999999 45 16 0
3.1860001 0.028999999 0.42899999 43 16 0
3.168 0.028999999 0.43700001 47 16 0
3.148 0.029999999 0.44400001 41 16 0
3.131 0.029999999 0.45199999 43 16 0
3.1110001 0.029999999 0.45899999 41 16 0
3.0899999 0.029999999 0.46599999 44 16 0
3.0769999 0.029999999 0.47499999 43 16 0
3.059 0.029999999 0.48199999 42 16 0
3.036 0.029999999 0.48800001 44 16 0
3.0280001 0.029999999 0.49700001 44 16 0
3.0109999 0.029999999 0.50400001 43 16 0
2.993 0.029999999 0.51099998 40 16 0
2.9809999 0.029999999 0.51899999 40 16 0
2.9649999 0.029999999 0.52600002 42 16 0
2.9449999 0.029999999 0.53200001 41 16 0
2.9300001 0.028999999 0.53899997 41 16 0
2.915 0.028999999 0.54500002 41 16 0
2.8870001 0.028999999 0.55000001 50 16 0
2.8829999 0.028999999 0.55900002 43 16 0
2.859 0.028999999 0.56300002 64 16 0
2.849 0.028000001 0.57099998 67 16 0
2.8380001 0.028000001 0.57800001 66 16 0
2.829 0.028000001 0.58600003 55 16 0
2.8139999 0.028000001 0.59200001 48 16 0
2.7969999 0.027000001 0.597 48 16 0
2.7850001 0.027000001 0.60399997 56 16 0
2.7750001 0.027000001 0.611 53 16 0
2.7609999 0.026000001 0.61699998 55 16 0
2.747 0.026000001 0.62300003 59 16 0
2.7290001 0.026000001 0.62800002 49 16 0
2.721 0.025 0.63499999 59 16 0
2.697 0.025 0.639 75 16 0
2.688 0.024 0.64600003 71 16 0
2.674 0.024 0.65100002 78 16 0
2.658 0.023 0.65600002 85 16 0
2.655 0.023 0.66399997 64 16 0
2.645 0.023 0.671 56 16 0
2.631 0.022 0.676 72 16 0
2.6210001 0.022 0.68199998 68 16 0
2.6059999 0.021 0.68699998 78 16 0
2.5940001 0.02 0.69300002 83 16 0
2.5810001 0.02 0.69800001 105 16 0
2.5669999 0.018999999 0.70200002 113 16 0
2.553 0.018999999 0.70700002 123 16 0
2.536 0.017999999 0.71100003 118 16 0
2.526 0.017000001 0.71700001 150 16 0
2.517 0.017000001 0.722 150 16 0
2.5020001 0.016000001 0.727 150 16 0
2.4949999 0.015 0.73299998 150 16 0
2.4790001 0.015 0.73699999 150 16 0
2.47 0.014 0.74199998 150 16 0
2.454 0.013 0.74599999 150 16 0
2.4449999 0.012 0.75099999 150 16 0
2.434 0.012 0.75599998 150 16 0
2.427 0.011 0.76200002 150 16 0
2.4170001 0.0099999998 0.76700002 150 16 0
2.4059999 0.0089999996 0.77200001 150 16 0
2.3989999 0.0080000004 0.77700001 150 16 0
2.3900001 0.0080000004 0.78299999 150 16 0
2.3800001 0.0070000002 0.78799999 150 16 0
2.3670001 0.0060000001 0.79100001 150 16 0
2.3629999 0.0049999999 0.79799998 150 16 0
2.349 0.0040000002 0.801 150 16 0
2.3429999 0.003 0.80699998 150 16 0
2.336 0.0020000001 0.81199998 150 16 0
2.3239999 0.001 0.81599998 150 16 0
2.3099999 0 0.81900001 150 16 0
2.3 0 0.82300001 150 16 0
2.2920001 -0.001 0.82800001 150 16 0
2.286 -0.0020000001 0.83399999 150 16 0
2.2739999 -0.003 0.83700001 150 16 0
2.2639999 -0.0040000002 0.84100002 150 16 0
2.257 -0.0049999999 0.84600002 150 16 0
2.243 -0.0060000001 0.84799999 150 16 0
2.233 -0.0070000002 0.852 150 16 0
2.2260001 -0.0080000004 0.85699999 150 16 0
2.2190001 -0.0089999996 0.86199999 150 16 0
2.2079999 -0.0099999998 0.86500001 150 16 0
2.2019999 -0.012 0.87 150 16 0
2.191 -0.013 0.87300003 150 16 0
2.1789999 -0.014 0.875 150 16 0
2.1719999 -0.015 0.88 150 16 0
2.165 -0.017000001 0.884 150 16 0
2.1530001 -0.017999999 0.88599998 150 16 0
2.141 -0.018999999 0.889 150 16 0
2.1359999 -0.02 0.89399999 150 16 0
2.1300001 -0.022 0.89899999 150 16 0
2.1240001 -0.023 0.903 150 16 0
2.112 -0.024 0.90499997 150 16 0
2.105 -0.025 0.90899998 150 16 0
2.095 -0.027000001 0.912 150 16 0
2.092 -0.028000001 0.917 150 16 0
2.082 -0.028999999 0.92000002 150 16 0
2.0769999 -0.030999999 0.92400002 150 16 0
2.069 -0.032000002 0.92799997 150 16 0
2.062 -0.034000002 0.93199998 150 16 0
2.056 -0.035 0.93599999 150 16 0
2.04 -0.037 0.935 150 16 0
2.0369999 -0.037999999 0.94 150 16 0
2.027 -0.039000001 0.94199997 150 16 0
2.0220001 -0.041000001 0.94700003 150 16 0
2.0150001 -0.043000001 0.94999999 150 16 0
2.007 -0.044 0.95300001 150 16 0
1.9960001 -0.045000002 0.954 150 16 0
1.988 -0.046999998 0.95599997 150 16 0
1.9809999 -0.048999999 0.95999998 150 16 0
1.974 -0.050000001 0.963 150 16 0
1.9680001 -0.052000001 0.96600002 150 16 0
1.962 -0.052999999 0.97000003 150 16 0
1.956 -0.055 0.97299999 150 16 0
1.9450001 -0.057 0.97399998 150 16 0
1.939 -0.057999998 0.977 150 16 0
1.933 -0.059999999 0.98000002 150 16 0
1.927 -0.061999999 0.98299998 150 16 0
1.918 -0.063000001 0.98500001 150 16 0
1.913 -0.064999998 0.98799998 150 16 0
1.906 -0.067000002 0.99000001 150 16 0
1.902 -0.068000004 0.99400002 150 16 0
1.893 -0.07 0.995 150 16 0
1.89 -0.071999997 0.99900001 150 16 0
1.8789999 -0.074000001 0.99900001 150 16 0
1.874 -0.075000003 1.002 150 16 0
1.87 -0.077 1.006 150 16 0
1.858 -0.079000004 1.005 150 16 0
1.855 -0.081 1.0089999 150 16 0
1.852 -0.082999997 1.013 150 16 0
1.849 -0.085000001 1.017 150 16 0
1.84 -0.086000003 1.017 150 16 0
1.839 -0.088 1.022 150 16 0
1.827 -0.090000004 1.021 150 16 0
1.819 -0.092 1.022 150 16 0
1.8200001 -0.093999997 1.028 150 16 0
1.813 -0.096000001 1.029 150 16 0
1.808 -0.097999997 1.031 150 16 0
1.801 -0.1 1.0319999 150 16 0
1.8 -0.102 1.036 150 16 0
1.791 -0.104 1.0369999 150 16 0
1.789 -0.106 1.04 150 16 0
1.773 -0.107 1.036 150 19 0
1.767 -0.109 1.0369999 150 16 0
1.7640001 -0.111 1.04 150 16 0
1.762 -0.113 1.044 150 16 0
1.755 -0.115 1.044 150 16 0
1.755 -0.118 1.049 150 16 0
1.751 -0.12 1.051 150 16 0
1.7460001 -0.122 1.052 150 16 0
1.744 -0.124 1.0549999 150 16 0
1.739 -0.126 1.057 150 16 0
1.7359999 -0.12800001 1.059 150 16 0
1.734 -0.131 1.062 150 16 0
1.73 -0.133 1.064 150 16 0
1.728 -0.13500001 1.067 150 16 0
1.72 -0.13699999 1.066 150 16 0
1.7180001 -0.139 1.069 150 16 0
1.715 -0.142 1.071 150 16 0
1.712 -0.14399999 1.073 150 16 0
1.706 -0.146 1.073 150 16 0
1.697 -0.148 1.071 150 16 0
1.699 -0.15000001 1.076 150 16 0
1.6950001 -0.152 1.077 150 16 0
1.691 -0.155 1.0779999 150 16 0
1.688 -0.15700001 1.08 150 16 0
1.683 -0.15899999 1.079 150 16 0
1.6799999 -0.161 1.081 150 16 0
1.674 -0.163 1.08 150 16 0
1.678 -0.16599999 1.086 150 16 0
1.676 -0.168 1.0880001 150 16 0
1.6799999 -0.171 1.094 150 16 0
1.673 -0.17299999 1.092 150 16 0
1.668 -0.175 1.092 150 16 0
1.661 -0.177 1.09 150 16 0
1.659 -0.18000001 1.091 150 16 0
1.659 -0.182 1.094 150 16 0
1.6569999 -0.185 1.095 150 16 0
1.655 -0.18700001 1.096 150 16 0
1.652 -0.189 1.097 150 16 0
1.648 -0.191 1.096 150 16 0
1.648 -0.19400001 1.099 150 16 0
1.645 -0.19599999 1.098 150 16 0
1.637 -0.198 1.095 150 16 0
1.643 -0.20100001 1.101 150 16 0
1.635 -0.20299999 1.098 150 16 0
1.633 -0.205 1.099 150 16 0
1.632 -0.207 1.1 150 16 0
1.631 -0.20999999 1.101 150 16 0
1.6289999 -0.212 1.101 150 16 0
1.63 -0.215 1.103 150 16 0
1.6289999 -0.21699999 1.104 150 16 0
1.625 -0.219 1.103 150 16 0
1.625 -0.222 1.104 150 16 0
1.623 -0.22400001 1.103 150 16 0
1.6210001 -0.226 1.104 150 16 0
1.626 -0.229 1.107 150 16 0
1.6210001 -0.23100001 1.105 150 16 0
1.62 -0.234 1.1059999 150 16 0
1.619 -0.236 1.105 150 16 0
1.618 -0.23800001 1.1059999 150 16 0
1.618 -0.241 1.1059999 150 16 0
1.62 -0.243 1.108 150 16 0
1.618 -0.24600001 1.107 150 16 0
1.618 -0.248 1.107 150 16 0
1.618 -0.25 1.108 150 16 0
1.618 -0.25299999 1.108 150 16 0
1.618 -0.255 1.108 150 16 0
1.615 -0.257 1.1059999 150 16 0
1.617 -0.25999999 1.107 150 16 0
1.617 -0.26199999 1.107 150 16 0
1.619 -0.264 1.108 150 16 0
1.619 -0.26699999 1.107 150 16 0
1.617 -0.26899999 1.1059999 150 16 0
1.625 -0.27200001 1.1109999 150 18 0
1.624 -0.27399999 1.109 150 16 0
1.627 -0.27700001 1.11 150 16 0
1.624 -0.27900001 1.108 150 16 0
1.6289999 -0.28200001 1.11 150 16 0
1.628 -0.28299999 1.108 150 16 0
1.63 -0.28600001 1.109 150 16 0
1.631 -0.28799999 1.108 150 16 0
1.632 -0.29100001 1.108 150 16 0
1.6289999 -0.292 1.104 150 16 0
1.633 -0.29499999 1.1059999 150 16 0
1.6339999 -0.29699999 1.105 150 16 0
1.637 -0.29899999 1.105 150 16 0
1.637 -0.301 1.104 150 16 0
1.637 -0.303 1.102 150 16 0
1.642 -0.30599999 1.104 150 16 0
1.643 -0.308 1.102 150 16 0
1.6440001 -0.31 1.1 150 16 0
1.6440001 -0.31200001 1.098 150 16 0
1.647 -0.31400001 1.098 150 16 0
1.649 -0.31600001 1.097 150 16 0
1.649 -0.31799999 1.095 150 16 0
1.652 -0.31999999 1.095 150 16 0
1.652 -0.322 1.092 150 16 0
1.659 -0.32499999 1.094 150 19 0
1.6619999 -0.32699999 1.094 150 16 0
1.6619999 -0.32800001 1.09 150 16 0
1.664 -0.33000001 1.089 150 16 0
1.669 -0.33199999 1.089 150 16 0
1.675 -0.33500001 1.09 150 16 0
1.6799999 -0.33700001 1.091 150 16 0
1.681 -0.33899999 1.0880001 150 16 0
1.6799999 -0.34 1.084 150 16 0
1.687 -0.34299999 1.086 150 16 0
1.6900001 -0.345 1.084 150 16 0
1.691 -0.34599999 1.082 150 16 0
1.694 -0.34799999 1.08 150 16 0
1.697 -0.34999999 1.0779999 150 16 0
1.7 -0.35100001 1.076 150 16 0
1.702 -0.35299999 1.074 150 16 0
1.704 -0.354 1.071 150 16 0
1.707 -0.35600001 1.069 150 16 0
1.711 -0.35800001 1.068 150 16 0
1.715 -0.359 1.066 150 16 0
1.716 -0.36000001 1.063 150 16 0
1.721 -0.36199999 1.062 150 16 0
1.722 -0.36300001 1.058 150 16 0
1.725 -0.36500001 1.056 150 16 0
1.7410001 -0.36899999 1.062 150 18 0
1.748 -0.37099999 1.061 150 16 0
1.75 -0.37200001 1.058 150 16 0
1.756 -0.37400001 1.057 150 16 0
1.7640001 -0.37599999 1.058 144 16 0
1.77 -0.37799999 1.057 115 16 0
1.776 -0.38 1.0549999 110 16 0
1.779 -0.38100001 1.052 142 16 0
1.781 -0.382 1.048 150 16 0
1.786 -0.38299999 1.0470001 150 16 0
1.789 -0.384 1.044 150 16 0
1.794 -0.38600001 1.0420001 150 16 0
1.801 -0.38699999 1.04 150 16 0
1.803 -0.38800001 1.036 150 16 0
1.809 -0.389 1.035 150 16 0
1.817 -0.391 1.034 150 16 0
1.819 -0.39199999 1.03 150 16 0
1.823 -0.39300001 1.027 150 16 0
1.8279999 -0.39399999 1.025 150 16 0
1.837 -0.396 1.024 150 16 0
1.844 -0.39700001 1.023 150 16 0
1.85 -0.398 1.021 150 16 0
1.852 -0.39899999 1.016 150 16 0
1.858 -0.40000001 1.0140001 150 16 0
1.867 -0.40099999 1.013 150 16 0
1.8710001 -0.40200001 1.01 150 16 0
1.8789999 -0.403 1.008 150 16 0
1.886 -0.405 1.006 150 16 0
1.893 -0.40599999 1.0039999 150 16 0
1.898 -0.40599999 1 150 16 0
1.903 -0.40700001 0.99800003 150 16 0
1.91 -0.40799999 0.995 150 16 0
1.9170001 -0.40900001 0.99299997 150 16 0
1.924 -0.41 0.99000001 150 16 0
1.9299999 -0.41 0.98699999 150 16 0
1.937 -0.41100001 0.98500001 150 16 0
1.941 -0.41100001 0.98100001 150 16 0
1.946 -0.412 0.977 150 16 0
1.951 -0.412 0.97299999 150 16 0
1.9630001 -0.414 0.97299999 150 16 0
1.972 -0.41499999 0.97100002 150 16 0
1.979 -0.41600001 0.96799999 150 16 0
1.99 -0.417 0.96700001 150 16 0
1.997 -0.417 0.96399999 150 16 0
2.0009999 -0.417 0.95999998 150 16 0
2.013 -0.41800001 0.95899999 150 16 0
2.0150001 -0.41800001 0.95300001 150 16 0
2.026 -0.419 0.95200002 150 16 0
2.033 -0.419 0.949 150 16 0
2.0409999 -0.41999999 0.94599998 150 16 0
2.0469999 -0.41999999 0.94199997 150 16 0
2.0580001 -0.421 0.94 150 16 0
2.0610001 -0.41999999 0.935 150 16 0
2.072 -0.421 0.93300003 150 16 0
2.075 -0.41999999 0.92799997 150 16 0
2.086 -0.421 0.92500001 144 16 0
2.092 -0.421 0.921 150 16 0
2.1010001 -0.421 0.91900003 150 16 0
2.108 -0.421 0.91500002 119 16 0
2.1129999 -0.41999999 0.91000003 115 16 0
2.1210001 -0.41999999 0.90600002 125 16 0
2.1329999 -0.421 0.90399998 116 16 0
2.141 -0.421 0.90100002 109 16 0
2.154 -0.421 0.89899999 112 16 0
2.1589999 -0.421 0.89399999 123 16 0
2.165 -0.41999999 0.88999999 113 16 0
2.1719999 -0.419 0.88499999 109 16 0
2.184 -0.41999999 0.88300002 110 16 0
2.1949999 -0.41999999 0.88099998 97 16 0
2.2049999 -0.41999999 0.87699997 99 16 0
2.2119999 -0.419 0.87300003 117 16 0
2.22 -0.419 0.86900002 108 16 0
2.227 -0.41800001 0.86400002 81 16 0
2.2390001 -0.41800001 0.861 85 16 0
2.2420001 -0.417 0.85500002 79 16 0
2.2539999 -0.417 0.852 83 16 0
2.266 -0.417 0.84899998 84 16 0
2.2750001 -0.41600001 0.84500003 74 16 0
2.2839999 -0.41600001 0.84100002 81 16 0
2.2939999 -0.41499999 0.838 80 16 0
2.3050001 -0.41499999 0.83399999 82 16 0
2.312 -0.414 0.829 79 16 0
2.3180001 -0.412 0.824 80 16 0
2.3310001 -0.412 0.82099998 82 16 0
2.336 -0.41100001 0.815 83 16 0
2.352 -0.41100001 0.81300002 80 16 0
2.3610001 -0.41 0.80900002 72 16 0
2.368 -0.40799999 0.80299997 69 16 0
2.378 -0.40700001 0.79900002 64 16 0
2.3829999 -0.40599999 0.79299998 77 16 0
2.398 -0.40599999 0.79000002 65 16 0
2.4070001 -0.40400001 0.78600001 68 16 0
2.4159999 -0.403 0.77999997 59 16 0
2.425 -0.40200001 0.77600002 67 16 0
2.4330001 -0.40000001 0.77100003 60 16 0
2.444 -0.39899999 0.76599997 62 16 0
2.461 -0.39899999 0.764 68 16 0
2.4679999 -0.39700001 0.75800002 66 16 0
2.4760001 -0.396 0.75300002 53 16 0
2.4849999 -0.39399999 0.74699998 51 16 0
2.497 -0.39300001 0.74299997 57 16 0
2.51 -0.39199999 0.73900002 62 16 0
2.5179999 -0.38999999 0.73299998 60 16 0
2.5339999 -0.389 0.73000002 37 16 0
2.5420001 -0.38699999 0.72399998 34 16 0
2.5510001 -0.38499999 0.71899998 36 16 0
2.5639999 -0.384 0.71499997 36 16 0
2.579 -0.38299999 0.71100003 38 16 0
2.5869999 -0.38100001 0.70499998 35 16 0
2.602 -0.38 0.70099998 35 16 0
2.6110001 -0.37799999 0.69499999 35 16 0
2.622 -0.37599999 0.69 35 16 0
2.631 -0.37400001 0.68400002 33 16 0
2.6389999 -0.37099999 0.67799997 34 16 0
2.6500001 -0.36899999 0.67199999 34 16 0
2.6600001 -0.36700001 0.667 34 16 0
2.675 -0.36500001 0.662 32 16 0
2.6849999 -0.36300001 0.65700001 32 16 0
2.6960001 -0.361 0.65100002 33 16 0
2.7130001 -0.36000001 0.64700001 33 16 0
2.7190001 -0.35699999 0.63999999 33 16 0
2.7290001 -0.354 0.634 32 16 0
2.747 -0.35299999 0.63 32 16 0
2.7590001 -0.34999999 0.62400001 33 16 0
2.773 -0.34799999 0.61900002 32 16 0
2.783 -0.34599999 0.61199999 32 16 0
2.7969999 -0.34299999 0.60699999 31 16 0
2.809 -0.34099999 0.60100001 32 16 0
2.822 -0.33899999 0.59600002 32 16 0
2.8369999 -0.336 0.58999997 32 16 0
2.848 -0.333 0.58399999 33 16 0
2.862 -0.331 0.57800001 33 16 0
2.875 -0.32800001 0.57200003 34 16 0
2.892 -0.32600001 0.56699997 36 16 0
2.902 -0.32300001 0.56 42 16 0
2.915 -0.31999999 0.55400002 48 16 0
2.925 -0.317 0.54699999 43 16 0
2.9300001 -0.31299999 0.53899997 33 16 0
2.9360001 -0.30899999 0.53200001 28 16 0
2.9449999 -0.30599999 0.52499998 27 16 0
2.95 -0.30199999 0.51700002 26 16 0
2.9530001 -0.29800001 0.509 26 16 0
2.9549999 -0.294 0.5 26 16 0
2.961 -0.28999999 0.49200001 26 16 0
2.9660001 -0.28600001 0.484 22 16 0
2.983 -0.28299999 0.479 24 16 0
2.9849999 -0.278 0.47 23 16 0
2.99 -0.27399999 0.46200001 23 16 0
2.9990001 -0.271 0.45500001 24 16 0
3.003 -0.266 0.447 21 16 0
3.01 -0.26199999 0.43900001 22 16 0
3.0179999 -0.25799999 0.43099999 22 16 0
3.023 -0.25400001 0.42300001 21 16 0
3.0280001 -0.25 0.41499999 22 16 0
3.0380001 -0.24600001 0.40799999 22 16 0
3.036 -0.241 0.39899999 21 16 0
3.0539999 -0.237 0.39199999 22 16 0
3.056 -0.233 0.384 21 16 0
3.0610001 -0.228 0.37599999 21 16 0
3.0680001 -0.22400001 0.368 22 16 0
3.0780001 -0.22 0.36000001 22 16 0
3.0840001 -0.215 0.352 21 16 0
3.095 -0.211 0.345 22 16 0
3.098 -0.206 0.336 22 16 0
3.1070001 -0.20200001 0.32800001 22 16 0
3.1170001 -0.197 0.31999999 23 16 0
3.1159999 -0.192 0.31099999 23 16 0
3.1199999 -0.18799999 0.303 22 16 0
3.1289999 -0.183 0.29499999 22 16 0
3.145 -0.17900001 0.28799999 22 16 0
3.152 -0.17399999 0.28 22 16 0
3.1570001 -0.169 0.271 22 16 0
3.1700001 -0.16500001 0.26300001 23 16 0
3.175 -0.16 0.255 22 16 0
3.1789999 -0.154 0.24600001 22 16 0
3.1889999 -0.15000001 0.23800001 23 16 0
3.198 -0.145 0.23 23 16 0
3.2060001 -0.14 0.221 23 16 0
3.2160001 -0.13500001 0.213 23 16 0
3.221 -0.13 0.205 22 16 0
3.2279999 -0.124 0.19599999 24 16 0
3.24 -0.119 0.18799999 24 16 0
3.2449999 -0.114 0.17900001 23 16 0
3.2520001 -0.109 0.17 24 16 0
3.267 -0.104 0.162 24 16 0
3.2720001 -0.097999997 0.153 24 16 0
3.2809999 -0.093000002 0.145 24 16 0
3.2909999 -0.088 0.13600001 24 16 0
3.2980001 -0.082000002 0.127 24 16 0
3.309 -0.077 0.119 24 16 0
3.3150001 -0.071000002 0.11 37 16 0
3.3069999 -0.064999998 0.101 79 16 0
3.3039999 -0.059 0.092 86 16 0
3.3010001 -0.052999999 0.082000002 70 16 0
3.293 -0.048 0.072999999 63 16 0
3.283 -0.041999999 0.064000003 81 16 0
3.276 -0.035999998 0.055 79 16 0
3.273 -0.029999999 0.046 93 16 0
3.26 -0.024 0.037 66 16 0
3.2579999 -0.017999999 0.028000001 34 16 0
3.26 -0.013 0.018999999 19 16 0
3.2720001 -0.0070000002 0.0099999998 15 16 0
3.28 -0.001 0.0020000001 15 16 0
3.2850001 0.0040000002 -0.0060000001 16 16 0
3.299 0.0099999998 -0.015 16 16 0
3.3110001 0.016000001 -0.024 18 16 0
3.319 0.022 -0.033 27 16 0
3.312 0.028000001 -0.041999999 40 16 0
3.299 0.034000002 -0.050999999 47 16 0
3.293 0.039999999 -0.059 49 16 0
3.2880001 0.045000002 -0.068000004 42 16 0
3.2780001 0.050999999 -0.075999998 34 16 0
3.276 0.057 -0.085000001 36 16 0
3.267 0.063000001 -0.093999997 48 16 0
3.2620001 0.068999998 -0.102 47 16 0
3.2509999 0.075000003 -0.111 50 16 0
3.2490001 0.081 -0.119 49 16 0
3.2420001 0.086999997 -0.12800001 52 16 0
3.2360001 0.093000002 -0.13600001 51 16 0
3.2320001 0.097999997 -0.14399999 49 16 0
3.221 0.104 -0.152 52 16 0
3.2119999 0.11 -0.16 51 16 0
3.211 0.116 -0.169 52 16 0
3.204 0.122 -0.177 58 16 0
3.1919999 0.127 -0.185 50 16 0
3.1900001 0.133 -0.193 51 16 0
3.181 0.139 -0.20100001 54 16 0
3.1689999 0.14399999 -0.208 48 16 0
3.168 0.15099999 -0.21699999 51 16 0
3.1589999 0.156 -0.22400001 52 16 0
3.1559999 0.162 -0.23199999 50 16 0
3.152 0.168 -0.23999999 60 16 0
3.141 0.17299999 -0.248 51 16 0
3.1329999 0.17900001 -0.255 50 16 0
3.125 0.185 -0.26300001 53 16 0
3.1229999 0.191 -0.271 63 16 0
3.1110001 0.19599999 -0.278 49 16 0
3.108 0.20200001 -0.28600001 49 16 0
3.1059999 0.208 -0.294 64 16 0
3.095 0.213 -0.301 54 16 0
3.0899999 0.219 -0.308 84 16 0
3.0810001 0.22499999 -0.315 87 16 0
3.073 0.23 -0.322 79 16 0
3.0669999 0.236 -0.33000001 79 16 0
3.0610001 0.241 -0.33700001 80 16 0
3.052 0.24699999 -0.34400001 93 16 0
3.0510001 0.25299999 -0.352 85 16 0
3.0439999 0.259 -0.359 90 16 0
3.0369999 0.264 -0.366 82 16 0
3.0320001 0.27000001 -0.373 87 16 0
3.0250001 0.27500001 -0.38 71 16 0
3.016 0.28099999 -0.38600001 79 16 0
3.0139999 0.287 -0.39399999 74 16 0
3.0090001 0.292 -0.40099999 90 16 0
3.0009999 0.29800001 -0.40799999 81 16 0
2.993 0.303 -0.414 90 16 0
2.984 0.308 -0.421 86 16 0
2.9820001 0.315 -0.428 86 16 0
2.9760001 0.31999999 -0.435 86 16 0
2.9719999 0.32600001 -0.442 90 16 0
2.961 0.331 -0.44800001 88 16 0
2.9590001 0.33700001 -0.45500001 103 16 0
2.9560001 0.34299999 -0.46200001 96 16 0
2.9460001 0.34799999 -0.46799999 101 16 0
2.944 0.354 -0.47499999 98 16 0
2.9360001 0.359 -0.48100001 92 16 0
2.9260001 0.36399999 -0.48699999 105 16 0
2.9260001 0.37099999 -0.49399999 102 16 0
2.9089999 0.375 -0.49900001 102 16 0
2.905 0.38100001 -0.505 101 16 0
2.8989999 0.38600001 -0.51200002 96 16 0
2.895 0.39199999 -0.51800001 108 16 0
2.8929999 0.398 -0.52499998 105 16 0
2.8829999 0.403 -0.52999997 103 16 0
2.8770001 0.40799999 -0.537 86 16 0
2.8770001 0.41499999 -0.54400003 117 16 0
2.8670001 0.41999999 -0.54900002 107 16 0
2.862 0.42500001 -0.55500001 108 16 0
2.8599999 0.43099999 -0.56199998 112 16 0
2.849 0.43599999 -0.56699997 124 16 0
2.8429999 0.44100001 -0.57300001 118 16 0
2.839 0.447 -0.579 106 16 0
2.836 0.45300001 -0.58499998 109 16 0
2.8299999 0.45899999 -0.59100002 116 16 0
2.8199999 0.463 -0.59600002 123 16 0
2.8180001 0.46900001 -0.602 126 16 0
2.8099999 0.47499999 -0.60799998 140 16 0
2.809 0.48100001 -0.61400002 150 16 0
2.803 0.486 -0.62 150 16 0
2.7969999 0.49200001 -0.625 150 16 0
2.79 0.49700001 -0.63099998 150 16 0
2.7850001 0.50199997 -0.63599998 150 16 0
2.777 0.50800002 -0.64099997 150 16 0
2.7750001 0.514 -0.64700001 150 16 0
2.77 0.51899999 -0.653 150 16 0
2.766 0.52499998 -0.65899998 150 16 0
2.7579999 0.52999997 -0.66299999 150 16 0
2.753 0.53600001 -0.66900003 150 16 0
2.7460001 0.54100001 -0.67400002 150 16 0
2.743 0.54699999 -0.68000001 150 16 0
2.7360001 0.55199999 -0.685 150 16 0
2.7260001 0.55599999 -0.68900001 150 16 0
2.721 0.56199998 -0.69400001 150 16 0
2.721 0.56900001 -0.69999999 150 16 0
2.7179999 0.57499999 -0.70599997 150 16 0
2.7090001 0.579 -0.70999998 150 16 0
2.7079999 0.58600003 -0.71600002 150 16 0
2.698 0.58999997 -0.72000003 150 16 0
2.6919999 0.59500003 -0.72399998 150 16 0
2.6889999 0.60100001 -0.73000002 150 16 0
2.6860001 0.60699999 -0.73500001 150 16 0
2.6830001 0.61299998 -0.741 150 16 0
2.671 0.61699998 -0.74400002 150 16 0
2.6700001 0.62400001 -0.75 150 16 0
2.664 0.62900001 -0.75400001 150 16 0
2.6570001 0.634 -0.75800002 150 16 0
2.654 0.63999999 -0.764 150 16 0
2.651 0.64600003 -0.76899999 150 16 0
2.6459999 0.65100002 -0.773 150 16 0
2.6389999 0.65600002 -0.77700001 150 16 0
2.6329999 0.662 -0.78100002 150 16 0
2.628 0.667 -0.78600001 150 16 0
2.625 0.67299998 -0.79100001 150 16 0
2.6159999 0.67699999 -0.79400003 150 16 0
2.6159999 0.68400002 -0.80000001 150 16 0
2.609 0.68900001 -0.80299997 150 16 0
2.6070001 0.69499999 -0.80800003 150 16 0
2.6010001 0.70099998 -0.81199998 150 16 0
2.598 0.70700002 -0.81699997 150 16 0
2.595 0.713 -0.82200003 150 16 0
2.5910001 0.71799999 -0.82599998 150 16 0
2.582 0.72299999 -0.829 150 16 0
2.579 0.72899997 -0.833 150 16 0
2.566 0.73199999 -0.83499998 150 16 0
2.5639999 0.73799998 -0.83999997 150 16 0
2.556 0.74299997 -0.84200001 150 16 0
2.5539999 0.74900001 -0.847 150 16 0
2.553 0.755 -0.852 150 16 0
2.5480001 0.76099998 -0.85600001 150 16 0
2.5450001 0.76599997 -0.86000001 150 16 0
2.536 0.77100003 -0.86199999 150 16 0
2.536 0.77700001 -0.86699998 150 16 0
2.5320001 0.78299999 -0.87099999 150 16 0
2.5309999 0.79000002 -0.87599999 150 16 0
2.5209999 0.79299998 -0.87699997 150 16 0
2.5280001 0.80199999 -0.88499999 32 16 0
2.5239999 0.80800003 -0.889 13 16 0
2.5109999 0.81099999 -0.889 7 16 0
2.5079999 0.81699997 -0.89300001 29 16 0
2.5020001 0.82099998 -0.89499998 150 16 0
2.4990001 0.82800001 -0.89899999 150 16 0
2.493 0.83200002 -0.90200001 150 16 0
2.4879999 0.838 -0.90499997 115 16 0
2.4660001 0.83700001 -0.90100002 29 19 0
2.4549999 0.83999997 -0.90200001 16 16 0
2.4219999 0.83499998 -0.89399999 14 18 0
2.4159999 0.83999997 -0.89600003 17 16 0
2.411 0.84500003 -0.89899999 13 16 0
2.4189999 0.85399997 -0.90600002 4 16 0
2.4430001 0.87 -0.91900003 3 16 0
2.4460001 0.87699997 -0.92500001 4 16 0
2.4430001 0.88300002 -0.92799997 9 16 0
2.447 0.89099997 -0.93400002 27 16 0
2.4400001 0.89600003 -0.935 150 16 0
2.4419999 0.903 -0.94 150 16 0
2.434 0.90700001 -0.94099998 150 16 0
2.4349999 0.91399997 -0.94499999 150 16 0
2.4319999 0.92000002 -0.94800001 150 16 0
2.4219999 0.92299998 -0.94800001 150 16 0
2.425 0.93099999 -0.954 150 16 0
2.4159999 0.93400002 -0.954 150 16 0
2.4089999 0.93800002 -0.95499998 150 16 0
2.414 0.94700003 -0.95999998 150 16 0
2.4260001 0.958 -0.96899998 151 16 0
2.424 0.96399999 -0.97100002 151 16 0
2.408 0.96399999 -0.96899998 151 16 0
2.3959999 0.96600002 -0.96700001 150 16 0
2.391 0.97000003 -0.96799999 150 16 0
2.3840001 0.97399998 -0.96899998 150 16 0
2.385 0.98100001 -0.972 150 16 0
2.378 0.98500001 -0.97299999 150 16 0
2.375 0.99000001 -0.97500002 150 16 0
2.3740001 0.99599999 -0.977 150 16 0
2.369 1 -0.97799999 150 16 0
2.3659999 1.006 -0.98000002 150 16 0
2.362 1.011 -0.98100001 150 16 0
2.3610001 1.016 -0.98299998 151 16 0
2.3559999 1.02 -0.98400003 150 16 0
2.3540001 1.026 -0.986 150 16 0
2.345 1.028 -0.98500001 150 16 0
2.3440001 1.034 -0.98699999 150 16 0
2.3410001 1.039 -0.98799998 150 16 0
2.339 1.044 -0.98900002 151 16 0
2.336 1.049 -0.991 151 16 0
2.3329999 1.054 -0.991 151 16 0
2.329 1.058 -0.99199998 151 16 0
2.3280001 1.064 -0.99299997 151 16 0
2.326 1.069 -0.995 151 16 0
2.3210001 1.073 -0.99400002 151 16 0
2.3210001 1.0779999 -0.99599999 151 16 0
2.3169999 1.0829999 -0.99699998 151 16 0
2.312 1.086 -0.99599999 151 16 0
2.309 1.091 -0.99599999 151 16 0
2.309 1.096 -0.99800003 151 16 0
2.309 1.102 -0.99900001 151 16 0
2.3039999 1.105 -0.99800003 151 16 0
2.302 1.11 -0.99900001 151 16 0
2.3 1.114 -0.99900001 151 16 0
2.2980001 1.119 -1 151 16 0
2.296 1.124 -1 151 16 0
2.2920001 1.127 -0.99900001 151 16 0
2.2909999 1.132 -1 151 16 0
2.289 1.136 -1 151 16 0
2.286 1.14 -0.99900001 151 16 0
2.2850001 1.145 -0.99900001 151 16 0
2.2839999 1.149 -1 151 16 0
2.2820001 1.153 -0.99900001 151 16 0
2.28 1.1569999 -0.99900001 151 16 0
2.2750001 1.16 -0.99699998 151 16 0
2.2650001 1.159 -0.99299997 151 16 0
2.2750001 1.169 -0.99699998 151 16 0
2.273 1.173 -0.99699998 151 16 0
2.2709999 1.177 -0.99599999 151 16 0
2.267 1.179 -0.99400002 151 16 0
2.2690001 1.1849999 -0.995 151 16 0
2.267 1.188 -0.99299997 151 16 0
2.2620001 1.1900001 -0.991 151 16 0
2.2639999 1.1950001 -0.991 151 16 0
2.2620001 1.199 -0.99000001 151 16 0
2.2579999 1.2 -0.98799998 151 16 0
2.25 1.2 -0.98400003 151 16 0
2.2579999 1.2079999 -0.986 151 16 0
2.257 1.212 -0.98500001 151 16 0
2.256 1.215 -0.98400003 151 16 0
2.2539999 1.217 -0.98199999 151 16 0
2.253 1.221 -0.98000002 151 16 0
2.2520001 1.224 -0.97899997 151 16 0
2.2509999 1.227 -0.977 151 16 0
2.25 1.229 -0.97500002 151 16 0
2.2490001 1.232 -0.97399998 151 16 0
2.2479999 1.235 -0.972 151 16 0
2.2479999 1.238 -0.97000003 151 16 0
2.2479999 1.2410001 -0.96799999 151 16 0
2.2479999 1.244 -0.96700001 151 16 0
2.244 1.245 -0.963 151 16 0
2.244 1.247 -0.96100003 151 16 0
2.2449999 1.251 -0.95999998 151 16 0
2.2449999 1.253 -0.958 151 16 0
2.244 1.255 -0.95599997 151 16 0
2.2420001 1.256 -0.95300001 151 16 0
2.244 1.26 -0.95099998 151 16 0
2.244 1.262 -0.94800001 151 16 0
2.244 1.2640001 -0.94599998 151 16 0
2.244 1.266 -0.94300002 151 16 0
2.244 1.267 -0.94099998 151 16 0
2.244 1.2690001 -0.93800002 151 16 0
2.244 1.271 -0.93599999 150 16 0
2.244 1.273 -0.93300003 151 16 0
2.243 1.274 -0.93000001 151 16 0
2.244 1.276 -0.92699999 150 16 0
2.2449999 1.277 -0.92400002 151 16 0
2.2520001 1.2819999 -0.92400002 150 16 0
2.243 1.279 -0.91799998 150 16 0
2.25 1.284 -0.917 150 16 0
2.243 1.28 -0.91100001 150 16 0
2.2479999 1.284 -0.91000003 150 16 0
2.25 1.285 -0.90700001 150 16 0
2.2539999 1.288 -0.90499997 150 16 0
2.2509999 1.2869999 -0.90100002 150 16 0
2.2590001 1.2920001 -0.89999998 150 16 0
2.257 1.291 -0.89600003 150 16 0
2.263 1.295 -0.89399999 150 16 0
2.2590001 1.2920001 -0.889 37 16 0
2.2639999 1.295 -0.88700002 15 16 0
2.2639999 1.295 -0.88300002 3 16 0
2.2750001 1.301 -0.884 1 19 0
2.2679999 1.296 -0.87699997 1 16 0
2.2709999 1.2970001 -0.87400001 1 16 0
2.2739999 1.299 -0.87099999 1 16 0
2.2809999 1.302 -0.86900002 1 16 0
2.2850001 1.303 -0.866 1 16 0
2.2850001 1.303 -0.86199999 2 16 0
2.2920001 1.306 -0.861 2 16 0
2.2920001 1.304 -0.85600001 3 16 0
2.2950001 1.3049999 -0.85299999 3 16 0
2.296 1.304 -0.84899998 3 16 0
2.2969999 1.304 -0.84500003 2 16 0
2.3010001 1.304 -0.84100002 2 16 0
2.3010001 1.302 -0.83700001 2 16 0
2.306 1.304 -0.83399999 2 16 0
2.3 1.298 -0.82700002 1 16 0
2.3080001 1.301 -0.82499999 1 16 0
2.303 1.296 -0.81900001 1 16 0
2.3 1.2920001 -0.81300002 1 16 0
2.3 1.29 -0.80800003 1 16 0
2.309 1.293 -0.80599999 4 16 0
2.309 1.291 -0.80199999 19 16 0
2.3069999 1.2869999 -0.796 97 16 0
2.309 1.285 -0.79100001 150 16 0
2.313 1.285 -0.78799999 150 16 0
2.312 1.2819999 -0.78299999 150 16 0
2.3139999 1.28 -0.778 150 16 0
2.316 1.278 -0.77399999 150 16 0
2.3199999 1.277 -0.76999998 150 16 0
2.322 1.275 -0.76599997 150 16 0
2.325 1.274 -0.76200002 150 16 0
2.3269999 1.271 -0.75700003 150 16 0
2.3329999 1.271 -0.75400001 150 16 0
2.3340001 1.2690001 -0.74900001 150 16 0
2.339 1.268 -0.74599999 150 16 0
2.3440001 1.266 -0.74199998 150 16 0
2.345 1.2640001 -0.73699999 150 16 0
2.345 1.26 -0.73199999 150 16 0
2.3510001 1.2589999 -0.72799999 150 16 0
2.3540001 1.257 -0.72399998 150 16 0
2.3570001 1.2539999 -0.71899998 150 16 0
2.3599999 1.252 -0.71499997 150 16 0
2.359 1.247 -0.70999998 150 16 0
2.3670001 1.247 -0.70700002 150 16 0
2.369 1.244 -0.70200002 150 16 0
2.3729999 1.2410001 -0.69800001 150 16 0
2.3759999 1.238 -0.69300002 150 16 0
2.3789999 1.235 -0.68900001 150 16 0
2.3840001 1.233 -0.685 150 16 0
2.3840001 1.228 -0.67900002 150 16 0
2.392 1.228 -0.676 62 16 0
2.3940001 1.224 -0.671 37 16 0
2.3970001 1.221 -0.667 41 16 0
2.3959999 1.215 -0.66100001 93 16 0
2.4030001 1.214 -0.65799999 146 16 0
2.4059999 1.21 -0.653 150 16 0
2.408 1.206 -0.648 150 16 0
2.4130001 1.2029999 -0.64399999 136 16 0
2.4159999 1.199 -0.63999999 133 16 0
2.4189999 1.1950001 -0.63499999 118 16 0
2.4219999 1.192 -0.63 129 16 0
2.4260001 1.188 -0.62599999 150 16 0
2.4349999 1.187 -0.62300003 150 16 0
2.4400001 1.183 -0.61900002 150 16 0
2.4419999 1.179 -0.61400002 150 16 0
2.444 1.174 -0.60900003 150 16 0
2.448 1.17 -0.60500002 150 16 0
2.4519999 1.166 -0.60000002 150 16 0
2.4579999 1.163 -0.59600002 150 16 0
2.46 1.158 -0.59100002 150 16 0
2.467 1.156 -0.588 150 16 0
2.4660001 1.149 -0.58200002 150 16 0
2.4749999 1.147 -0.579 150 16 0
2.477 1.142 -0.574 150 16 0
2.48 1.137 -0.56999999 150 16 0
2.484 1.133 -0.565 150 16 0
2.4879999 1.128 -0.56099999 150 16 0
2.4949999 1.125 -0.55699998 150 16 0
2.4979999 1.12 -0.55199999 150 16 0
2.5009999 1.115 -0.54799998 150 16 0
2.5050001 1.11 -0.54299998 150 16 0
2.5109999 1.1059999 -0.53899997 150 16 0
2.5139999 1.101 -0.53500003 150 16 0
2.516 1.095 -0.52999997 150 16 0
2.5220001 1.091 -0.52600002 150 16 0
2.5250001 1.085 -0.52200001 150 16 0
2.529 1.08 -0.51700002 150 16 0
2.5409999 1.079 -0.514 150 16 0
2.5439999 1.073 -0.50999999 150 16 0
2.552 1.0700001 -0.50599998 150 16 0
2.5550001 1.064 -0.50199997 150 16 0
2.5550001 1.057 -0.49700001 150 16 0
2.562 1.053 -0.493 150 16 0
2.5680001 1.048 -0.48899999 150 16 0
2.5680001 1.041 -0.484 150 16 0
2.5739999 1.0369999 -0.47999999 150 16 0
2.582 1.033 -0.477 150 16 0
2.585 1.027 -0.472 150 16 0
2.5880001 1.021 -0.46799999 150 16 0
2.5940001 1.016 -0.46399999 150 16 0
2.598 1.01 -0.45899999 150 16 0
2.602 1.0039999 -0.45500001 150 16 0
2.605 0.99800003 -0.45100001 150 16 0
2.6099999 0.99299997 -0.447 150 16 0
2.615 0.98699999 -0.44299999 150 16 0
2.619 0.98100001 -0.43799999 150 16 0
2.631 0.97799999 -0.435 150 16 0
2.6489999 0.977 -0.433 150 16 0
2.6530001 0.97100002 -0.42899999 128 16 0
2.642 0.95899999 -0.42300001 150 16 0
2.6459999 0.95300001 -0.41800001 150 16 0
2.655 0.94800001 -0.41499999 150 16 0
2.6589999 0.94199997 -0.41100001 150 16 0
2.6619999 0.935 -0.40599999 150 16 0
2.665 0.92900002 -0.40200001 150 16 0
2.671 0.92299998 -0.398 150 16 0
2.6760001 0.917 -0.39399999 150 16 0
2.6800001 0.91100001 -0.38999999 150 16 0
2.6849999 0.90399998 -0.38600001 150 16 0
2.6889999 0.898 -0.382 150 16 0
2.6919999 0.89099997 -0.37799999 150 16 0
2.701 0.88599998 -0.375 150 16 0
2.7030001 0.87900001 -0.37 150 16 0
2.711 0.87300003 -0.36700001 150 16 0
2.7130001 0.866 -0.36300001 150 16 0
2.7160001 0.85900003 -0.35800001 150 16 0
2.724 0.85299999 -0.35499999 150 16 0
2.73 0.847 -0.35100001 150 16 0
2.734 0.83999997 -0.347 150 16 0
2.7390001 0.83399999 -0.34299999 150 16 0
2.7409999 0.82599998 -0.33899999 150 16 0
2.756 0.82200003 -0.336 150 16 0
2.7579999 0.815 -0.33199999 150 16 0
2.763 0.80800003 -0.32800001 150 16 0
2.767 0.801 -0.324 150 16 0
2.7739999 0.79500002 -0.32100001 150 16 0
2.777 0.787 -0.317 150 16 0
2.7839999 0.78100002 -0.31299999 150 16 0
2.79 0.77399999 -0.31 150 16 0
2.7950001 0.76700002 -0.30599999 150 16 0
2.7969999 0.75999999 -0.30199999 150 16 0
2.8099999 0.75400001 -0.29899999 150 16 0
2.813 0.74699998 -0.29499999 150 16 0
2.8150001 0.73900002 -0.29100001 150 16 0
2.8239999 0.73299998 -0.287 150 16 0
2.8269999 0.72500002 -0.28299999 150 16 0
2.8329999 0.71799999 -0.28 150 16 0
2.836 0.70999998 -0.27599999 150 16 0
2.8399999 0.70300001 -0.27200001 150 16 0
2.849 0.69599998 -0.26899999 150 16 0
2.852 0.68900001 -0.26499999 150 16 0
2.8599999 0.68199998 -0.26100001 150 16 0
2.8659999 0.67400002 -0.25799999 150 16 0
2.868 0.66600001 -0.25400001 150 16 0
2.8699999 0.65799999 -0.25 150 16 0
2.8800001 0.65200001 -0.24699999 150 16 0
2.888 0.64499998 -0.243 150 16 0
2.885 0.63499999 -0.23899999 150 16 0
2.8959999 0.62900001 -0.236 150 16 0
2.9030001 0.62199998 -0.233 150 16 0
2.908 0.61400002 -0.229 150 16 0
2.915 0.60699999 -0.226 150 16 0
2.9260001 0.60000002 -0.222 150 16 0
2.928 0.59200001 -0.219 150 16 0
2.934 0.58399999 -0.215 150 16 0
2.9419999 0.57700002 -0.212 150 16 0
2.9430001 0.56800002 -0.208 150 16 0
2.9489999 0.56 -0.204 150 16 0
2.9549999 0.55199999 -0.20100001 150 16 0
2.9560001 0.54400003 -0.197 150 16 0
2.9679999 0.537 -0.19400001 150 16 0
2.9719999 0.528 -0.19 150 16 0
2.9790001 0.51999998 -0.18700001 150 16 0
2.983 0.51200002 -0.183 150 16 0
2.9879999 0.50400001 -0.18000001 150 16 0
2.993 0.495 -0.176 150 16 0
2.9979999 0.48699999 -0.17299999 150 16 0
3.013 0.47999999 -0.17 148 16 0
3.01 0.47099999 -0.16599999 150 16 0
3.0150001 0.46200001 -0.163 144 16 0
3.0220001 0.454 -0.15899999 136 16 0
3.0339999 0.447 -0.156 139 16 0
3.0369999 0.43799999 -0.153 131 16 0
3.046 0.43000001 -0.149 136 16 0
3.0450001 0.421 -0.146 126 16 0
3.053 0.412 -0.142 138 16 0
3.0610001 0.40400001 -0.139 150 16 0
3.066 0.39500001 -0.13600001 134 16 0
3.075 0.38699999 -0.133 150 16 0
3.0769999 0.37799999 -0.12899999 142 16 0
3.0799999 0.36899999 -0.126 138 16 0
3.0899999 0.361 -0.122 134 16 0
3.0999999 0.352 -0.119 141 16 0
3.1010001 0.34299999 -0.116 135 16 0
3.115 0.33500001 -0.113 134 16 0
3.118 0.32600001 -0.109 113 16 0
3.1229999 0.317 -0.106 106 16 0
3.1289999 0.308 -0.103 110 16 0
3.1370001 0.29899999 -0.098999999 102 16 0
3.1389999 0.28999999 -0.096000001 96 16 0
3.1500001 0.28099999 -0.093000002 133 16 0
3.161 0.27200001 -0.090000004 112 16 0
3.164 0.26300001 -0.086000003 112 16 0
3.1700001 0.25400001 -0.082999997 103 16 0
3.1789999 0.245 -0.079999998 102 16 0
3.1800001 0.235 -0.075999998 94 16 0
3.191 0.226 -0.072999999 101 16 0
3.197 0.21699999 -0.07 95 16 0
3.204 0.207 -0.067000002 101 16 0
3.2119999 0.198 -0.063000001 109 16 0
3.223 0.189 -0.059999999 122 16 0
3.2279999 0.17900001 -0.057 114 16 0
3.2360001 0.169 -0.054000001 111 16 0
3.243 0.16 -0.050999999 98 16 0
3.247 0.15000001 -0.046999998 98 16 0
3.253 0.14 -0.044 99 16 0
3.2550001 0.13 -0.041000001 85 16 0
3.2639999 0.121 -0.037999999 86 16 0
3.2720001 0.111 -0.034000002 87 16 0
3.2809999 0.101 -0.030999999 88 16 0
3.2850001 0.090999998 -0.028000001 78 16 0
3.2920001 0.081 -0.025 75 16 0
3.2969999 0.071000002 -0.022 97 16 0
3.3050001 0.061000001 -0.017999999 47 16 0
3.309 0.050999999 -0.015 55 16 0
3.313 0.041000001 -0.012 74 16 0
3.323 0.029999999 -0.0089999996 51 16 0
3.316 0.02 -0.0060000001 24 16 0
3.2969999 0.0099999998 -0.003 19 16 0
3.2720001 0 0 18 16 0
3.2520001 -0.0099999998 0.003 24 16 0
3.25 -0.02 0.0060000001 96 16 0
3.2579999 -0.029999999 0.0089999996 150 16 0
3.2650001 -0.039999999 0.012 150 16 0
3.266 -0.050000001 0.015 150 16 0
3.27 -0.059999999 0.017999999 150 16 0
3.27 -0.071000002 0.021 45 16 0
3.253 -0.079999998 0.023 31 16 0
3.23 -0.090000004 0.026000001 30 16 0
3.2149999 -0.098999999 0.028999999 29 16 0
3.1919999 -0.109 0.030999999 30 16 0
3.1719999 -0.118 0.034000002 31 16 0
3.151 -0.127 0.037 32 16 0
3.135 -0.13600001 0.039000001 31 16 0
3.1110001 -0.145 0.041999999 29 16 0
3.0929999 -0.153 0.044 30 16 0
3.079 -0.162 0.046 30 16 0
3.0580001 -0.171 0.048999999 31 16 0
3.0380001 -0.17900001 0.050999999 30 16 0
3.0190001 -0.18799999 0.052999999 32 16 0
3.0009999 -0.19599999 0.055 30 16 0
2.98 -0.204 0.057 31 16 0
2.967 -0.212 0.059999999 29 16 0
2.947 -0.22 0.061999999 28 16 0
2.934 -0.229 0.064000003 31 16 0
2.914 -0.236 0.066 32 16 0
2.8959999 -0.244 0.067000002 33 16 0
2.8859999 -0.252 0.07 32 16 0
2.8640001 -0.259 0.071000002 32 16 0
2.846 -0.26699999 0.072999999 32 16 0
2.8310001 -0.27399999 0.075000003 33 16 0
2.816 -0.28200001 0.077 34 16 0
2.799 -0.289 0.078000002 32 16 0
2.786 -0.296 0.079999998 34 16 0
2.77 -0.303 0.082000002 35 16 0
2.7590001 -0.31099999 0.082999997 36 16 0
2.7390001 -0.317 0.085000001 35 16 0
2.7290001 -0.32499999 0.086999997 35 16 0
2.7149999 -0.33199999 0.088 35 16 0
2.7030001 -0.33899999 0.090000004 40 16 0
2.6860001 -0.345 0.090999998 42 16 0
2.6719999 -0.352 0.092 37 16 0
2.658 -0.359 0.093999997 39 16 0
2.642 -0.36500001 0.094999999 35 16 0
2.628 -0.37099999 0.096000001 35 16 0
2.6110001 -0.377 0.097999997 39 16 0
2.5969999 -0.384 0.098999999 45 16 0
2.5869999 -0.391 0.1 46 16 0
2.573 -0.39700001 0.102 47 16 0
2.5599999 -0.403 0.103 56 16 0
2.543 -0.40799999 0.104 58 16 0
2.529 -0.414 0.105 52 16 0
2.5139999 -0.41999999 0.106 58 16 0
2.503 -0.426 0.107 61 16 0
2.497 -0.433 0.108 61 16 0
2.48 -0.43799999 0.109 67 16 0
2.4660001 -0.44400001 0.11 69 16 0
2.461 -0.45100001 0.111 71 16 0
2.447 -0.456 0.112 73 16 0
2.431 -0.461 0.113 65 16 0
2.4189999 -0.46700001 0.114 67 16 0
2.414 -0.47400001 0.115 67 16 0
2.395 -0.47799999 0.116 75 16 0
2.3840001 -0.484 0.116 71 16 0
2.3710001 -0.48899999 0.117 69 16 0
2.359 -0.49399999 0.118 77 16 0
2.346 -0.49900001 0.119 63 16 0
2.3340001 -0.50400001 0.119 65 16 0
2.3210001 -0.509 0.12 68 16 0
2.313 -0.51499999 0.121 72 16 0
2.299 -0.51899999 0.121 82 16 0
2.2869999 -0.52399999 0.122 75 16 0
2.277 -0.52899998 0.122 86 16 0
2.266 -0.53399998 0.123 74 16 0
2.26 -0.54000002 0.124 77 16 0
2.2479999 -0.54500002 0.124 84 16 0
2.2349999 -0.54900002 0.125 82 16 0
2.2190001 -0.55199999 0.125 85 16 0
2.2160001 -0.55900002 0.126 89 16 0
2.2060001 -0.56400001 0.126 82 16 0
2.1949999 -0.56800002 0.127 94 16 0
2.184 -0.57300001 0.127 90 16 0
2.1730001 -0.57700002 0.127 107 16 0
2.1619999 -0.58099997 0.127 102 16 0
2.1459999 -0.58399999 0.127 128 16 0
2.1359999 -0.588 0.12800001 140 16 0
2.128 -0.59399998 0.12800001 141 16 0
2.1229999 -0.59899998 0.12899999 140 16 0
2.109 -0.602 0.12899999 150 16 0
2.099 -0.60600001 0.12899999 150 16 0
2.092 -0.611 0.12899999 149 16 0
2.079 -0.61400002 0.12899999 143 16 0
2.0669999 -0.61799997 0.12899999 143 16 0
2.0610001 -0.62300003 0.13 144 16 0
2.053 -0.62699997 0.13 150 16 0
2.043 -0.63099998 0.13 144 16 0
2.0320001 -0.63499999 0.13 150 16 0
2.027 -0.63999999 0.13 150 16 0
2.016 -0.64300001 0.13 150 16 0
2.007 -0.648 0.13 150 16 0
1.999 -0.65200001 0.13 150 16 0
1.989 -0.65499997 0.13 150 16 0
1.982 -0.66000003 0.13 150 16 0
1.974 -0.66299999 0.13 150 16 0
1.961 -0.66600001 0.13 150 16 0
1.956 -0.671 0.13 150 16 0
1.95 -0.67500001 0.13 150 16 0
1.928 -0.67400002 0.12899999 150 19 0
1.926 -0.68000001 0.12899999 150 16 0
1.9170001 -0.68300003 0.12899999 150 16 0
1.913 -0.68800002 0.12899999 150 16 0
1.904 -0.69099998 0.12899999 150 16 0
1.898 -0.69599998 0.12800001 150 16 0
1.891 -0.69999999 0.12800001 150 16 0
1.88 -0.70200002 0.12800001 150 16 0
1.873 -0.70599997 0.12800001 150 16 0
1.864 -0.70899999 0.127 150 16 0
1.8559999 -0.71200001 0.127 150 16 0
1.85 -0.71600002 0.127 5 0 0
1.845 -0.72000003 0.126 150 16 0
1.842 -0.72500002 0.126 150 16 0
1.826 -0.72600001 0.125 150 16 0
1.819 -0.72899997 0.125 150 16 0
1.8150001 -0.73299998 0.125 150 16 0
1.802 -0.73500001 0.124 150 16 0
1.7970001 -0.73900002 0.124 150 16 0
1.794 -0.74299997 0.124 150 16 0
1.783 -0.745 0.123 150 16 0
1.775 -0.74800003 0.122 150 16 0
1.772 -0.75199997 0.122 150 16 0
1.763 -0.75400001 0.121 150 16 0
1.76 -0.759 0.121 150 16 0
1.748 -0.75999999 0.12 150 16 0
1.74 -0.76200002 0.119 81 0 0
1.738 -0.76700002 0.119 68 0 0
1.728 -0.76899999 0.118 141 0 0
1.722 -0.77200001 0.117 87 0 0
1.7180001 -0.77600002 0.117 96 0 0
1.7180001 -0.78200001 0.117 90 0 0
1.699 -0.77899998 0.115 118 3 0
1.694 -0.78200001 0.114 120 0 0
1.686 -0.78399998 0.114 98 0 0
1.681 -0.78799999 0.113 98 0 0
1.671 -0.78899997 0.112 107 0 0
1.6670001 -0.792 0.111 96 0 0
1.66 -0.79400003 0.11 113 0 0
1.656 -0.79799998 0.11 145 0 0
1.647 -0.79900002 0.109 80 0 0
1.642 -0.80199999 0.108 97 0 0
1.6339999 -0.80400002 0.107 117 0 0
1.63 -0.80699998 0.106 92 0 0
1.625 -0.81 0.105 94 0 0
1.617 -0.81199998 0.104 118 0 0
1.61 -0.81300002 0.103 1 0 0
1.608 -0.81699997 0.102 105 0 0
1.595 -0.81599998 0.101 124 0 0
1.59 -0.81900001 0.1 108 0 0
1.587 -0.82300001 0.098999999 114 0 0
1.585 -0.82700002 0.097999997 150 0 0
1.5779999 -0.82800001 0.097000003 123 0 0
