# .PCD v0.7 - Point Cloud Data file format
VERSION 0.7
FIELDS x y z intensity tag line
SIZE 4 4 4 4 1 1
TYPE F F F F U U
COUNT 1 1 1 1 1 1
WIDTH 1366
HEIGHT 1
VIEWPOINT 0 0 0 1 0 0 0
POINTS 1366
DATA ascii
3.0650001 0.33199999 -0.20999999 150 16 0
3.069 0.324 -0.204 150 16 0
3.0799999 0.317 -0.199 150 16 0
3.0910001 0.31 -0.19400001 150 16 0
3.0969999 0.30199999 -0.189 150 16 0
3.099 0.294 -0.184 150 16 0
3.105 0.28600001 -0.178 150 16 0
3.115 0.278 -0.17299999 143 16 0
3.1199999 0.27000001 -0.168 136 16 0
3.1259999 0.26199999 -0.163 131 16 0
3.131 0.25400001 -0.15700001 127 16 0
3.1400001 0.24600001 -0.152 135 16 0
3.151 0.23899999 -0.147 149 16 0
3.1559999 0.23100001 -0.142 143 16 0
3.1619999 0.222 -0.13600001 143 16 0
3.165 0.214 -0.131 132 16 0
3.175 0.206 -0.126 115 16 0
3.178 0.197 -0.12 119 16 0
3.1900001 0.189 -0.115 113 16 0
3.1989999 0.18099999 -0.11 130 16 0
3.2030001 0.17299999 -0.105 117 16 0
3.214 0.164 -0.098999999 103 16 0
3.22 0.156 -0.093999997 126 16 0
3.23 0.147 -0.089000002 121 16 0
3.2360001 0.139 -0.082999997 121 16 0
3.2420001 0.13 -0.078000002 112 16 0
3.2460001 0.121 -0.072999999 103 16 0
3.2550001 0.113 -0.067000002 105 16 0
3.2590001 0.104 -0.061999999 103 16 0
3.2679999 0.094999999 -0.056000002 100 16 0
3.273 0.086000003 -0.050999999 87 16 0
3.2809999 0.077 -0.046 111 16 0
3.29 0.068000004 -0.039999999 79 16 0
3.296 0.059 -0.035 47 16 0
3.296 0.050000001 -0.028999999 63 16 0
3.3099999 0.041000001 -0.024 93 16 0
3.3239999 0.032000002 -0.018999999 58 16 0
3.3199999 0.023 -0.013 26 16 0
3.2980001 0.013 -0.0080000004 19 16 0
3.279 0.0040000002 -0.0020000001 18 16 0
3.2639999 -0.0040000002 0.0020000001 18 16 0
3.2539999 -0.013 0.0070000002 35 16 0
3.253 -0.022 0.013 150 16 0
3.263 -0.032000002 0.017999999 150 16 0
3.266 -0.041000001 0.023 150 16 0
3.2750001 -0.050000001 0.028999999 150 16 0
3.2809999 -0.059 0.034000002 150 16 0
3.2839999 -0.068999998 0.039000001 58 16 0
3.2650001 -0.077 0.044 31 16 0
3.247 -0.086000003 0.048999999 31 16 0
3.227 -0.094999999 0.054000001 29 16 0
3.217 -0.104 0.059 30 16 0
3.2030001 -0.112 0.064000003 30 16 0
3.1819999 -0.121 0.068000004 30 16 0
3.1619999 -0.12899999 0.072999999 29 16 0
3.1489999 -0.13699999 0.077 29 16 0
3.1270001 -0.145 0.082000002 29 16 0
3.1129999 -0.153 0.086000003 28 16 0
3.099 -0.161 0.090999998 28 16 0
3.079 -0.169 0.094999999 28 16 0
3.066 -0.177 0.098999999 28 16 0
3.046 -0.185 0.103 29 16 0
3.0320001 -0.193 0.107 29 16 0
3.016 -0.2 0.111 30 16 0
2.997 -0.208 0.115 32 16 0
2.9820001 -0.215 0.119 31 16 0
2.9649999 -0.222 0.123 29 16 0
2.954 -0.23 0.127 31 16 0
2.9360001 -0.237 0.131 32 16 0
2.9200001 -0.244 0.134 34 16 0
2.9059999 -0.252 0.138 34 16 0
2.892 -0.259 0.142 34 16 0
2.8829999 -0.266 0.145 34 16 0
2.8629999 -0.273 0.149 33 16 0
2.849 -0.28 0.152 34 16 0
2.8380001 -0.287 0.156 34 16 0
2.825 -0.294 0.15899999 36 16 0
2.806 -0.30000001 0.162 35 16 0
2.7939999 -0.30700001 0.16500001 37 16 0
2.7809999 -0.31400001 0.169 36 16 0
2.767 -0.31999999 0.17200001 39 16 0
2.757 -0.32699999 0.175 38 16 0
2.7390001 -0.333 0.178 37 16 0
2.7290001 -0.34 0.18099999 38 16 0
2.7179999 -0.34599999 0.184 38 16 0
2.711 -0.354 0.18799999 37 16 0
2.697 -0.36000001 0.191 39 16 0
2.6830001 -0.366 0.193 41 16 0
2.6700001 -0.37200001 0.19599999 55 16 0
2.6530001 -0.37799999 0.199 46 16 0
2.6429999 -0.384 0.20200001 49 16 0
2.6259999 -0.389 0.204 54 16 0
2.615 -0.39500001 0.207 53 16 0
2.6010001 -0.40099999 0.20900001 56 16 0
2.5940001 -0.40799999 0.212 60 16 0
2.582 -0.414 0.215 60 16 0
2.569 -0.419 0.21699999 58 16 0
2.5599999 -0.426 0.22 62 16 0
2.543 -0.43000001 0.222 59 16 0
2.5350001 -0.43700001 0.22499999 70 16 0
2.52 -0.442 0.227 70 16 0
2.5109999 -0.44800001 0.229 62 16 0
2.4979999 -0.45300001 0.23100001 66 16 0
2.4890001 -0.45899999 0.234 66 16 0
2.4760001 -0.46399999 0.236 73 16 0
2.4649999 -0.46900001 0.23800001 71 16 0
2.451 -0.47400001 0.23999999 79 16 0
2.4460001 -0.48100001 0.243 73 16 0
2.4349999 -0.486 0.245 78 16 0
2.425 -0.49200001 0.24699999 94 16 0
2.414 -0.49700001 0.249 81 16 0
2.402 -0.50199997 0.25099999 79 16 0
2.391 -0.50700003 0.25299999 83 16 0
2.378 -0.51099998 0.25400001 83 16 0
2.3729999 -0.51800001 0.257 86 16 0
2.355 -0.52100003 0.25799999 93 16 0
2.348 -0.52700001 0.25999999 98 16 0
2.339 -0.53200001 0.26199999 101 16 0
2.3210001 -0.53500003 0.26300001 82 16 0
2.313 -0.54000002 0.26499999 79 16 0
2.3039999 -0.54500002 0.266 91 16 0
2.293 -0.55000001 0.26800001 88 16 0
2.29 -0.55699998 0.27000001 88 16 0
2.277 -0.56099999 0.271 99 16 0
2.2590001 -0.56300002 0.27200001 97 16 0
2.2520001 -0.56800002 0.27399999 88 16 0
2.2479999 -0.57499999 0.27599999 100 16 0
2.234 -0.57800001 0.27700001 96 16 0
2.227 -0.583 0.27900001 99 16 0
2.2119999 -0.58600003 0.27900001 117 16 0
2.207 -0.59200001 0.28099999 111 16 0
2.201 -0.597 0.28299999 108 16 0
2.1900001 -0.60100001 0.28400001 94 16 0
2.1819999 -0.60600001 0.285 117 16 0
2.1730001 -0.611 0.287 103 16 0
2.164 -0.61500001 0.28799999 110 16 0
2.154 -0.61900002 0.289 113 16 0
2.1400001 -0.62199998 0.289 113 16 0
2.1370001 -0.62800002 0.29100001 117 16 0
2.122 -0.63 0.29100001 120 16 0
2.1070001 -0.63300002 0.292 125 16 0
2.099 -0.63700002 0.29300001 123 16 0
2.095 -0.64300001 0.294 125 16 0
2.085 -0.64600003 0.29499999 134 16 0
2.075 -0.64999998 0.296 125 16 0
2.069 -0.65499997 0.29699999 133 16 0
2.0599999 -0.65899998 0.29800001 148 16 0
2.046 -0.66000003 0.29800001 142 16 0
2.0409999 -0.66600001 0.29899999 147 16 0
2.0350001 -0.67000002 0.30000001 148 16 0
2.0209999 -0.67199999 0.30000001 150 16 0
2.0179999 -0.67799997 0.30199999 145 16 0
2.01 -0.68199998 0.303 150 16 0
1.998 -0.68400002 0.303 149 16 0
1.99 -0.68800002 0.303 150 16 0
1.9809999 -0.69199997 0.30399999 150 16 0
1.971 -0.69400001 0.30399999 150 16 0
1.9680001 -0.69999999 0.30500001 150 16 0
1.957 -0.70200002 0.30500001 150 16 0
1.948 -0.70599997 0.30599999 150 16 0
1.943 -0.70999998 0.30700001 150 16 0
1.931 -0.71200001 0.30599999 150 16 0
1.926 -0.71700001 0.30700001 150 16 0
1.919 -0.72000003 0.308 150 16 0
1.9119999 -0.72399998 0.308 150 16 0
1.9069999 -0.72799999 0.30899999 150 16 0
1.891 -0.72799999 0.308 150 16 0
1.886 -0.73299998 0.308 150 16 0
1.8789999 -0.736 0.30899999 150 16 0
1.875 -0.741 0.31 150 16 0
1.8660001 -0.74400002 0.31 150 16 0
1.859 -0.74699998 0.31 150 16 0
1.854 -0.75099999 0.31 150 16 0
1.8430001 -0.75300002 0.31 150 16 0
1.839 -0.75800002 0.31 150 16 0
1.832 -0.75999999 0.31 150 16 0
1.823 -0.76300001 0.31 150 16 0
1.812 -0.764 0.31 150 16 0
1.811 -0.76999998 0.31099999 3 0 0
1.804 -0.773 0.31099999 150 16 0
1.802 -0.778 0.31099999 150 16 0
1.788 -0.778 0.31 4 0 0
1.779 -0.77999997 0.30899999 2 0 0
1.774 -0.78399998 0.31 3 0 0
1.768 -0.787 0.31 4 0 0
1.756 -0.787 0.308 68 0 0
1.752 -0.79100001 0.30899999 2 0 0
1.747 -0.79500002 0.30899999 3 0 0
1.7410001 -0.79799998 0.308 3 0 0
1.735 -0.801 0.308 3 0 0
1.73 -0.80400002 0.308 2 0 0
1.721 -0.80599999 0.30700001 88 0 0
1.715 -0.80800003 0.30700001 136 0 0
1.707 -0.81 0.30599999 83 0 0
1.699 -0.81199998 0.30599999 75 0 0
1.694 -0.815 0.30500001 129 0 0
1.686 -0.81699997 0.30399999 107 0 0
1.683 -0.82099998 0.30500001 109 0 0
1.681 -0.82499999 0.30500001 77 0 0
1.673 -0.82700002 0.30399999 150 16 0
1.671 -0.83200002 0.30399999 101 0 0
1.66 -0.83099997 0.303 121 0 0
1.647 -0.82999998 0.301 150 0 0
1.642 -0.833 0.30000001 150 0 0
1.6440001 -0.83899999 0.301 150 16 0
1.635 -0.83999997 0.30000001 126 0 0
1.63 -0.84299999 0.29899999 150 16 0
1.624 -0.84399998 0.29800001 150 0 0
1.62 -0.84799999 0.29800001 150 16 0
1.614 -0.85000002 0.29699999 150 0 0
1.6059999 -0.85100001 0.296 150 0 0
1.6059999 -0.85500002 0.296 150 0 0
1.597 -0.85600001 0.294 150 0 0
1.592 -0.85799998 0.29300001 150 16 0
1.59 -0.86199999 0.29300001 150 16 0
1.585 -0.86400002 0.292 2 0 0
1.5779999 -0.86500001 0.29100001 150 16 0
1.573 -0.86699998 0.28999999 150 16 0
1.571 -0.87099999 0.28999999 150 16 0
1.564 -0.87199998 0.28799999 3 0 0
1.55 -0.86799997 0.285 3 3 0
1.545 -0.87 0.285 4 0 0
1.544 -0.87400001 0.28400001 150 0 0
1.539 -0.87599999 0.28299999 150 0 0
1.5369999 -0.88 0.28200001 5 0 0
1.531 -0.88 0.28099999 150 0 0
1.527 -0.88300002 0.28 150 0 0
1.526 -0.88599998 0.27900001 138 0 0
1.525 -0.88999999 0.27900001 150 0 0
1.52 -0.89200002 0.278 150 0 0
1.513 -0.89200002 0.27599999 134 0 0
1.511 -0.89499998 0.27500001 137 0 0
1.507 -0.89600003 0.27399999 140 0 0
1.499 -0.89600003 0.27200001 137 0 0
1.497 -0.89899999 0.271 131 0 0
1.494 -0.90100002 0.27000001 150 0 0
1.487 -0.90100002 0.26800001 150 0 0
1.483 -0.90200001 0.26699999 150 0 0
1.4809999 -0.90499997 0.266 150 0 0
1.475 -0.90499997 0.264 141 0 0
1.472 -0.90700001 0.26300001 150 0 0
1.4680001 -0.90799999 0.26100001 150 0 0
1.466 -0.91100001 0.25999999 128 0 0
1.465 -0.91299999 0.259 150 0 0
1.459 -0.91299999 0.257 136 0 0
1.454 -0.91399997 0.255 146 0 0
1.4529999 -0.91600001 0.25400001 150 0 0
1.45 -0.91799998 0.25299999 150 0 0
1.4450001 -0.91799998 0.25099999 150 0 0
1.439 -0.917 0.249 150 0 0
1.437 -0.91900003 0.248 150 0 0
1.4349999 -0.921 0.24600001 150 0 0
1.432 -0.92199999 0.245 135 0 0
1.4299999 -0.92400002 0.243 150 0 0
1.424 -0.92299998 0.241 150 0 0
1.423 -0.92500001 0.23999999 150 0 0
1.4220001 -0.92699999 0.23800001 150 0 0
1.415 -0.926 0.236 111 0 0
1.416 -0.92900002 0.235 150 0 0
1.411 -0.92799997 0.233 150 0 0
1.408 -0.92900002 0.23100001 146 0 0
1.408 -0.93199998 0.23 140 0 0
1.403 -0.93000001 0.228 117 0 0
1.402 -0.93199998 0.226 123 0 0
1.403 -0.935 0.22499999 150 0 0
1.401 -0.93599999 0.223 147 0 0
1.392 -0.93199998 0.221 150 2 0
1.392 -0.93400002 0.219 139 0 0
1.39 -0.935 0.21699999 116 0 0
1.3890001 -0.93599999 0.21600001 115 0 0
1.385 -0.93599999 0.213 145 0 0
1.385 -0.93699998 0.212 127 0 0
1.3789999 -0.935 0.20900001 142 0 0
1.382 -0.93800002 0.208 119 0 0
1.38 -0.93900001 0.206 124 0 0
1.381 -0.94099998 0.205 122 0 0
1.374 -0.93800002 0.20200001 125 3 0
1.372 -0.93800002 0.2 96 0 0
1.374 -0.94 0.199 141 0 0
1.373 -0.94099998 0.197 133 0 0
1.373 -0.94199997 0.19499999 146 0 0
1.3710001 -0.94199997 0.193 113 0 0
1.37 -0.94199997 0.191 78 0 0
1.364 -0.93900001 0.189 90 3 0
1.369 -0.94300002 0.18700001 139 0 0
1.363 -0.94 0.185 127 0 0
1.3609999 -0.94 0.183 91 0 0
1.363 -0.94099998 0.18099999 105 0 0
1.363 -0.94199997 0.17900001 108 0 0
1.36 -0.94 0.177 119 0 0
1.3609999 -0.94099998 0.175 139 0 0
1.358 -0.94 0.17299999 105 0 0
1.36 -0.94199997 0.171 143 0 0
1.358 -0.94 0.169 126 0 0
1.358 -0.94 0.167 103 0 0
1.358 -0.94 0.16500001 107 0 0
1.358 -0.94099998 0.164 150 0 0
1.362 -0.94300002 0.162 139 0 0
1.357 -0.93900001 0.15899999 150 0 0
1.362 -0.94199997 0.15800001 120 0 0
1.355 -0.93800002 0.155 150 0 0
1.3559999 -0.93699998 0.153 131 0 0
1.358 -0.93900001 0.152 144 0 0
1.3559999 -0.93699998 0.149 132 0 0
1.357 -0.93699998 0.147 150 0 0
1.36 -0.93800002 0.146 111 0 0
1.36 -0.93800002 0.14399999 107 0 0
1.362 -0.93800002 0.142 112 0 0
1.3609999 -0.93699998 0.14 107 0 0
1.359 -0.93400002 0.13699999 150 0 0
1.359 -0.93300003 0.13500001 136 0 0
1.363 -0.935 0.134 131 0 0
1.3609999 -0.93199998 0.132 150 0 0
1.362 -0.93099999 0.13 127 0 0
1.362 -0.93000001 0.127 123 0 0
1.364 -0.93000001 0.126 136 0 0
1.367 -0.93099999 0.124 93 0 0
1.365 -0.92799997 0.121 148 0 0
1.3660001 -0.92699999 0.12 135 0 0
1.367 -0.926 0.118 138 0 0
1.368 -0.92500001 0.116 140 0 0
1.374 -0.92699999 0.114 97 0 0
1.37 -0.92199999 0.112 123 0 0
1.375 -0.92400002 0.11 150 0 0
1.372 -0.92000002 0.108 111 0 0
1.38 -0.92299998 0.106 128 0 0
1.382 -0.92199999 0.104 150 0 0
1.383 -0.92000002 0.102 131 0 0
1.383 -0.91799998 0.1 142 0 0
1.385 -0.917 0.097999997 130 0 0
1.385 -0.91500002 0.096000001 121 0 0
1.387 -0.91399997 0.093999997 142 0 0
1.39 -0.91399997 0.093000002 103 0 0
1.392 -0.912 0.090999998 106 0 0
1.395 -0.912 0.089000002 138 0 0
1.398 -0.91000003 0.086999997 95 0 0
1.398 -0.90799999 0.085000001 102 0 0
1.397 -0.90399998 0.082999997 95 0 0
1.404 -0.90600002 0.082000002 104 0 0
1.4069999 -0.90499997 0.079999998 119 0 0
1.408 -0.903 0.078000002 120 0 0
1.411 -0.90200001 0.075999998 103 0 0
1.411 -0.898 0.074000001 149 0 0
1.414 -0.89700001 0.071999997 100 0 0
1.418 -0.89700001 0.071000002 124 0 0
1.423 -0.89600003 0.068999998 4 0 0
1.425 -0.89399999 0.067000002 132 0 0
1.426 -0.89200002 0.064999998 102 0 0
1.4299999 -0.88999999 0.064000003 147 0 0
1.431 -0.88800001 0.061999999 110 0 0
1.434 -0.88599998 0.059999999 97 0 0
1.4349999 -0.88300002 0.057999998 117 0 0
1.443 -0.884 0.057 109 0 0
1.446 -0.88300002 0.055 104 0 0
1.448 -0.88 0.052999999 85 0 0
1.452 -0.87900001 0.052000001 83 0 0
1.454 -0.87599999 0.050000001 120 0 0
1.461 -0.87599999 0.048999999 126 0 0
1.46 -0.87199998 0.046999998 133 0 0
1.467 -0.87199998 0.045000002 103 0 0
1.47 -0.87 0.044 101 0 0
1.472 -0.86699998 0.041999999 150 0 0
1.477 -0.866 0.041000001 120 0 0
1.475 -0.861 0.039000001 110 0 0
1.483 -0.861 0.037 91 0 0
1.485 -0.85799998 0.035999998 119 0 0
1.489 -0.85600001 0.034000002 139 0 0
1.493 -0.85399997 0.033 131 0 0
1.498 -0.852 0.030999999 136 0 0
1.5 -0.84899998 0.029999999 126 0 0
1.5039999 -0.847 0.028000001 109 0 0
1.5089999 -0.84500003 0.027000001 113 0 0
1.5190001 -0.84600002 0.025 99 0 0
1.522 -0.84299999 0.024 125 0 0
1.526 -0.84100002 0.023 98 0 0
1.53 -0.83899999 0.021 111 0 0
1.5319999 -0.83499998 0.02 130 0 0
1.538 -0.833 0.017999999 6 0 0
1.543 -0.83200002 0.017000001 82 0 0
1.545 -0.82800001 0.016000001 84 0 0
1.549 -0.82499999 0.014 78 0 0
1.552 -0.82200003 0.013 71 0 0
1.563 -0.82300001 0.012 70 0 0
1.567 -0.81999999 0.0099999998 73 0 0
1.572 -0.81800002 0.0089999996 77 0 0
1.576 -0.815 0.0080000004 66 0 0
1.582 -0.81199998 0.0060000001 100 0 0
1.587 -0.81 0.0049999999 90 0 0
1.589 -0.80599999 0.0040000002 71 0 0
1.592 -0.80299997 0.003 57 0 0
1.598 -0.80000001 0.001 77 0 0
1.604 -0.79799998 0 89 0 0
1.608 -0.79500002 0 73 0 0
1.6210001 -0.796 -0.001 67 0 0
1.624 -0.792 -0.0020000001 53 0 0
1.627 -0.78799999 -0.0040000002 61 0 0
1.638 -0.78799999 -0.0049999999 48 0 0
1.642 -0.78399998 -0.0060000001 68 0 0
1.646 -0.78100002 -0.0070000002 61 0 0
1.651 -0.778 -0.0080000004 62 0 0
1.6569999 -0.77499998 -0.0089999996 40 0 0
1.664 -0.773 -0.0099999998 67 0 0
1.6670001 -0.76899999 -0.011 52 0 0
1.6799999 -0.76899999 -0.012 72 0 0
1.683 -0.76499999 -0.013 64 0 0
1.6900001 -0.76300001 -0.014 2 0 0
1.692 -0.75800002 -0.015 1 0 0
1.7029999 -0.75700003 -0.016000001 150 16 0
1.709 -0.75400001 -0.017000001 150 16 0
1.716 -0.75099999 -0.017999999 150 16 0
1.726 -0.75 -0.018999999 150 16 0
1.734 -0.74800003 -0.02 150 16 0
1.739 -0.74400002 -0.021 150 16 0
1.742 -0.73900002 -0.022 150 16 0
1.752 -0.73799998 -0.023 150 16 0
1.76 -0.73500001 -0.024 53 0 0
1.766 -0.73199999 -0.025 145 16 0
1.7690001 -0.727 -0.026000001 150 16 0
1.776 -0.72399998 -0.026000001 36 0 0
1.786 -0.722 -0.027000001 150 16 0
1.78 -0.71399999 -0.028000001 44 0 0
1.799 -0.71499997 -0.028999999 38 0 0
1.808 -0.71200001 -0.029999999 38 0 0
1.813 -0.708 -0.029999999 42 0 0
1.823 -0.70599997 -0.030999999 1 0 0
1.826 -0.70099998 -0.032000002 36 0 0
1.836 -0.69800001 -0.033 1 0 0
1.845 -0.69599998 -0.033 1 0 0
1.854 -0.69300002 -0.034000002 150 16 0
1.86 -0.68800002 -0.035 150 16 0
1.864 -0.68300003 -0.035 145 16 0
1.872 -0.68000001 -0.035999998 148 16 0
1.8839999 -0.67799997 -0.037 130 16 0
1.888 -0.67299998 -0.037 130 16 0
1.899 -0.671 -0.037999999 125 16 0
1.91 -0.66799998 -0.039000001 131 16 0
1.914 -0.66299999 -0.039000001 125 16 0
1.919 -0.65799999 -0.039999999 127 16 0
1.925 -0.65399998 -0.039999999 125 16 0
1.9299999 -0.64899999 -0.041000001 121 16 0
1.9400001 -0.64600003 -0.041000001 124 16 0
1.957 -0.64399999 -0.041999999 115 16 0
1.964 -0.63999999 -0.041999999 116 16 0
1.971 -0.63599998 -0.043000001 108 16 0
1.983 -0.63300002 -0.043000001 115 16 0
1.99 -0.62900001 -0.044 107 16 0
2 -0.625 -0.044 106 16 0
2.007 -0.62 -0.044 103 16 0
2.0139999 -0.616 -0.045000002 112 16 0
2.0190001 -0.61000001 -0.045000002 94 16 0
2.0350001 -0.60799998 -0.046 101 16 0
2.0439999 -0.60399997 -0.046 100 16 0
2.053 -0.60000002 -0.046 95 16 0
2.0610001 -0.59500003 -0.046999998 94 16 0
2.073 -0.59200001 -0.046999998 100 16 0
2.0840001 -0.588 -0.046999998 104 16 0
2.0929999 -0.583 -0.048 94 16 0
2.0999999 -0.57800001 -0.048 93 16 0
2.1059999 -0.57300001 -0.048 84 16 0
2.1199999 -0.56999999 -0.048 93 16 0
2.1370001 -0.56699997 -0.048999999 89 16 0
2.142 -0.56099999 -0.048999999 84 16 0
2.1530001 -0.55699998 -0.048999999 91 16 0
2.161 -0.55199999 -0.048999999 89 16 0
2.1819999 -0.55000001 -0.050000001 78 16 0
2.1919999 -0.54500002 -0.050000001 78 16 0
2.2 -0.53899997 -0.050000001 74 16 0
2.207 -0.53399998 -0.050000001 76 16 0
2.2190001 -0.52899998 -0.050000001 73 16 0
2.234 -0.52499998 -0.050000001 75 16 0
2.2420001 -0.51999998 -0.050000001 71 16 0
2.2539999 -0.51499999 -0.050000001 67 16 0
2.267 -0.50999999 -0.050000001 72 16 0
2.276 -0.505 -0.050000001 70 16 0
2.2839999 -0.49900001 -0.050000001 71 16 0
2.3 -0.495 -0.050000001 61 16 0
2.3110001 -0.49000001 -0.050000001 52 16 0
2.323 -0.48500001 -0.050000001 47 16 0
2.335 -0.479 -0.050000001 48 16 0
2.352 -0.47499999 -0.050000001 48 16 0
2.365 -0.47 -0.050000001 49 16 0
2.3699999 -0.463 -0.050000001 38 16 0
2.3870001 -0.458 -0.050000001 51 16 0
2.402 -0.45300001 -0.050000001 49 16 0
2.415 -0.44800001 -0.048999999 51 16 0
2.4219999 -0.44100001 -0.048999999 52 16 0
2.4389999 -0.43599999 -0.048999999 54 16 0
2.4549999 -0.43099999 -0.048999999 43 16 0
2.461 -0.42399999 -0.048 42 16 0
2.4749999 -0.41800001 -0.048 42 16 0
2.4860001 -0.412 -0.048 41 16 0
2.4990001 -0.40599999 -0.046999998 40 16 0
2.5150001 -0.40000001 -0.046999998 34 16 0
2.526 -0.39399999 -0.046999998 34 16 0
2.5439999 -0.38800001 -0.046 33 16 0
2.553 -0.38100001 -0.046 33 16 0
2.576 -0.37599999 -0.046 34 16 0
2.5880001 -0.36899999 -0.045000002 32 16 0
2.6010001 -0.36300001 -0.045000002 34 16 0
2.6170001 -0.35600001 -0.044 34 16 0
2.628 -0.34900001 -0.044 34 16 0
2.6459999 -0.34299999 -0.043000001 34 16 0
2.658 -0.336 -0.043000001 34 16 0
2.675 -0.33000001 -0.041999999 33 16 0
2.6930001 -0.32300001 -0.041999999 30 16 0
2.7130001 -0.31600001 -0.041000001 31 16 0
2.724 -0.30899999 -0.039999999 30 16 0
2.734 -0.301 -0.039999999 28 16 0
2.7579999 -0.29499999 -0.039000001 30 16 0
2.7650001 -0.287 -0.037999999 29 16 0
2.786 -0.28 -0.037999999 29 16 0
2.803 -0.273 -0.037 29 16 0
2.813 -0.264 -0.035999998 29 16 0
2.8399999 -0.25799999 -0.035 28 19 0
2.8529999 -0.25 -0.034000002 28 16 0
2.8699999 -0.242 -0.033 28 16 0
2.8859999 -0.234 -0.033 28 16 0
2.904 -0.226 -0.032000002 27 16 0
2.9219999 -0.21799999 -0.030999999 27 16 0
2.937 -0.20999999 -0.029999999 28 16 0
2.9619999 -0.20200001 -0.028999999 27 16 0
2.98 -0.193 -0.028000001 26 16 0
3 -0.185 -0.027000001 25 16 0
3.017 -0.177 -0.026000001 26 16 0
3.0439999 -0.168 -0.024 25 16 0
3.0610001 -0.15899999 -0.023 26 16 0
3.086 -0.15099999 -0.022 25 16 0
3.1029999 -0.142 -0.021 25 16 0
3.1259999 -0.133 -0.02 27 16 0
3.1500001 -0.123 -0.017999999 27 16 0
3.1670001 -0.114 -0.017000001 27 16 0
3.194 -0.105 -0.016000001 27 16 0
3.2119999 -0.094999999 -0.014 27 16 0
3.2320001 -0.085000001 -0.013 27 16 0
3.263 -0.075999998 -0.011 33 16 0
3.266 -0.064999998 -0.0099999998 136 16 0
3.2609999 -0.055 -0.0080000004 139 16 0
3.26 -0.044 -0.0070000002 130 16 0
3.2539999 -0.034000002 -0.0049999999 122 16 0
3.25 -0.023 -0.003 97 16 0
3.247 -0.013 -0.0020000001 23 16 0
3.2739999 -0.003 0 17 16 0
3.299 0.0070000002 0.001 18 16 0
3.323 0.017999999 0.0020000001 21 16 0
3.3369999 0.028000001 0.0040000002 42 16 0
3.323 0.039000001 0.0060000001 50 16 0
3.323 0.048999999 0.0080000004 47 16 0
3.3210001 0.059999999 0.0099999998 42 16 0
3.3150001 0.07 0.012 55 16 0
3.3080001 0.081 0.013 55 16 0
3.3039999 0.090999998 0.015 53 16 0
3.3039999 0.102 0.017000001 55 16 0
3.293 0.112 0.018999999 61 16 0
3.2909999 0.122 0.021 64 16 0
3.2869999 0.133 0.023 53 16 0
3.2709999 0.14300001 0.025 36 16 0
3.247 0.152 0.026000001 24 16 0
3.24 0.162 0.028000001 24 16 0
3.237 0.17200001 0.029999999 24 16 0
3.233 0.182 0.032000002 24 16 0
3.233 0.192 0.034000002 24 16 0
3.2190001 0.20200001 0.035999998 24 16 0
3.2 0.211 0.037999999 36 16 0
3.1860001 0.22 0.039999999 96 16 0
3.1919999 0.23100001 0.041999999 51 16 0
3.2019999 0.241 0.044 27 16 0
3.1989999 0.25099999 0.046 25 16 0
3.1919999 0.26100001 0.048 24 16 0
3.194 0.271 0.050000001 25 16 0
3.187 0.28099999 0.052000001 25 16 0
3.1830001 0.29100001 0.055 25 16 0
3.1789999 0.30000001 0.057 26 16 0
3.168 0.31 0.059 25 16 0
3.165 0.31900001 0.061000001 25 16 0
3.1589999 0.329 0.063000001 25 16 0
3.1559999 0.338 0.064999998 27 16 0
3.1459999 0.347 0.067000002 26 16 0
3.1489999 0.35800001 0.07 21 16 0
3.1789999 0.37099999 0.072999999 28 19 0
3.1860001 0.382 0.075000003 114 16 0
3.178 0.391 0.077 101 16 0
3.175 0.40099999 0.079999998 92 16 0
3.1719999 0.41100001 0.082000002 92 16 0
3.168 0.41999999 0.083999999 87 16 0
3.1600001 0.42899999 0.086000003 95 16 0
3.1589999 0.43900001 0.089000002 91 16 0
3.155 0.449 0.090999998 88 16 0
3.145 0.45699999 0.093000002 92 16 0
3.1429999 0.46700001 0.096000001 97 16 0
3.1440001 0.477 0.097999997 104 16 0
3.1370001 0.486 0.101 97 16 0
3.1359999 0.49599999 0.103 92 16 0
3.128 0.505 0.106 102 16 0
3.1270001 0.514 0.108 104 16 0
3.125 0.52399999 0.111 89 16 0
3.1229999 0.53399998 0.113 102 16 0
3.1099999 0.54100001 0.115 83 16 0
3.1099999 0.551 0.118 94 16 0
3.1110001 0.56099999 0.121 89 16 0
3.1029999 0.56999999 0.123 81 16 0
3.096 0.57800001 0.126 91 16 0
3.096 0.588 0.12800001 86 16 0
3.0899999 0.597 0.131 87 16 0
3.0869999 0.60600001 0.134 95 16 0
3.086 0.616 0.13600001 97 16 0
3.0829999 0.625 0.139 90 16 0
3.079 0.634 0.142 86 16 0
3.0780001 0.64399999 0.145 89 16 0
3.0699999 0.65200001 0.147 90 16 0
3.072 0.662 0.15000001 87 16 0
3.0599999 0.66900003 0.152 84 16 0
3.0610001 0.67900002 0.155 70 16 0
3.059 0.68800002 0.15800001 77 16 0
3.0510001 0.69599998 0.161 87 16 0
3.053 0.70700002 0.164 68 16 0
3.053 0.71600002 0.167 51 16 0
3.0480001 0.72500002 0.17 50 16 0
3.0450001 0.73400003 0.17299999 49 16 0
3.0320001 0.74000001 0.175 52 16 0
3.0350001 0.75099999 0.178 75 16 0
3.027 0.75800002 0.18099999 86 16 0
3.0209999 0.76700002 0.184 102 16 0
3.0239999 0.77700001 0.18700001 118 16 0
3.02 0.78600001 0.19 118 16 0
3.0179999 0.79400003 0.193 122 16 0
3.0150001 0.80299997 0.19599999 128 16 0
3.007 0.81099999 0.199 115 16 0
3 0.81900001 0.20200001 123 16 0
3.0020001 0.829 0.205 133 16 0
2.9990001 0.83700001 0.208 136 16 0
2.997 0.84600002 0.211 150 16 0
2.993 0.85500002 0.215 131 16 0
2.9920001 0.86400002 0.21799999 150 16 0
2.9890001 0.87199998 0.221 150 16 0
2.987 0.88099998 0.22400001 150 16 0
2.983 0.88999999 0.228 145 16 0
2.9760001 0.89700001 0.23100001 128 16 0
2.971 0.90499997 0.234 100 16 0
2.9660001 0.91299999 0.237 55 16 0
2.9630001 0.921 0.23999999 43 16 0
2.9549999 0.92799997 0.243 39 16 0
2.9430001 0.93400002 0.24600001 35 16 0
2.938 0.94099998 0.249 34 16 0
2.9319999 0.949 0.252 33 16 0
2.9260001 0.95599997 0.255 32 16 0
2.9200001 0.963 0.25799999 32 16 0
2.908 0.96799999 0.26100001 32 16 0
2.8989999 0.97399998 0.264 31 16 0
2.8929999 0.98199999 0.26699999 32 16 0
2.8829999 0.98699999 0.27000001 31 16 0
2.875 0.99400002 0.273 32 16 0
2.868 1 0.27599999 32 16 0
2.865 1.008 0.28 32 16 0
2.8559999 1.0140001 0.28200001 33 16 0
2.8429999 1.018 0.285 32 16 0
2.8380001 1.025 0.28799999 41 16 0
2.8310001 1.0319999 0.292 48 16 0
2.826 1.039 0.29499999 89 16 0
2.822 1.046 0.29800001 150 16 0
2.8169999 1.053 0.30199999 150 16 0
2.813 1.0599999 0.30500001 150 16 0
2.812 1.068 0.30899999 150 16 0
2.809 1.076 0.31299999 150 16 0
2.809 1.084 0.317 150 16 0
2.803 1.091 0.31999999 150 16 0
2.8010001 1.099 0.324 150 16 0
2.802 1.108 0.329 150 16 0
2.799 1.115 0.33199999 150 16 0
2.7939999 1.122 0.336 150 16 0
2.7920001 1.13 0.34 150 16 0
2.789 1.137 0.34400001 150 16 0
2.786 1.1440001 0.347 150 16 0
2.7869999 1.153 0.352 150 16 0
2.7820001 1.159 0.35600001 150 16 0
2.7820001 1.168 0.36000001 150 16 0
2.779 1.175 0.36399999 150 16 0
2.776 1.182 0.368 150 16 0
2.7720001 1.189 0.37200001 150 16 0
2.776 1.199 0.377 150 16 0
2.7709999 1.205 0.38 150 16 0
2.7650001 1.21 0.384 150 16 0
2.7679999 1.22 0.389 150 16 0
2.7650001 1.227 0.39300001 150 16 0
2.7609999 1.233 0.39700001 150 16 0
2.7620001 1.2410001 0.40200001 150 16 0
2.7609999 1.249 0.40599999 150 16 0
2.7579999 1.256 0.41100001 150 16 0
2.7509999 1.261 0.414 150 16 0
2.753 1.2690001 0.419 150 16 0
2.7490001 1.276 0.42300001 150 16 0
2.75 1.284 0.428 150 16 0
2.7479999 1.291 0.433 150 16 0
2.747 1.298 0.43700001 150 16 0
2.744 1.3049999 0.44100001 150 16 0
2.747 1.314 0.447 150 16 0
2.744 1.3200001 0.45100001 150 16 0
2.74 1.326 0.456 150 16 0
2.7390001 1.3329999 0.46000001 150 16 0
2.733 1.3380001 0.46399999 150 16 0
2.7349999 1.346 0.46900001 150 16 0
2.7320001 1.352 0.47400001 150 16 0
2.7320001 1.359 0.479 150 16 0
2.7309999 1.3660001 0.484 150 16 0
2.73 1.373 0.48800001 150 16 0
2.7249999 1.378 0.493 150 16 0
2.7279999 1.386 0.498 150 16 0
2.7279999 1.393 0.50300002 150 16 0
2.723 1.398 0.50700003 150 16 0
2.723 1.405 0.51300001 150 16 0
2.7219999 1.411 0.51800001 150 16 0
2.7219999 1.418 0.523 150 16 0
2.721 1.425 0.528 150 16 0
2.721 1.431 0.53299999 150 16 0
2.723 1.4400001 0.53899997 150 16 0
2.72 1.444 0.54299998 150 16 0
2.7190001 1.451 0.54799998 150 16 0
2.7149999 1.455 0.55299997 148 16 0
2.714 1.461 0.55800003 150 16 0
2.714 1.467 0.56300002 150 16 0
2.71 1.471 0.56699997 143 16 0
2.707 1.476 0.57200003 150 16 0
2.7119999 1.485 0.579 150 16 0
2.7090001 1.49 0.583 149 16 0
2.7149999 1.499 0.58999997 138 16 0
2.7119999 1.503 0.59500003 150 16 0
2.7130001 1.51 0.60000002 150 16 0
2.71 1.5140001 0.60500002 150 16 0
2.7090001 1.5190001 0.61000001 141 16 0
2.7030001 1.522 0.61400002 70 16 0
2.698 1.525 0.61900002 40 16 0
2.6849999 1.522 0.62099999 35 16 0
2.6789999 1.525 0.625 34 16 0
2.6730001 1.526 0.62900001 34 16 0
2.661 1.525 0.63099998 33 16 0
2.654 1.526 0.63499999 33 16 0
2.651 1.529 0.63999999 34 16 0
2.6389999 1.527 0.64200002 34 16 0
2.6289999 1.526 0.64499998 32 16 0
2.622 1.527 0.648 32 16 0
2.6159999 1.527 0.65200001 32 16 0
2.6059999 1.526 0.65499997 32 16 0
2.6010001 1.528 0.65899998 31 16 0
2.5969999 1.53 0.66299999 32 16 0
2.5840001 1.526 0.66500002 32 16 0
2.5810001 1.528 0.66900003 33 16 0
2.572 1.527 0.67199999 32 16 0
2.562 1.525 0.67400002 31 16 0
2.556 1.525 0.67799997 32 16 0
2.5450001 1.522 0.68000001 33 16 0
2.54 1.523 0.68400002 36 16 0
2.5380001 1.525 0.68800002 37 16 0
2.5209999 1.518 0.68800002 36 19 0
2.5150001 1.517 0.69099998 36 16 0
2.5120001 1.5190001 0.69599998 36 16 0
2.5050001 1.517 0.699 36 16 0
2.4979999 1.516 0.70099998 36 16 0
2.49 1.5140001 0.704 36 16 0
2.49 1.516 0.70899999 37 16 0
2.4779999 1.511 0.70999998 36 16 0
2.4749999 1.512 0.71399999 37 16 0
2.464 1.508 0.71499997 36 16 0
2.4590001 1.507 0.71799999 37 16 0
2.4549999 1.506 0.722 37 16 0
2.448 1.503 0.72399998 38 16 0
2.444 1.502 0.727 36 16 0
2.4400001 1.502 0.73100001 37 16 0
2.4289999 1.4960001 0.73199999 37 16 0
2.424 1.495 0.73500001 37 16 0
2.4170001 1.492 0.73699999 37 16 0
2.4119999 1.49 0.74000001 37 16 0
2.4059999 1.487 0.74199998 37 16 0
2.4000001 1.484 0.74400002 37 16 0
2.398 1.484 0.74800003 38 16 0
2.3900001 1.48 0.74900001 37 16 0
2.388 1.479 0.75300002 37 16 0
2.382 1.476 0.755 38 16 0
2.375 1.472 0.75599998 39 16 0
2.3699999 1.469 0.75800002 37 16 0
2.3670001 1.467 0.76099998 39 16 0
2.358 1.462 0.76200002 38 19 0
2.355 1.46 0.76499999 37 16 0
2.352 1.457 0.76700002 38 16 0
2.3469999 1.454 0.76899999 37 16 0
2.3469999 1.4529999 0.773 37 16 0
2.3399999 1.448 0.77399999 39 16 0
2.3340001 1.444 0.77499998 37 16 0
2.3310001 1.441 0.77700001 38 16 0
2.3280001 1.438 0.77999997 37 16 0
2.323 1.434 0.78100002 40 16 0
2.3169999 1.429 0.78200001 38 16 0
2.313 1.426 0.78399998 40 16 0
2.3069999 1.42 0.78500003 37 16 0
2.306 1.418 0.787 37 16 0
2.303 1.415 0.78899997 37 16 0
2.2980001 1.411 0.79000002 38 16 0
2.2980001 1.408 0.79299998 41 16 0
2.2950001 1.405 0.79500002 38 16 0
2.289 1.399 0.79500002 39 16 0
2.2880001 1.396 0.79699999 39 16 0
2.2880001 1.3940001 0.80000001 40 16 0
2.277 1.385 0.79799998 39 18 0
2.279 1.3839999 0.801 45 16 0
2.2739999 1.378 0.801 45 16 0
2.277 1.377 0.80500001 42 16 0
2.2739999 1.372 0.80599999 40 16 0
2.267 1.3660001 0.80500001 43 16 0
2.267 1.363 0.80699998 46 16 0
2.266 1.359 0.80900002 47 16 0
2.26 1.352 0.80800003 49 16 0
2.2590001 1.348 0.81 49 16 0
2.2579999 1.344 0.81099999 44 16 0
2.2579999 1.341 0.81300002 57 16 0
2.257 1.337 0.81400001 47 16 0
2.256 1.3329999 0.815 53 16 0
2.26 1.331 0.81800002 50 16 0
2.2539999 1.324 0.81699997 54 16 0
2.253 1.3200001 0.81800002 56 16 0
2.253 1.3150001 0.81900001 64 16 0
2.253 1.312 0.81999999 69 16 0
2.2550001 1.308 0.82099998 67 16 0
2.2460001 1.299 0.81900001 73 19 0
2.2479999 1.296 0.82099998 75 16 0
2.247 1.291 0.82099998 81 16 0
2.2449999 1.285 0.82099998 79 16 0
2.244 1.28 0.82099998 69 16 0
2.244 1.276 0.82200003 78 16 0
2.2460001 1.272 0.82300001 75 16 0
2.2390001 1.2640001 0.82099998 70 16 0
2.2449999 1.262 0.82300001 72 16 0
2.2460001 1.258 0.824 76 16 0
2.2449999 1.252 0.824 77 16 0
2.243 1.2460001 0.82300001 67 16 0
2.2460001 1.243 0.824 86 16 0
2.2460001 1.237 0.824 85 16 0
2.2479999 1.233 0.82499999 81 16 0
2.2420001 1.225 0.82300001 82 16 0
2.244 1.221 0.82300001 88 16 0
2.2409999 1.2130001 0.82099998 74 16 0
2.244 1.209 0.82200003 90 16 0
2.244 1.204 0.82200003 86 16 0
2.247 1.2 0.82200003 90 16 0
2.2479999 1.1950001 0.82200003 83 16 0
2.2490001 1.189 0.82200003 73 16 0
2.2479999 1.184 0.82099998 82 16 0
2.2509999 1.179 0.82099998 82 16 0
2.2509999 1.174 0.81999999 75 16 0
2.2490001 1.166 0.81900001 79 16 0
2.2550001 1.164 0.81999999 91 16 0
2.2539999 1.1569999 0.81800002 81 16 0
2.2579999 1.153 0.81900001 89 16 0
2.2579999 1.147 0.81800002 94 16 0
2.26 1.142 0.81699997 91 16 0
2.263 1.137 0.81699997 84 16 0
2.266 1.132 0.81599998 85 16 0
2.266 1.126 0.815 92 16 0
2.2709999 1.122 0.815 91 16 0
2.2709999 1.1160001 0.81400001 91 16 0
2.2720001 1.11 0.81199998 93 16 0
2.277 1.1059999 0.81199998 101 16 0
2.2780001 1.1 0.81099999 110 16 0
2.28 1.095 0.81 103 16 0
2.2850001 1.091 0.81 81 16 0
2.286 1.085 0.80800003 84 16 0
2.286 1.0779999 0.80599999 81 16 0
2.293 1.075 0.80699998 88 16 0
2.296 1.0700001 0.80599999 89 16 0
2.296 1.063 0.80400002 88 16 0
2.3 1.058 0.80299997 86 16 0
2.303 1.053 0.801 87 16 0
2.3050001 1.0470001 0.80000001 88 16 0
2.309 1.0420001 0.79900002 97 16 0
2.312 1.0369999 0.79699999 86 16 0
2.3150001 1.031 0.796 100 16 0
2.3180001 1.026 0.79400003 94 16 0
2.3210001 1.02 0.79299998 93 16 0
2.326 1.015 0.792 88 16 0
2.3269999 1.0089999 0.78899997 90 16 0
2.3299999 1.003 0.78799999 100 16 0
2.335 0.99900001 0.78600001 96 16 0
2.3410001 0.99400002 0.78600001 95 16 0
2.3440001 0.98900002 0.78399998 102 16 0
2.3469999 0.98299998 0.78200001 103 16 0
2.3499999 0.977 0.77999997 105 16 0
2.3529999 0.97100002 0.778 105 16 0
2.3610001 0.96799999 0.77700001 95 16 0
2.365 0.96200001 0.77499998 89 16 0
2.369 0.95700002 0.773 93 16 0
2.3740001 0.95200002 0.77100003 86 16 0
2.378 0.94599998 0.76899999 82 16 0
2.381 0.94 0.76700002 84 16 0
2.3840001 0.93400002 0.76499999 89 16 0
2.3900001 0.92900002 0.76300001 88 16 0
2.3959999 0.92500001 0.76200002 89 16 0
2.4000001 0.91900003 0.759 88 16 0
2.402 0.91299999 0.75599998 73 16 0
2.408 0.90799999 0.755 93 16 0
2.4119999 0.90200001 0.75199997 81 16 0
2.418 0.89700001 0.75 94 16 0
2.4230001 0.89200002 0.74800003 96 16 0
2.4300001 0.88700002 0.74599999 91 16 0
2.4349999 0.88200003 0.74400002 93 16 0
2.4419999 0.87699997 0.74199998 95 16 0
2.4489999 0.87199998 0.74000001 95 16 0
2.457 0.86799997 0.73799998 95 16 0
2.464 0.86299998 0.73699999 93 16 0
2.464 0.85600001 0.73199999 87 16 0
2.471 0.85100001 0.73000002 88 16 0
2.4760001 0.84500003 0.72799999 84 16 0
2.48 0.83899999 0.72399998 91 16 0
2.4909999 0.83600003 0.72399998 81 16 0
2.494 0.82999998 0.72000003 83 16 0
2.5 0.824 0.71700001 81 16 0
2.5079999 0.81999999 0.71499997 82 16 0
2.5150001 0.815 0.713 89 16 0
2.523 0.81 0.71100003 86 16 0
2.526 0.80400002 0.70700002 85 16 0
2.5320001 0.79799998 0.704 86 16 0
2.5380001 0.79299998 0.70099998 92 16 0
2.5409999 0.78600001 0.69800001 85 16 0
2.5510001 0.78200001 0.69499999 79 16 0
2.5569999 0.77700001 0.69199997 81 16 0
2.563 0.77100003 0.68900001 74 16 0
2.5680001 0.76499999 0.68599999 82 16 0
2.572 0.759 0.68199998 82 16 0
2.5799999 0.75400001 0.67900002 79 16 0
2.5840001 0.74800003 0.676 82 16 0
2.595 0.74400002 0.67400002 77 16 0
2.605 0.73900002 0.671 76 16 0
2.612 0.73400003 0.66799998 79 16 0
2.612 0.727 0.66299999 76 16 0
2.6240001 0.722 0.66100001 75 16 0
2.632 0.71700001 0.65799999 82 16 0
2.6359999 0.71100003 0.65399998 39 16 0
2.6440001 0.70599997 0.65100002 38 16 0
2.6559999 0.70200002 0.648 39 16 0
2.6630001 0.69599998 0.64499998 40 16 0
2.674 0.69199997 0.64200002 39 16 0
2.677 0.685 0.63800001 39 16 0
2.6849999 0.68000001 0.634 37 16 0
2.6930001 0.67400002 0.63099998 37 16 0
2.7030001 0.66900003 0.62699997 39 16 0
2.711 0.66399997 0.62400001 39 16 0
2.72 0.65899998 0.62 39 16 0
2.7290001 0.65399998 0.61699998 40 16 0
2.7320001 0.64700001 0.61199999 37 16 0
2.7460001 0.64300001 0.61000001 38 16 0
2.75 0.63599998 0.60500002 38 16 0
2.763 0.63200003 0.602 36 16 0
2.7750001 0.62699997 0.59899998 38 16 0
2.779 0.62 0.59399998 39 16 0
2.789 0.61500001 0.58999997 37 16 0
2.8039999 0.611 0.588 38 16 0
2.809 0.60500002 0.583 36 16 0
2.816 0.59899998 0.57800001 36 16 0
2.8280001 0.59399998 0.57499999 36 16 0
2.835 0.588 0.56999999 36 16 0
2.845 0.583 0.56599998 38 16 0
2.859 0.57800001 0.56300002 36 16 0
2.8710001 0.57300001 0.55900002 37 16 0
2.8759999 0.56599998 0.55400002 38 16 0
2.885 0.56099999 0.55000001 37 16 0
2.8929999 0.55500001 0.54500002 37 16 0
2.8989999 0.54799998 0.54000002 35 16 0
2.9189999 0.54500002 0.537 36 16 0
2.931 0.53899997 0.53299999 36 16 0
2.9360001 0.53299999 0.528 36 16 0
2.95 0.528 0.52399999 34 16 0
2.9590001 0.52200001 0.51899999 35 16 0
2.973 0.51700002 0.51499999 34 16 0
2.9820001 0.51099998 0.50999999 34 16 0
2.993 0.505 0.50599998 34 16 0
3.003 0.49900001 0.50099999 34 16 0
3.016 0.49399999 0.49599999 35 16 0
3.029 0.48800001 0.49200001 34 16 0
3.0339999 0.48100001 0.486 34 16 0
3.0480001 0.47600001 0.48100001 33 16 0
3.0650001 0.47099999 0.477 34 16 0
3.0739999 0.465 0.472 33 16 0
3.086 0.45899999 0.46700001 33 16 0
3.0999999 0.45300001 0.46200001 35 16 0
3.112 0.44800001 0.45699999 36 16 0
3.1259999 0.442 0.45199999 33 16 0
3.138 0.43599999 0.447 35 16 0
3.148 0.43000001 0.44100001 35 16 0
3.1600001 0.42399999 0.43599999 35 16 0
3.174 0.41800001 0.43099999 36 16 0
3.188 0.412 0.426 37 16 0
3.1960001 0.405 0.419 52 16 0
3.2079999 0.39899999 0.414 150 16 0
3.2090001 0.391 0.40700001 150 16 0
3.211 0.384 0.40000001 150 16 0
3.214 0.37599999 0.39300001 150 16 0
3.214 0.36899999 0.38600001 150 16 0
3.217 0.36199999 0.37900001 150 16 0
3.2160001 0.354 0.37099999 150 16 0
3.2160001 0.34599999 0.36399999 150 16 0
3.221 0.33899999 0.35699999 150 16 0
3.217 0.331 0.34900001 150 16 0
3.2190001 0.324 0.34200001 150 16 0
3.221 0.31600001 0.33500001 150 16 0
3.2179999 0.308 0.32699999 150 16 0
3.22 0.301 0.31999999 150 16 0
3.224 0.294 0.31299999 150 16 0
3.2219999 0.28600001 0.30599999 150 16 0
3.2179999 0.278 0.29800001 131 16 0
3.224 0.27200001 0.29100001 132 16 0
3.223 0.264 0.28299999 144 16 0
3.2249999 0.257 0.27599999 131 16 0
3.2279999 0.25 0.26899999 140 16 0
3.224 0.242 0.26100001 135 16 0
3.2249999 0.235 0.25299999 143 16 0
3.2249999 0.227 0.24600001 128 16 0
3.227 0.22 0.23899999 138 16 0
3.227 0.213 0.23100001 136 16 0
3.1760001 0.20200001 0.22 150 18 0
3.0940001 0.19 0.207 88 19 0
3.095 0.183 0.2 29 16 0
3.0780001 0.175 0.191 21 16 0
3.1789999 0.17399999 0.19 49 17 0
3.2249999 0.169 0.186 110 16 0
3.233 0.162 0.178 139 16 0
3.234 0.155 0.171 134 16 0
3.227 0.148 0.163 128 16 0
3.2290001 0.14 0.155 108 16 0
3.234 0.133 0.148 113 16 0
3.2390001 0.126 0.14 72 16 0
3.2390001 0.119 0.133 37 16 0
3.257 0.113 0.126 29 16 0
3.2720001 0.106 0.118 26 16 0
3.2939999 0.1 0.111 27 16 0
3.3099999 0.093000002 0.104 29 16 0
3.3310001 0.086000003 0.097000003 37 16 0
3.342 0.079000004 0.089000002 28 16 0
3.3399999 0.071999997 0.081 4 16 0
3.2880001 0.064000003 0.071999997 5 18 0
3.2909999 0.056000002 0.064000003 12 16 0
3.306 0.050000001 0.056000002 5 16 0
3.339 0.043000001 0.048999999 27 16 0
3.346 0.035999998 0.041000001 55 16 0
3.3529999 0.028999999 0.033 53 16 0
3.3369999 0.021 0.024 26 16 0
3.3180001 0.014 0.016000001 18 16 0
3.3 0.0070000002 0.0080000004 17 16 0
3.273 0 0 16 16 0
3.2609999 -0.0060000001 -0.0070000002 16 16 0
3.2409999 -0.013 -0.015 21 16 0
3.233 -0.02 -0.023 41 16 0
3.234 -0.026000001 -0.030999999 116 16 0
3.2349999 -0.033 -0.039000001 122 16 0
3.2390001 -0.039999999 -0.046999998 135 16 0
3.234 -0.046999998 -0.055 122 16 0
3.2360001 -0.054000001 -0.063000001 134 16 0
3.2360001 -0.061000001 -0.071000002 150 16 0
3.234 -0.067000002 -0.079000004 138 16 0
3.2279999 -0.074000001 -0.086000003 42 16 0
3.2079999 -0.079999998 -0.093999997 27 16 0
3.194 -0.086000003 -0.101 26 16 0
3.1760001 -0.093000002 -0.109 25 16 0
3.155 -0.097999997 -0.116 25 16 0
3.142 -0.105 -0.123 26 16 0
3.125 -0.11 -0.13 25 16 0
3.1010001 -0.116 -0.13699999 25 16 0
3.0899999 -0.122 -0.14399999 25 16 0
3.0780001 -0.12800001 -0.15099999 25 16 0
3.056 -0.133 -0.15800001 24 16 0
3.046 -0.139 -0.16500001 25 16 0
3.029 -0.14399999 -0.17200001 25 16 0
3.0039999 -0.149 -0.178 25 16 0
2.9979999 -0.155 -0.185 24 16 0
2.9820001 -0.16 -0.192 24 16 0
2.9660001 -0.16500001 -0.199 23 16 0
2.9549999 -0.171 -0.205 23 16 0
2.9360001 -0.175 -0.212 24 16 0
2.9200001 -0.18000001 -0.21799999 23 16 0
2.9130001 -0.186 -0.22499999 24 16 0
2.898 -0.191 -0.23100001 26 16 0
2.8840001 -0.19599999 -0.237 26 16 0
2.8710001 -0.2 -0.244 26 16 0
2.8570001 -0.205 -0.25 25 16 0
2.8380001 -0.20900001 -0.25600001 25 16 0
2.8280001 -0.214 -0.26199999 26 16 0
2.819 -0.219 -0.26800001 27 16 0
2.799 -0.223 -0.27399999 26 16 0
2.7950001 -0.228 -0.28099999 26 16 0
2.779 -0.23199999 -0.28600001 26 16 0
2.763 -0.237 -0.292 26 16 0
2.7539999 -0.241 -0.29800001 26 16 0
2.7449999 -0.24600001 -0.30399999 27 16 0
2.7279999 -0.25 -0.31 26 16 0
2.7219999 -0.25400001 -0.31600001 26 16 0
2.7130001 -0.259 -0.322 27 16 0
2.6989999 -0.26300001 -0.32800001 26 16 0
2.6919999 -0.26699999 -0.33399999 28 16 0
2.6789999 -0.271 -0.34 28 16 0
2.6659999 -0.27500001 -0.345 25 16 0
2.6589999 -0.27900001 -0.35100001 26 16 0
2.651 -0.28400001 -0.35699999 28 16 0
2.631 -0.287 -0.36199999 27 16 0
2.6240001 -0.29100001 -0.368 28 16 0
2.612 -0.294 -0.373 27 16 0
2.6010001 -0.29800001 -0.37900001 26 16 0
2.5910001 -0.30199999 -0.384 28 16 0
2.582 -0.30599999 -0.38999999 28 16 0
2.572 -0.30899999 -0.39500001 28 16 0
2.563 -0.31299999 -0.40099999 27 16 0
2.552 -0.317 -0.40599999 27 16 0
2.5420001 -0.31999999 -0.41100001 26 16 0
2.5280001 -0.32300001 -0.41600001 26 16 0
2.5209999 -0.32699999 -0.42199999 27 16 0
2.51 -0.33000001 -0.42699999 28 16 0
2.5009999 -0.33399999 -0.43200001 28 16 0
2.493 -0.33700001 -0.43799999 26 16 0
2.4790001 -0.34 -0.442 27 16 0
2.4749999 -0.34400001 -0.44800001 27 16 0
2.464 -0.347 -0.45300001 28 16 0
2.4530001 -0.34999999 -0.458 30 16 0
2.451 -0.354 -0.46399999 31 16 0
2.4389999 -0.35699999 -0.46900001 31 16 0
2.427 -0.359 -0.47299999 30 16 0
2.421 -0.36300001 -0.479 32 16 0
2.415 -0.366 -0.48500001 30 16 0
2.398 -0.368 -0.48800001 30 16 0
2.3959999 -0.37200001 -0.49399999 30 16 0
2.3859999 -0.375 -0.49900001 32 16 0
2.3829999 -0.37799999 -0.505 31 16 0
2.369 -0.38 -0.509 29 16 0
2.362 -0.38299999 -0.514 29 16 0
2.3469999 -0.38499999 -0.51800001 30 16 0
2.3469999 -0.389 -0.52399999 31 16 0
2.335 -0.391 -0.528 28 16 0
2.325 -0.39399999 -0.53299999 28 16 0
2.3210001 -0.39700001 -0.53899997 29 16 0
2.3099999 -0.39899999 -0.54299998 32 16 0
2.3050001 -0.40200001 -0.54799998 34 16 0
2.293 -0.40400001 -0.55199999 34 16 0
2.283 -0.40599999 -0.55599999 31 16 0
2.277 -0.40900001 -0.56099999 27 16 0
2.2690001 -0.412 -0.56599998 30 16 0
2.266 -0.41499999 -0.57200003 28 16 0
2.253 -0.41600001 -0.57499999 31 16 0
2.25 -0.41999999 -0.58099997 39 16 0
2.2449999 -0.42199999 -0.58600003 37 16 0
2.2349999 -0.42399999 -0.58999997 38 16 0
2.2309999 -0.42699999 -0.59600002 36 16 0
2.2179999 -0.428 -0.59899998 38 16 0
2.2130001 -0.43099999 -0.60399997 37 16 0
2.204 -0.433 -0.60799998 40 16 0
2.1989999 -0.43599999 -0.61400002 60 16 0
2.188 -0.43700001 -0.61699998 56 16 0
2.1860001 -0.44 -0.62300003 58 16 0
2.181 -0.442 -0.62800002 54 16 0
2.1689999 -0.44400001 -0.63099998 50 16 0
2.165 -0.44600001 -0.63700002 50 16 0
2.1619999 -0.449 -0.64200002 57 16 0
2.154 -0.45100001 -0.64600003 53 16 0
2.1489999 -0.45300001 -0.65100002 56 16 0
2.141 -0.454 -0.65499997 59 16 0
2.131 -0.456 -0.65899998 62 16 0
2.1259999 -0.458 -0.66399997 62 16 0
2.1210001 -0.46000001 -0.66900003 60 16 0
2.1140001 -0.46200001 -0.67299998 88 16 0
2.112 -0.46399999 -0.67900002 85 16 0
2.1029999 -0.46599999 -0.68199998 91 16 0
2.0999999 -0.46799999 -0.68800002 100 16 0
2.0940001 -0.47 -0.69199997 90 16 0
2.0869999 -0.47099999 -0.69599998 96 16 0
2.0739999 -0.47099999 -0.69800001 90 16 0
2.066 -0.47299999 -0.70200002 103 16 0
2.063 -0.47499999 -0.708 106 16 0
2.059 -0.477 -0.71200001 93 16 0
2.056 -0.479 -0.71799999 102 16 0
2.0480001 -0.47999999 -0.722 95 16 0
2.043 -0.48199999 -0.72600001 100 16 0
2.0350001 -0.48300001 -0.73000002 99 16 0
2.03 -0.484 -0.73400003 98 16 0
2.0280001 -0.486 -0.73900002 94 16 0
2.0209999 -0.48800001 -0.74400002 94 16 0
2.016 -0.48899999 -0.74800003 104 16 0
2.0139999 -0.491 -0.75300002 99 16 0
2.0109999 -0.493 -0.759 103 16 0
2 -0.493 -0.76099998 100 16 0
1.995 -0.49399999 -0.76499999 99 16 0
1.989 -0.495 -0.76899999 103 16 0
1.99 -0.498 -0.77600002 98 16 0
1.983 -0.49900001 -0.77899998 98 16 0
1.976 -0.49900001 -0.78299999 103 16 0
1.972 -0.5 -0.787 108 16 0
1.971 -0.50300002 -0.79299998 112 16 0
1.964 -0.50300002 -0.796 104 16 0
1.96 -0.50400001 -0.801 102 16 0
1.955 -0.505 -0.80500001 110 16 0
1.952 -0.50700003 -0.81 109 16 0
1.947 -0.50800002 -0.81400001 105 16 0
1.9450001 -0.509 -0.81900001 100 16 0
1.942 -0.50999999 -0.824 102 16 0
1.9349999 -0.51099998 -0.82700002 97 16 0
1.937 -0.51300001 -0.83399999 93 16 0
1.9299999 -0.51300001 -0.83700001 98 16 0
1.92 -0.51300001 -0.83899999 88 16 0
1.9220001 -0.51499999 -0.84600002 108 16 0
1.915 -0.51499999 -0.84899998 102 16 0
1.91 -0.51599997 -0.85299999 105 16 0
1.91 -0.51800001 -0.85900003 100 16 0
1.901 -0.51700002 -0.86000001 102 16 0
1.896 -0.51700002 -0.86400002 103 16 0
1.8940001 -0.51800001 -0.86900002 97 16 0
1.893 -0.51999998 -0.875 131 16 0
1.8890001 -0.51999998 -0.87900001 123 16 0
1.89 -0.52200001 -0.88499999 125 16 0
1.8839999 -0.52200001 -0.88800001 127 16 0
1.882 -0.523 -0.89300001 147 16 0
1.873 -0.52200001 -0.89499998 131 16 0
1.875 -0.52399999 -0.90100002 138 16 0
1.868 -0.523 -0.90399998 128 16 0
1.872 -0.52499998 -0.91100001 129 16 0
1.865 -0.52499998 -0.91399997 128 16 0
1.857 -0.52399999 -0.91500002 125 16 0
1.863 -0.52700001 -0.92400002 135 16 0
1.8559999 -0.52600002 -0.926 150 16 0
1.854 -0.52600002 -0.93099999 150 16 0
1.851 -0.52700001 -0.935 150 16 0
1.849 -0.52700001 -0.94 150 16 0
1.847 -0.52700001 -0.94400001 150 16 0
1.845 -0.528 -0.94800001 150 16 0
1.847 -0.52899998 -0.95499998 150 16 0
1.8380001 -0.528 -0.95499998 150 16 0
1.837 -0.528 -0.96100003 150 16 0
1.836 -0.52899998 -0.96499997 145 16 0
1.8380001 -0.52999997 -0.972 150 16 0
1.83 -0.528 -0.97299999 148 16 0
1.829 -0.52899998 -0.97799999 150 16 0
1.827 -0.52899998 -0.98199999 150 16 0
1.829 -0.52999997 -0.98799998 150 16 0
1.827 -0.52999997 -0.99199998 150 16 0
1.821 -0.528 -0.99400002 146 16 0
1.824 -0.52999997 -1.001 145 16 0
1.821 -0.52899998 -1.0039999 147 16 0
1.819 -0.52899998 -1.008 146 16 0
1.818 -0.52899998 -1.012 146 16 0
1.816 -0.52899998 -1.016 150 16 0
1.814 -0.528 -1.02 150 16 0
1.812 -0.528 -1.024 146 16 0
1.8099999 -0.52700001 -1.027 149 16 0
1.811 -0.52700001 -1.0319999 147 16 0
1.812 -0.528 -1.038 150 16 0
1.8099999 -0.52700001 -1.041 150 16 0
1.806 -0.52600002 -1.043 150 16 0
1.8099999 -0.52700001 -1.05 144 16 0
1.808 -0.52600002 -1.053 148 16 0
1.806 -0.52499998 -1.057 140 16 0
1.8049999 -0.52399999 -1.0599999 138 16 0
1.803 -0.52399999 -1.064 137 16 0
1.808 -0.52399999 -1.0700001 128 16 0
1.804 -0.523 -1.073 130 16 0
1.808 -0.52399999 -1.079 140 16 0
1.808 -0.523 -1.0829999 131 16 0
1.806 -0.52200001 -1.086 136 16 0
1.8049999 -0.52100003 -1.089 127 16 0
1.806 -0.51999998 -1.094 130 16 0
1.803 -0.51899999 -1.096 138 16 0
1.803 -0.51800001 -1.099 140 16 0
1.8049999 -0.51800001 -1.104 135 16 0
1.804 -0.51700002 -1.108 133 16 0
1.808 -0.51700002 -1.114 133 16 0
1.806 -0.51499999 -1.1160001 126 16 0
1.808 -0.51499999 -1.12 130 16 0
1.807 -0.51300001 -1.123 123 16 0
1.8049999 -0.51200002 -1.126 134 16 0
1.809 -0.51099998 -1.131 128 16 0
1.811 -0.51099998 -1.136 128 16 0
1.809 -0.509 -1.137 119 16 0
1.812 -0.50800002 -1.142 125 16 0
1.813 -0.50700003 -1.146 118 16 0
1.812 -0.50599998 -1.148 125 16 0
1.813 -0.50400001 -1.151 116 16 0
1.812 -0.50300002 -1.153 114 16 0
1.816 -0.50199997 -1.158 113 16 0
1.819 -0.50099999 -1.163 116 16 0
1.821 -0.5 -1.166 120 16 0
1.825 -0.49900001 -1.171 122 16 0
1.825 -0.49700001 -1.174 124 16 0
1.8279999 -0.49599999 -1.178 125 16 0
1.831 -0.495 -1.181 130 16 0
1.831 -0.493 -1.184 120 16 0
1.832 -0.49200001 -1.186 114 16 0
1.832 -0.48899999 -1.188 120 16 0
1.834 -0.48800001 -1.191 114 16 0
1.836 -0.486 -1.194 113 16 0
1.844 -0.48699999 -1.201 113 18 0
1.847 -0.48500001 -1.204 110 16 0
1.847 -0.48300001 -1.206 134 16 0
1.853 -0.48199999 -1.211 126 16 0
1.849 -0.479 -1.21 118 16 0
1.857 -0.47799999 -1.216 116 16 0
1.86 -0.477 -1.219 114 16 0
1.86 -0.47400001 -1.22 113 16 0
1.867 -0.47299999 -1.225 114 19 0
1.868 -0.47099999 -1.226 112 16 0
1.868 -0.46799999 -1.227 111 16 0
1.874 -0.46700001 -1.232 110 16 0
1.875 -0.465 -1.232 111 16 0
1.8789999 -0.463 -1.2359999 114 16 0
1.881 -0.461 -1.237 115 16 0
1.8890001 -0.46000001 -1.243 109 19 0
1.8940001 -0.45899999 -1.2460001 114 16 0
1.896 -0.456 -1.247 110 16 0
1.896 -0.45300001 -1.247 110 16 0
1.902 -0.45199999 -1.25 111 16 0
1.903 -0.449 -1.251 111 16 0
1.906 -0.447 -1.253 107 16 0
1.9119999 -0.44499999 -1.256 109 16 0
1.9170001 -0.44299999 -1.258 108 16 0
1.9170001 -0.44 -1.258 107 16 0
1.9220001 -0.43799999 -1.26 106 16 0
1.931 -0.43700001 -1.265 111 16 0
1.931 -0.43399999 -1.2640001 106 16 0
1.938 -0.43200001 -1.267 104 16 0
1.946 -0.43099999 -1.272 108 16 0
1.95 -0.428 -1.273 107 16 0
1.9529999 -0.426 -1.273 102 16 0
1.955 -0.42300001 -1.273 104 16 0
1.961 -0.421 -1.275 107 16 0
1.967 -0.419 -1.277 100 16 0
1.971 -0.41600001 -1.278 107 16 0
1.979 -0.41499999 -1.281 109 16 0
1.982 -0.412 -1.2819999 101 16 0
1.985 -0.40900001 -1.281 103 16 0
1.992 -0.40700001 -1.283 100 16 0
1.998 -0.405 -1.285 102 16 0
2.0020001 -0.40200001 -1.285 102 16 0
2.003 -0.39899999 -1.283 104 16 0
2.0120001 -0.39700001 -1.286 89 16 0
2.0220001 -0.396 -1.29 95 16 0
2.023 -0.39199999 -1.288 89 16 0
2.0309999 -0.38999999 -1.29 93 16 0
2.0350001 -0.38699999 -1.289 112 16 0
2.0450001 -0.38499999 -1.2920001 115 16 0
2.05 -0.38299999 -1.2920001 115 16 0
2.056 -0.38 -1.293 108 16 0
2.0599999 -0.37799999 -1.2920001 122 16 0
2.066 -0.375 -1.2920001 118 16 0
2.073 -0.373 -1.293 114 16 0
2.075 -0.36899999 -1.291 114 16 0
2.082 -0.36700001 -1.291 115 16 0
2.0899999 -0.36500001 -1.2920001 112 16 0
2.0999999 -0.36300001 -1.294 107 16 0
2.102 -0.359 -1.2920001 101 16 0
2.108 -0.35600001 -1.291 114 16 0
2.1140001 -0.354 -1.291 110 16 0
2.118 -0.35100001 -1.289 111 16 0
2.128 -0.34900001 -1.291 114 16 0
2.1329999 -0.34599999 -1.289 110 16 0
2.1370001 -0.34299999 -1.2869999 103 16 0
2.145 -0.34099999 -1.288 114 16 0
2.154 -0.338 -1.288 108 16 0
2.158 -0.33500001 -1.286 110 16 0
2.1630001 -0.33199999 -1.284 104 16 0
2.168 -0.329 -1.2819999 99 16 0
2.177 -0.32699999 -1.2819999 108 16 0
2.1849999 -0.324 -1.2819999 111 16 0
2.1930001 -0.322 -1.281 115 16 0
2.198 -0.31900001 -1.278 77 16 0
2.204 -0.31600001 -1.277 83 16 0
2.2090001 -0.31299999 -1.274 79 16 0
2.2179999 -0.31099999 -1.274 77 16 0
2.2219999 -0.308 -1.271 74 16 0
