# .PCD v0.7 - Point Cloud Data file format
VERSION 0.7
FIELDS x y z intensity tag line
SIZE 4 4 4 4 1 1
TYPE F F F F U U
COUNT 1 1 1 1 1 1
WIDTH 1370
HEIGHT 1
VIEWPOINT 0 0 0 1 0 0 0
POINTS 1370
DATA ascii
2.072 -0.56400001 -0.21600001 112 16 0
2.079 -0.55900002 -0.215 110 16 0
2.0899999 -0.55599999 -0.214 101 16 0
2.0969999 -0.551 -0.213 103 16 0
2.1070001 -0.54699999 -0.212 95 16 0
2.1199999 -0.54299998 -0.211 93 16 0
2.131 -0.53899997 -0.20999999 97 16 0
2.138 -0.53399998 -0.20900001 84 16 0
2.1489999 -0.52999997 -0.208 87 16 0
2.158 -0.52499998 -0.207 90 16 0
2.1730001 -0.52200001 -0.206 97 16 0
2.1849999 -0.51800001 -0.205 85 16 0
2.1960001 -0.51300001 -0.204 94 16 0
2.2079999 -0.509 -0.20299999 86 16 0
2.2179999 -0.50400001 -0.20200001 84 16 0
2.2309999 -0.5 -0.20100001 78 16 0
2.2420001 -0.495 -0.199 80 16 0
2.2509999 -0.49000001 -0.198 77 16 0
2.263 -0.486 -0.19599999 69 16 0
2.273 -0.48100001 -0.19499999 76 16 0
2.2809999 -0.47499999 -0.193 73 16 0
2.2980001 -0.47099999 -0.192 69 16 0
2.3080001 -0.46599999 -0.191 71 16 0
2.325 -0.46200001 -0.19 75 16 0
2.3299999 -0.456 -0.18799999 61 16 0
2.3410001 -0.45100001 -0.186 73 16 0
2.3559999 -0.44600001 -0.185 67 16 0
2.372 -0.442 -0.183 58 16 0
2.382 -0.43599999 -0.182 72 16 0
2.3929999 -0.43099999 -0.18000001 66 16 0
2.4070001 -0.426 -0.178 74 16 0
2.4200001 -0.41999999 -0.176 55 16 0
2.4349999 -0.41499999 -0.175 52 16 0
2.447 -0.41 -0.17299999 54 16 0
2.4560001 -0.40400001 -0.171 49 16 0
2.4719999 -0.39899999 -0.169 44 16 0
2.484 -0.39300001 -0.167 43 16 0
2.4960001 -0.38699999 -0.16500001 38 16 0
2.5050001 -0.38100001 -0.163 38 16 0
2.527 -0.377 -0.161 32 16 0
2.5409999 -0.37099999 -0.15899999 29 16 0
2.552 -0.36500001 -0.15700001 30 16 0
2.5650001 -0.359 -0.155 29 16 0
2.5799999 -0.35299999 -0.153 30 16 0
2.5940001 -0.347 -0.15000001 32 16 0
2.6070001 -0.34099999 -0.148 30 16 0
2.6229999 -0.33500001 -0.146 30 16 0
2.6329999 -0.32800001 -0.14300001 31 16 0
2.648 -0.322 -0.141 30 16 0
2.6700001 -0.31600001 -0.139 29 16 0
2.678 -0.30899999 -0.13600001 29 16 0
2.698 -0.303 -0.134 30 16 0
2.7179999 -0.29699999 -0.131 30 16 0
2.7290001 -0.28999999 -0.12899999 29 16 0
2.7379999 -0.28299999 -0.126 28 16 0
2.7579999 -0.27599999 -0.123 29 16 0
2.7690001 -0.26899999 -0.12 27 16 0
2.793 -0.26300001 -0.118 27 16 0
2.802 -0.25600001 -0.115 27 16 0
2.825 -0.249 -0.112 27 16 0
2.839 -0.242 -0.109 28 16 0
2.855 -0.235 -0.106 27 16 0
2.8699999 -0.227 -0.103 26 16 0
2.8859999 -0.22 -0.1 26 16 0
2.9059999 -0.213 -0.097000003 27 16 0
2.9219999 -0.205 -0.093999997 26 16 0
2.9449999 -0.198 -0.090999998 26 16 0
2.9619999 -0.19 -0.086999997 26 16 0
2.98 -0.183 -0.083999999 25 16 0
3.0009999 -0.175 -0.081 25 16 0
3.013 -0.167 -0.077 25 16 0
3.04 -0.15899999 -0.074000001 26 19 0
3.0650001 -0.152 -0.07 26 16 0
3.085 -0.14300001 -0.067000002 26 16 0
3.105 -0.13500001 -0.063000001 26 16 0
3.1199999 -0.127 -0.059 27 16 0
3.1440001 -0.118 -0.055 26 16 0
3.1630001 -0.11 -0.050999999 27 16 0
3.1900001 -0.101 -0.046999998 27 16 0
3.21 -0.093000002 -0.043000001 28 16 0
3.2309999 -0.083999999 -0.039000001 27 16 0
3.253 -0.075000003 -0.035 36 16 0
3.2590001 -0.064999998 -0.030999999 150 16 0
3.2579999 -0.056000002 -0.026000001 150 16 0
3.257 -0.046 -0.022 127 16 0
3.2539999 -0.035999998 -0.017000001 137 16 0
3.2490001 -0.027000001 -0.013 118 16 0
3.2490001 -0.017000001 -0.0080000004 40 16 0
3.257 -0.0080000004 -0.0040000002 18 16 0
3.2780001 0.001 0 17 16 0
3.3039999 0.0099999998 0.0049999999 18 16 0
3.325 0.02 0.0089999996 22 16 0
3.3399999 0.029999999 0.014 48 16 0
3.3280001 0.039000001 0.018999999 61 16 0
3.3269999 0.048999999 0.024 54 16 0
3.3269999 0.059 0.028000001 42 16 0
3.3239999 0.068000004 0.033 60 16 0
3.3239999 0.078000002 0.037999999 52 16 0
3.326 0.088 0.043000001 36 16 0
3.322 0.097000003 0.048 46 16 0
3.3139999 0.106 0.052000001 54 16 0
3.3150001 0.116 0.057 48 16 0
3.2920001 0.125 0.061999999 48 16 0
3.2490001 0.132 0.066 95 16 0
3.2390001 0.141 0.07 99 16 0
3.2360001 0.15099999 0.075000003 88 16 0
3.2349999 0.16 0.079999998 87 16 0
3.2320001 0.169 0.085000001 105 16 0
3.2390001 0.17900001 0.090000004 87 16 0
3.2520001 0.189 0.094999999 116 16 0
3.2590001 0.199 0.1 141 16 0
3.266 0.208 0.105 54 16 0
3.2249999 0.215 0.109 36 19 0
3.2179999 0.22400001 0.114 39 16 0
3.2390001 0.235 0.119 40 16 0
3.253 0.245 0.125 36 16 0
3.237 0.25299999 0.12899999 34 16 0
3.2 0.259 0.133 27 16 0
3.2060001 0.26899999 0.138 27 16 0
3.211 0.278 0.14300001 35 16 0
3.1989999 0.287 0.148 32 16 0
3.1849999 0.294 0.152 32 16 0
3.175 0.30199999 0.15700001 36 16 0
3.161 0.31 0.161 41 16 0
3.1530001 0.31799999 0.16599999 49 16 0
3.1489999 0.32699999 0.17 118 16 0
3.1389999 0.33500001 0.175 150 16 0
3.135 0.34299999 0.18000001 150 16 0
3.1329999 0.352 0.185 150 16 0
3.135 0.361 0.19 150 16 0
3.1300001 0.36899999 0.19499999 150 16 0
3.1289999 0.37799999 0.2 150 16 0
3.125 0.38600001 0.205 150 16 0
3.119 0.39399999 0.20900001 150 16 0
3.122 0.40400001 0.215 150 16 0
3.122 0.41299999 0.22 150 16 0
3.1140001 0.41999999 0.22499999 150 16 0
3.112 0.42899999 0.23 150 16 0
3.1099999 0.43700001 0.235 150 16 0
3.109 0.44600001 0.23999999 150 16 0
3.108 0.45500001 0.245 150 16 0
3.1059999 0.463 0.25 150 16 0
3.1040001 0.472 0.255 150 16 0
3.0999999 0.47999999 0.25999999 150 16 0
3.099 0.48800001 0.266 150 16 0
3.0940001 0.49599999 0.271 150 16 0
3.0940001 0.505 0.27599999 150 16 0
3.095 0.514 0.28099999 150 16 0
3.0910001 0.52200001 0.28600001 150 16 0
3.0929999 0.53100002 0.292 150 16 0
3.0899999 0.53899997 0.29699999 150 16 0
3.086 0.54699999 0.30199999 150 16 0
3.086 0.55500001 0.308 150 16 0
3.0840001 0.56400001 0.31299999 150 16 0
3.0810001 0.57200003 0.31799999 150 16 0
3.0799999 0.57999998 0.324 150 16 0
3.0769999 0.588 0.329 150 16 0
3.075 0.59600002 0.33399999 150 16 0
3.073 0.60500002 0.34 150 16 0
3.0710001 0.61299998 0.345 150 16 0
3.0680001 0.62 0.34999999 150 16 0
3.066 0.62900001 0.35600001 150 16 0
3.0639999 0.63700002 0.361 150 16 0
3.062 0.64499998 0.36700001 150 16 0
3.0599999 0.653 0.37200001 150 16 0
3.066 0.66299999 0.37900001 150 16 0
3.0599999 0.67000002 0.384 150 16 0
3.0610001 0.67799997 0.38999999 150 16 0
3.0510001 0.685 0.39399999 150 16 0
3.0550001 0.69400001 0.40000001 150 16 0
3.0550001 0.70200002 0.40599999 150 16 0
3.053 0.70999998 0.412 150 16 0
3.0480001 0.71799999 0.417 150 16 0
3.046 0.72500002 0.42300001 150 16 0
3.0450001 0.73299998 0.428 150 16 0
3.0469999 0.74199998 0.435 150 16 0
3.0450001 0.75 0.44 150 16 0
3.0469999 0.759 0.447 150 16 0
3.043 0.76599997 0.45199999 150 16 0
3.04 0.77399999 0.458 150 16 0
3.039 0.78200001 0.46399999 150 16 0
3.036 0.78899997 0.46900001 150 16 0
3.036 0.79799998 0.47600001 150 16 0
3.0309999 0.80400002 0.48100001 150 16 0
3.026 0.81099999 0.486 150 16 0
3.017 0.81699997 0.491 53 16 0
3.007 0.82200003 0.495 45 16 0
2.9920001 0.82700002 0.49900001 43 16 0
2.9879999 0.833 0.50400001 42 16 0
2.977 0.838 0.509 43 16 0
2.9630001 0.84200001 0.51300001 41 16 0
2.9530001 0.847 0.51700002 43 16 0
2.9449999 0.85299999 0.52200001 43 16 0
2.934 0.85699999 0.52600002 43 16 0
2.921 0.86199999 0.52999997 42 16 0
2.914 0.86699998 0.53500003 43 16 0
2.9070001 0.87300003 0.54000002 42 16 0
2.8929999 0.87599999 0.54299998 40 16 0
2.8840001 0.88099998 0.54799998 44 16 0
2.8729999 0.88499999 0.55199999 44 16 0
2.8629999 0.88999999 0.55599999 43 16 0
2.8510001 0.89399999 0.56 44 16 0
2.8399999 0.898 0.56400001 45 16 0
2.8329999 0.903 0.56900001 44 16 0
2.8239999 0.90700001 0.57300001 45 16 0
2.8039999 0.90799999 0.57499999 42 16 0
2.8 0.91399997 0.58099997 44 16 0
2.7909999 0.91799998 0.58499998 43 16 0
2.7820001 0.92199999 0.58999997 41 16 0
2.7709999 0.926 0.59299999 44 16 0
2.7639999 0.93099999 0.59799999 43 16 0
2.7550001 0.935 0.602 44 16 0
2.7460001 0.93900001 0.60699999 44 16 0
2.733 0.94099998 0.61000001 68 16 0
2.7219999 0.94400001 0.61400002 58 16 0
2.7160001 0.949 0.61900002 63 16 0
2.7060001 0.95200002 0.62300003 71 16 0
2.6919999 0.954 0.62599999 66 16 0
2.6830001 0.958 0.63 61 16 0
2.677 0.96200001 0.63499999 63 16 0
2.665 0.96499997 0.63800001 68 16 0
2.6600001 0.96899998 0.64300001 66 16 0
2.6470001 0.97100002 0.64600003 71 16 0
2.638 0.97399998 0.64999998 67 16 0
2.628 0.977 0.65399998 74 16 0
2.6240001 0.98199999 0.65899998 70 16 0
2.608 0.98199999 0.66100001 63 16 0
2.6029999 0.986 0.66600001 67 16 0
2.5940001 0.98900002 0.67000002 66 16 0
2.586 0.99199998 0.67400002 71 16 0
2.5799999 0.99599999 0.67900002 65 16 0
2.5669999 0.99699998 0.68199998 75 16 0
2.5569999 0.99900001 0.685 73 16 0
2.5469999 1.001 0.68900001 73 16 0
2.54 1.0039999 0.69300002 78 16 0
2.5320001 1.007 0.69700003 72 16 0
2.5209999 1.008 0.69999999 82 16 0
2.5120001 1.01 0.704 68 16 0
2.5020001 1.012 0.70700002 75 16 0
2.497 1.015 0.71200001 69 16 0
2.49 1.018 0.71600002 77 16 0
2.4779999 1.0190001 0.71899998 81 16 0
2.473 1.022 0.72399998 64 16 0
2.4619999 1.023 0.727 77 16 0
2.4530001 1.024 0.73000002 75 16 0
2.448 1.028 0.73500001 78 16 0
2.441 1.03 0.73900002 71 16 0
2.4319999 1.031 0.74199998 82 16 0
2.4260001 1.034 0.74599999 74 16 0
2.4200001 1.036 0.75099999 83 16 0
2.4130001 1.038 0.755 71 16 0
2.402 1.038 0.75700003 76 16 0
2.391 1.038 0.75999999 84 16 0
2.3789999 1.038 0.76200002 72 16 0
2.3759999 1.041 0.76700002 75 16 0
2.3710001 1.044 0.77100003 65 16 0
2.362 1.044 0.77399999 69 16 0
2.355 1.046 0.778 66 16 0
2.345 1.046 0.78100002 73 16 0
2.3329999 1.045 0.78299999 77 16 0
2.3269999 1.0470001 0.787 81 16 0
2.3199999 1.048 0.79000002 83 16 0
2.3099999 1.0470001 0.79299998 77 16 0
2.3080001 1.05 0.79799998 84 16 0
2.299 1.05 0.801 88 16 0
2.2920001 1.051 0.80400002 86 16 0
2.2839999 1.051 0.80699998 82 16 0
2.276 1.052 0.81 84 16 0
2.2679999 1.052 0.81300002 83 16 0
2.2609999 1.052 0.81599998 80 16 0
2.2550001 1.053 0.81999999 87 16 0
2.2460001 1.052 0.82200003 86 16 0
2.2409999 1.053 0.82599998 85 16 0
2.2360001 1.0549999 0.82999998 89 16 0
2.2290001 1.054 0.833 83 16 0
2.2260001 1.056 0.83700001 88 16 0
2.211 1.053 0.83700001 87 16 0
2.2030001 1.052 0.83899999 84 16 0
2.1960001 1.051 0.84200001 78 16 0
2.1930001 1.053 0.847 80 16 0
2.187 1.053 0.85000002 83 16 0
2.177 1.051 0.85100001 84 16 0
2.1760001 1.053 0.85600001 89 16 0
2.165 1.05 0.85699999 79 16 0
2.1559999 1.049 0.85900003 86 16 0
2.152 1.049 0.86299998 82 16 0
2.1470001 1.049 0.866 86 16 0
2.1429999 1.049 0.86900002 83 16 0
2.1370001 1.049 0.87199998 83 16 0
2.132 1.049 0.875 79 16 0
2.1270001 1.048 0.87800002 83 16 0
2.118 1.046 0.87900001 89 16 0
2.115 1.046 0.88300002 84 16 0
2.108 1.045 0.88499999 90 16 0
2.102 1.044 0.88700002 86 16 0
2.098 1.044 0.89099997 89 16 0
2.089 1.04 0.89099997 83 16 0
2.0869999 1.041 0.89499998 93 16 0
2.0840001 1.041 0.89899999 89 16 0
2.079 1.04 0.90100002 84 16 0
2.076 1.039 0.90399998 87 16 0
2.069 1.0369999 0.90600002 92 16 0
2.0610001 1.035 0.90700001 94 16 0
2.059 1.035 0.91100001 84 16 0
2.052 1.0319999 0.912 94 16 0
2.046 1.03 0.91299999 110 16 0
2.04 1.028 0.91500002 110 16 0
2.0339999 1.025 0.917 105 16 0
2.0320001 1.025 0.92000002 101 16 0
2.0309999 1.025 0.92299998 104 16 0
2.0220001 1.021 0.92299998 95 16 0
2.0190001 1.02 0.926 103 16 0
2.013 1.017 0.92699999 107 16 0
2.006 1.0140001 0.92799997 103 16 0
2.0039999 1.013 0.93099999 103 16 0
2 1.011 0.93199998 107 16 0
1.997 1.0089999 0.935 90 16 0
1.989 1.005 0.935 89 16 0
1.993 1.007 0.94 94 16 0
1.985 1.003 0.94 101 16 0
1.982 1.001 0.94199997 98 16 0
1.9809999 1 0.94499999 95 16 0
1.975 0.99599999 0.94499999 105 16 0
1.972 0.99400002 0.94700003 109 16 0
1.967 0.991 0.94800001 99 16 0
1.9630001 0.98799998 0.94800001 100 16 0
1.96 0.986 0.94999999 104 16 0
1.954 0.98199999 0.94999999 94 16 0
1.952 0.98000002 0.95200002 96 16 0
1.9529999 0.97899997 0.95499998 97 16 0
1.95 0.977 0.95599997 96 16 0
1.944 0.972 0.95599997 94 16 0
1.942 0.97000003 0.958 92 16 0
1.9400001 0.96799999 0.95899999 105 16 0
1.937 0.96499997 0.95999998 101 16 0
1.932 0.96100003 0.95999998 96 16 0
1.932 0.95899999 0.96200001 108 16 0
1.927 0.95499998 0.96200001 102 16 0
1.929 0.954 0.96499997 104 16 0
1.928 0.95200002 0.96600002 100 16 0
1.926 0.949 0.96799999 100 16 0
1.9220001 0.94499999 0.96700001 108 16 0
1.919 0.94099998 0.96799999 105 16 0
1.9170001 0.93800002 0.96799999 98 16 0
1.914 0.935 0.96799999 109 16 0
1.91 0.93099999 0.96799999 102 16 0
1.911 0.92799997 0.97000003 109 16 0
1.911 0.926 0.97100002 113 16 0
1.908 0.92199999 0.97100002 110 16 0
1.908 0.92000002 0.972 111 16 0
1.91 0.91799998 0.97399998 113 16 0
1.91 0.91500002 0.97500002 109 16 0
1.904 0.91000003 0.97299999 114 16 0
1.908 0.90899998 0.97600001 112 16 0
1.906 0.90499997 0.97600001 120 16 0
1.904 0.90100002 0.97600001 104 16 0
1.905 0.89899999 0.977 120 16 0
1.904 0.89499998 0.977 116 16 0
1.9 0.88999999 0.97500002 110 16 0
1.9 0.88700002 0.97600001 117 16 0
1.901 0.884 0.977 117 16 0
1.9 0.88 0.97600001 114 16 0
1.903 0.87800002 0.97799999 116 16 0
1.903 0.875 0.97799999 117 16 0
1.9 0.87 0.97600001 114 16 0
1.899 0.866 0.97600001 116 16 0
1.902 0.86400002 0.977 128 16 0
1.901 0.86000001 0.97600001 120 16 0
1.905 0.85799998 0.97799999 129 16 0
1.904 0.85399997 0.977 124 16 0
1.904 0.85000002 0.977 127 16 0
1.906 0.847 0.977 115 16 0
1.908 0.84399998 0.97799999 132 16 0
1.905 0.83899999 0.97600001 129 16 0
1.911 0.838 0.97799999 132 16 0
1.908 0.83200002 0.97600001 129 16 0
1.91 0.829 0.97600001 130 16 0
1.911 0.82599998 0.97500002 134 16 0
1.913 0.82200003 0.97500002 130 16 0
1.911 0.81699997 0.97299999 139 16 0
1.915 0.815 0.97399998 138 16 0
1.9170001 0.81099999 0.97399998 141 16 0
1.916 0.80699998 0.972 142 16 0
1.9220001 0.80500001 0.97299999 148 16 0
1.925 0.80199999 0.97299999 135 16 0
1.924 0.79699999 0.97100002 145 16 0
1.926 0.79400003 0.97000003 141 16 0
1.928 0.79000002 0.97000003 146 16 0
1.9299999 0.78600001 0.96899998 150 16 0
1.933 0.78299999 0.96799999 150 16 0
1.934 0.77899998 0.96700001 141 16 0
1.937 0.77499998 0.96600002 150 16 0
1.936 0.76999998 0.96399999 150 16 0
1.944 0.76899999 0.96499997 150 16 0
1.942 0.764 0.963 150 16 0
1.9450001 0.75999999 0.96200001 150 16 0
1.949 0.75700003 0.96100003 130 16 0
1.95 0.75199997 0.95899999 126 16 0
1.952 0.74800003 0.958 119 16 0
1.956 0.745 0.95700002 127 16 0
1.955 0.74000001 0.954 124 16 0
1.96 0.73699999 0.954 140 16 0
1.9630001 0.73400003 0.95300001 130 16 0
1.965 0.72899997 0.94999999 135 16 0
1.9680001 0.72600001 0.949 128 16 0
1.975 0.72299999 0.94999999 129 16 0
1.973 0.71700001 0.94499999 135 16 0
1.977 0.71399999 0.94400001 136 16 0
1.984 0.71200001 0.94400001 147 16 0
1.9859999 0.70700002 0.94199997 131 16 0
1.988 0.70300001 0.94 129 16 0
1.994 0.69999999 0.94 133 16 0
1.995 0.69599998 0.93699998 138 16 0
2 0.69199997 0.93599999 129 16 0
2.0039999 0.68800002 0.93400002 129 16 0
2.006 0.68400002 0.93199998 135 16 0
2.0120001 0.68099999 0.93099999 128 16 0
2.016 0.67799997 0.92900002 130 16 0
2.0220001 0.67500001 0.92799997 139 16 0
2.0250001 0.67000002 0.926 136 16 0
2.0280001 0.66600001 0.92299998 135 16 0
2.0309999 0.662 0.921 139 16 0
2.0380001 0.65899998 0.92000002 130 16 0
2.0439999 0.65600002 0.91900003 143 16 0
2.0450001 0.65100002 0.91500002 125 16 0
2.049 0.648 0.91299999 138 16 0
2.0569999 0.64499998 0.912 134 16 0
2.059 0.64099997 0.90899998 138 16 0
2.0650001 0.63700002 0.90700001 133 16 0
2.069 0.63300002 0.90499997 145 16 0
2.0739999 0.63 0.903 126 16 0
2.079 0.62599999 0.89999998 141 16 0
2.0880001 0.62300003 0.89999998 140 16 0
2.0910001 0.61900002 0.89700001 145 16 0
2.096 0.61500001 0.89399999 150 16 0
2.102 0.61199999 0.89200002 148 16 0
2.1059999 0.60799998 0.889 145 16 0
2.112 0.60500002 0.88700002 142 16 0
2.119 0.60100001 0.88499999 150 16 0
2.1259999 0.59799999 0.884 137 16 0
2.1300001 0.59399998 0.88 142 16 0
2.1400001 0.59200001 0.88 143 16 0
2.1429999 0.58700001 0.87599999 135 16 0
2.1500001 0.58399999 0.87400001 146 16 0
2.151 0.579 0.86900002 126 16 0
2.1600001 0.57599998 0.86799997 142 16 0
2.165 0.57200003 0.86500001 150 16 0
2.177 0.56999999 0.86400002 144 16 0
2.1760001 0.565 0.85900003 141 16 0
2.1830001 0.56199998 0.85600001 126 16 0
2.1930001 0.55900002 0.85500002 146 16 0
2.1989999 0.55500001 0.852 141 16 0
2.204 0.551 0.84899998 145 16 0
2.2130001 0.54799998 0.847 131 16 0
2.2190001 0.54500002 0.84299999 140 16 0
2.227 0.54100001 0.84100002 139 16 0
2.2320001 0.537 0.83700001 138 16 0
2.237 0.53299999 0.83399999 123 16 0
2.247 0.53100002 0.83200002 125 16 0
2.2550001 0.52700001 0.829 130 16 0
2.266 0.52499998 0.82800001 128 16 0
2.273 0.52100003 0.824 126 16 0
2.276 0.51700002 0.81999999 133 16 0
2.283 0.51300001 0.81599998 119 16 0
2.2980001 0.51099998 0.81599998 131 16 0
2.302 0.50700003 0.81199998 131 16 0
2.3110001 0.50400001 0.80900002 137 16 0
2.3139999 0.49900001 0.80400002 108 16 0
2.323 0.49599999 0.801 104 16 0
2.3310001 0.493 0.79799998 89 16 0
2.3369999 0.48899999 0.79400003 99 16 0
2.3410001 0.484 0.78899997 101 16 0
2.3540001 0.48199999 0.787 98 16 0
2.359 0.47799999 0.78299999 96 16 0
2.369 0.47400001 0.77899998 105 16 0
2.3770001 0.47099999 0.77600002 105 16 0
2.385 0.46700001 0.77200001 93 16 0
2.3940001 0.46399999 0.76899999 96 16 0
2.3989999 0.46000001 0.764 84 16 0
2.4089999 0.45699999 0.76099998 92 16 0
2.4189999 0.45300001 0.75800002 93 16 0
2.4260001 0.44999999 0.75300002 88 16 0
2.4400001 0.447 0.75099999 84 16 0
2.447 0.44299999 0.74699998 97 16 0
2.4549999 0.44 0.74299997 100 16 0
2.4679999 0.43700001 0.74000001 89 16 0
2.473 0.433 0.73500001 99 16 0
2.4790001 0.428 0.73000002 82 16 0
2.4909999 0.42500001 0.727 67 16 0
2.5020001 0.42199999 0.72299999 65 16 0
2.513 0.419 0.71899998 67 16 0
2.52 0.41499999 0.71499997 66 16 0
2.539 0.41299999 0.713 69 16 0
2.5409999 0.40799999 0.70700002 66 16 0
2.552 0.405 0.70300001 57 16 0
2.563 0.40099999 0.699 63 16 0
2.572 0.398 0.69400001 61 16 0
2.5869999 0.39500001 0.69099998 60 16 0
2.598 0.39199999 0.68699998 52 16 0
2.602 0.38699999 0.68099999 56 16 0
2.615 0.384 0.67699999 50 16 0
2.6240001 0.38 0.67199999 47 16 0
2.6340001 0.377 0.667 52 16 0
2.6429999 0.373 0.662 54 16 0
2.655 0.36899999 0.65799999 52 16 0
2.6589999 0.36500001 0.65200001 40 16 0
2.671 0.361 0.64700001 46 16 0
2.688 0.359 0.64399999 31 16 0
2.694 0.354 0.63800001 50 16 0
2.7049999 0.35100001 0.63300002 63 16 0
2.7149999 0.347 0.62800002 49 16 0
2.7290001 0.34400001 0.62300003 40 16 0
2.743 0.34 0.61900002 39 16 0
2.7490001 0.336 0.61199999 38 16 0
2.763 0.333 0.60799998 38 16 0
2.777 0.329 0.60299999 39 16 0
2.789 0.32600001 0.59799999 39 16 0
2.796 0.32100001 0.59200001 38 16 0
2.813 0.31799999 0.58700001 38 16 0
2.8310001 0.315 0.583 37 16 0
2.836 0.31099999 0.57599998 35 16 0
2.848 0.30700001 0.56999999 36 16 0
2.865 0.30399999 0.56599998 38 16 0
2.8740001 0.29899999 0.55900002 38 16 0
2.8870001 0.296 0.55400002 36 16 0
2.905 0.29300001 0.54900002 36 16 0
2.9159999 0.289 0.54299998 38 16 0
2.928 0.285 0.537 36 16 0
2.9349999 0.28 0.52999997 38 16 0
2.9489999 0.27700001 0.52399999 37 16 0
2.964 0.273 0.51800001 39 16 0
2.9779999 0.26899999 0.51200002 39 16 0
2.9920001 0.26499999 0.50599998 39 16 0
3.01 0.26199999 0.50099999 36 16 0
3.02 0.25799999 0.49399999 34 16 0
3.0350001 0.25400001 0.48699999 34 16 0
3.0539999 0.25 0.48199999 34 16 0
3.0669999 0.24600001 0.47499999 33 16 0
3.0810001 0.242 0.46900001 32 16 0
3.098 0.23800001 0.46200001 31 16 0
3.1170001 0.235 0.45699999 31 16 0
3.1300001 0.23100001 0.449 32 16 0
3.1489999 0.227 0.44299999 30 16 0
3.1670001 0.223 0.43700001 32 16 0
3.1800001 0.219 0.42899999 34 16 0
3.1949999 0.215 0.42199999 32 16 0
3.2130001 0.211 0.41499999 32 16 0
3.233 0.207 0.40900001 32 16 0
3.247 0.20299999 0.40099999 31 16 0
3.266 0.199 0.39399999 32 16 0
3.2809999 0.19400001 0.38699999 33 16 0
3.2920001 0.19 0.37900001 53 16 0
3.302 0.185 0.37 150 16 0
3.299 0.18000001 0.36000001 133 16 0
3.296 0.175 0.35100001 126 16 0
3.2939999 0.169 0.34099999 130 16 0
3.289 0.164 0.331 128 16 0
3.29 0.15899999 0.322 124 16 0
3.289 0.154 0.31200001 130 16 0
3.289 0.149 0.303 117 16 0
3.289 0.14399999 0.29300001 124 16 0
3.2869999 0.139 0.28299999 137 16 0
3.2850001 0.134 0.27399999 124 16 0
3.2839999 0.12899999 0.264 131 16 0
3.28 0.124 0.25400001 127 16 0
3.2780001 0.119 0.245 109 16 0
3.279 0.114 0.235 134 16 0
3.2820001 0.109 0.226 136 16 0
3.2720001 0.104 0.21600001 136 16 0
3.2690001 0.098999999 0.206 148 16 0
3.27 0.093999997 0.197 150 16 0
3.2690001 0.090000004 0.18700001 138 16 0
3.2639999 0.085000001 0.177 146 16 0
3.2639999 0.079999998 0.168 139 16 0
3.2620001 0.075000003 0.15800001 128 16 0
3.2620001 0.071000002 0.149 132 16 0
3.266 0.066 0.139 140 16 0
3.2579999 0.061000001 0.13 121 16 0
3.2679999 0.057 0.121 38 16 0
3.289 0.052999999 0.112 25 16 0
3.3110001 0.048 0.103 27 16 0
3.332 0.044 0.093999997 23 16 0
3.349 0.039000001 0.083999999 18 16 0
3.3610001 0.035 0.075000003 39 16 0
3.3610001 0.029999999 0.064999998 55 16 0
3.358 0.025 0.055 39 16 0
3.346 0.021 0.045000002 25 16 0
3.3310001 0.016000001 0.035 19 16 0
3.3169999 0.012 0.026000001 17 16 0
3.3 0.0070000002 0.016000001 16 16 0
3.2809999 0.0020000001 0.0060000001 16 16 0
3.2780001 -0.001 -0.003 15 16 0
3.257 -0.0049999999 -0.012 16 16 0
3.244 -0.0099999998 -0.022 16 16 0
3.233 -0.014 -0.030999999 21 16 0
3.223 -0.017999999 -0.041000001 32 16 0
3.221 -0.023 -0.050000001 49 16 0
3.2219999 -0.027000001 -0.059999999 98 16 0
3.217 -0.030999999 -0.068999998 112 16 0
3.2149999 -0.035 -0.079000004 111 16 0
3.2160001 -0.039000001 -0.088 117 16 0
3.2149999 -0.044 -0.097999997 127 16 0
3.2119999 -0.048 -0.107 109 16 0
3.2060001 -0.052000001 -0.117 124 16 0
3.2049999 -0.056000002 -0.126 127 16 0
3.204 -0.059999999 -0.13500001 130 16 0
3.204 -0.064000003 -0.145 150 16 0
3.1919999 -0.068000004 -0.154 142 16 0
3.194 -0.071999997 -0.164 86 16 0
3.1900001 -0.075999998 -0.17299999 40 16 0
3.177 -0.079999998 -0.182 28 16 0
3.168 -0.082999997 -0.191 25 16 0
3.1530001 -0.086999997 -0.199 25 16 0
3.138 -0.090000004 -0.208 25 16 0
3.128 -0.093999997 -0.21600001 24 16 0
3.118 -0.097000003 -0.22499999 24 16 0
3.099 -0.101 -0.233 23 16 0
3.0929999 -0.104 -0.242 24 16 0
3.0829999 -0.108 -0.25099999 24 16 0
3.0710001 -0.111 -0.259 23 16 0
3.0599999 -0.114 -0.26699999 24 16 0
3.056 -0.118 -0.27599999 24 16 0
3.0369999 -0.121 -0.28299999 24 16 0
3.027 -0.124 -0.292 24 16 0
3.02 -0.127 -0.30000001 25 16 0
3.003 -0.13 -0.308 27 16 0
2.99 -0.133 -0.315 27 16 0
2.9860001 -0.13600001 -0.324 27 16 0
2.9749999 -0.139 -0.33199999 26 16 0
2.9649999 -0.142 -0.34 26 16 0
2.954 -0.145 -0.34799999 26 16 0
2.9460001 -0.148 -0.35600001 27 16 0
2.938 -0.15099999 -0.36399999 25 16 0
2.928 -0.154 -0.37200001 25 16 0
2.9170001 -0.15700001 -0.37900001 26 16 0
2.905 -0.15899999 -0.38600001 27 16 0
2.901 -0.162 -0.39500001 26 16 0
2.888 -0.16500001 -0.40200001 26 16 0
2.8800001 -0.168 -0.41 27 16 0
2.8659999 -0.17 -0.417 26 16 0
2.858 -0.17299999 -0.42399999 26 16 0
2.852 -0.175 -0.43200001 25 16 0
2.8429999 -0.178 -0.44 26 16 0
2.8340001 -0.18000001 -0.447 25 16 0
2.8299999 -0.183 -0.45500001 26 16 0
2.8199999 -0.186 -0.46200001 26 16 0
2.8110001 -0.18799999 -0.47 26 16 0
2.799 -0.19 -0.47600001 25 16 0
2.793 -0.193 -0.484 25 16 0
2.78 -0.19499999 -0.491 25 16 0
2.7739999 -0.197 -0.498 23 16 0
2.766 -0.2 -0.505 26 16 0
2.7609999 -0.20200001 -0.51300001 25 16 0
2.753 -0.204 -0.52100003 26 16 0
2.744 -0.206 -0.52700001 26 16 0
2.7379999 -0.20900001 -0.53500003 26 16 0
2.73 -0.211 -0.542 25 16 0
2.721 -0.213 -0.54900002 25 16 0
2.7160001 -0.215 -0.55599999 26 16 0
2.7079999 -0.21699999 -0.56300002 25 16 0
2.698 -0.219 -0.56999999 26 16 0
2.6949999 -0.222 -0.57800001 25 16 0
2.681 -0.223 -0.583 25 16 0
2.6760001 -0.22499999 -0.59100002 25 16 0
2.674 -0.228 -0.59899998 25 16 0
2.6670001 -0.23 -0.60600001 24 16 0
2.664 -0.23199999 -0.61400002 26 16 0
2.658 -0.234 -0.62099999 25 16 0
2.6530001 -0.236 -0.62800002 25 16 0
2.642 -0.237 -0.634 26 16 0
2.6359999 -0.23899999 -0.64099997 31 16 0
2.628 -0.241 -0.648 29 16 0
2.6199999 -0.242 -0.65399998 29 16 0
2.612 -0.244 -0.66100001 29 16 0
2.608 -0.24600001 -0.66799998 29 16 0
2.6010001 -0.248 -0.67500001 29 16 0
2.596 -0.249 -0.68199998 29 16 0
2.589 -0.25099999 -0.68800002 28 16 0
2.5810001 -0.252 -0.69499999 28 16 0
2.5780001 -0.25400001 -0.70300001 28 16 0
2.5650001 -0.255 -0.70700002 29 16 0
2.5569999 -0.25600001 -0.713 30 16 0
2.553 -0.25799999 -0.72100002 35 16 0
2.546 -0.259 -0.727 34 16 0
2.5450001 -0.26100001 -0.73500001 34 16 0
2.536 -0.26300001 -0.741 34 16 0
2.5309999 -0.264 -0.74800003 35 16 0
2.5280001 -0.266 -0.755 33 16 0
2.517 -0.266 -0.75999999 34 16 0
2.5139999 -0.26800001 -0.76700002 33 16 0
2.5120001 -0.27000001 -0.77499998 33 16 0
2.503 -0.271 -0.77999997 34 16 0
2.497 -0.27200001 -0.787 33 16 0
2.4949999 -0.273 -0.79400003 34 16 0
2.4890001 -0.27500001 -0.801 34 16 0
2.487 -0.27599999 -0.80800003 38 16 0
2.4749999 -0.27700001 -0.81300002 36 16 0
2.4719999 -0.278 -0.81999999 39 16 0
2.467 -0.27900001 -0.82700002 34 16 0
2.464 -0.28 -0.83399999 38 16 0
2.4560001 -0.28099999 -0.83899999 35 16 0
2.4530001 -0.28200001 -0.847 34 16 0
2.4460001 -0.28299999 -0.852 39 16 0
2.4360001 -0.28400001 -0.85699999 33 16 0
2.437 -0.285 -0.86500001 34 16 0
2.434 -0.28600001 -0.87300003 34 16 0
2.425 -0.287 -0.87699997 33 16 0
2.4219999 -0.28799999 -0.884 33 16 0
2.4170001 -0.289 -0.89099997 38 16 0
2.414 -0.28999999 -0.898 33 16 0
2.4089999 -0.28999999 -0.90399998 33 16 0
2.405 -0.29100001 -0.91100001 33 16 0
2.402 -0.292 -0.91799998 33 16 0
2.398 -0.29300001 -0.92400002 34 16 0
2.3940001 -0.294 -0.93099999 33 16 0
2.3870001 -0.294 -0.93599999 33 16 0
2.3889999 -0.29499999 -0.94499999 51 16 0
2.3789999 -0.29499999 -0.949 50 16 0
2.3759999 -0.296 -0.95599997 50 16 0
2.3759999 -0.29699999 -0.96399999 53 16 0
2.3659999 -0.29699999 -0.96799999 56 16 0
2.3659999 -0.29800001 -0.97600001 47 16 0
2.3599999 -0.29800001 -0.98100001 54 16 0
2.3570001 -0.29899999 -0.98799998 54 16 0
2.3540001 -0.29899999 -0.995 56 16 0
2.348 -0.29899999 -1 52 16 0
2.348 -0.30000001 -1.008 57 16 0
2.342 -0.30000001 -1.013 50 16 0
2.3429999 -0.301 -1.021 52 16 0
2.336 -0.301 -1.026 52 16 0
2.3329999 -0.301 -1.033 57 16 0
2.3299999 -0.30199999 -1.04 56 16 0
2.3269999 -0.30199999 -1.046 52 16 0
2.322 -0.30199999 -1.051 58 16 0
2.3210001 -0.30199999 -1.059 51 16 0
2.3180001 -0.303 -1.0650001 52 16 0
2.3139999 -0.30199999 -1.071 56 16 0
2.3110001 -0.30199999 -1.077 54 16 0
2.3080001 -0.303 -1.084 55 16 0
2.306 -0.303 -1.091 50 16 0
2.303 -0.303 -1.097 52 16 0
2.3 -0.303 -1.103 55 16 0
2.296 -0.30199999 -1.109 52 16 0
2.2939999 -0.303 -1.1160001 52 16 0
2.2920001 -0.30199999 -1.122 56 16 0
2.289 -0.30199999 -1.128 55 16 0
2.286 -0.30199999 -1.1339999 49 16 0
2.286 -0.30199999 -1.142 54 16 0
2.286 -0.30199999 -1.149 49 16 0
2.279 -0.301 -1.153 44 16 0
2.2820001 -0.30199999 -1.1619999 46 16 0
2.279 -0.301 -1.168 45 16 0
2.276 -0.301 -1.174 44 16 0
2.276 -0.301 -1.182 63 16 0
2.2739999 -0.30000001 -1.188 64 16 0
2.2709999 -0.30000001 -1.194 63 16 0
2.2679999 -0.29899999 -1.199 60 16 0
2.267 -0.29899999 -1.206 58 16 0
2.2679999 -0.29899999 -1.214 56 16 0
2.2650001 -0.29800001 -1.219 55 16 0
2.2639999 -0.29800001 -1.226 60 16 0
2.2620001 -0.29699999 -1.232 53 16 0
2.26 -0.296 -1.238 65 16 0
2.257 -0.29499999 -1.244 61 16 0
2.2550001 -0.294 -1.25 62 16 0
2.26 -0.29499999 -1.2589999 69 16 0
2.2579999 -0.294 -1.265 66 16 0
2.25 -0.292 -1.268 59 16 0
2.2550001 -0.292 -1.277 59 16 0
2.25 -0.29100001 -1.281 60 16 0
2.2520001 -0.28999999 -1.289 53 16 0
2.2539999 -0.289 -1.2970001 56 16 0
2.2509999 -0.28799999 -1.302 57 16 0
2.2520001 -0.28799999 -1.309 48 16 0
2.2539999 -0.287 -1.317 57 16 0
2.2509999 -0.28600001 -1.322 49 16 0
2.2520001 -0.285 -1.329 49 16 0
2.2550001 -0.28400001 -1.337 51 16 0
2.2520001 -0.28200001 -1.341 46 16 0
2.2539999 -0.28200001 -1.349 46 16 0
2.2520001 -0.28 -1.354 46 16 0
2.2520001 -0.27900001 -1.36 47 16 0
2.2520001 -0.278 -1.367 46 16 0
2.25 -0.27599999 -1.3710001 49 16 0
2.247 -0.27399999 -1.376 44 16 0
2.247 -0.273 -1.382 39 16 0
2.2520001 -0.27200001 -1.391 40 16 0
2.253 -0.271 -1.397 35 16 0
2.257 -0.27000001 -1.405 37 16 0
2.257 -0.26800001 -1.411 36 16 0
2.2550001 -0.266 -1.416 40 16 0
2.2550001 -0.26499999 -1.421 35 16 0
2.257 -0.26300001 -1.428 38 16 0
2.2579999 -0.26199999 -1.4349999 36 16 0
2.26 -0.25999999 -1.441 36 16 0
2.2620001 -0.25799999 -1.448 36 16 0
2.2639999 -0.257 -1.454 36 16 0
2.2679999 -0.255 -1.462 36 16 0
2.267 -0.25299999 -1.466 35 16 0
2.2650001 -0.25099999 -1.47 34 16 0
2.2690001 -0.249 -1.478 34 16 0
2.2720001 -0.24699999 -1.484 35 16 0
2.2709999 -0.245 -1.488 35 16 0
2.2709999 -0.243 -1.493 33 16 0
2.2739999 -0.241 -1.499 34 16 0
2.2739999 -0.23899999 -1.5039999 33 16 0
2.273 -0.237 -1.508 33 16 0
2.2820001 -0.235 -1.518 34 19 0
2.2839999 -0.233 -1.524 34 16 0
2.2839999 -0.23100001 -1.528 33 16 0
2.29 -0.229 -1.536 35 16 0
2.29 -0.226 -1.539 33 16 0
2.2939999 -0.22400001 -1.546 33 16 0
2.2939999 -0.222 -1.55 32 16 0
2.2969999 -0.22 -1.556 32 16 0
2.299 -0.21699999 -1.561 32 16 0
2.3050001 -0.215 -1.568 33 16 0
2.306 -0.212 -1.572 32 16 0
2.309 -0.20999999 -1.577 31 16 0
2.3099999 -0.207 -1.581 32 16 0
2.316 -0.205 -1.589 30 16 0
2.316 -0.20200001 -1.591 31 16 0
2.3210001 -0.2 -1.597 29 16 0
2.326 -0.197 -1.604 30 16 0
2.3280001 -0.19499999 -1.608 31 16 0
2.332 -0.192 -1.613 33 16 0
2.3340001 -0.189 -1.6160001 32 16 0
2.3399999 -0.186 -1.623 32 16 0
2.349 -0.184 -1.631 33 16 0
2.349 -0.18099999 -1.633 32 16 0
2.3540001 -0.178 -1.638 32 16 0
2.355 -0.175 -1.641 31 16 0
2.362 -0.17299999 -1.648 33 19 0
2.365 -0.17 -1.651 31 16 0
2.3699999 -0.167 -1.655 31 16 0
2.3759999 -0.164 -1.661 31 16 0
2.3789999 -0.161 -1.664 31 16 0
2.3859999 -0.15800001 -1.67 32 19 0
2.3889999 -0.155 -1.673 31 16 0
2.3970001 -0.152 -1.6799999 31 19 0
2.4030001 -0.149 -1.684 32 16 0
2.4070001 -0.146 -1.687 31 16 0
2.414 -0.14300001 -1.692 32 16 0
2.414 -0.14 -1.693 32 16 0
2.424 -0.13699999 -1.7 32 19 0
2.425 -0.134 -1.701 31 16 0
2.437 -0.131 -1.709 32 18 0
2.438 -0.127 -1.709 31 16 0
2.4460001 -0.124 -1.714 31 16 0
2.45 -0.121 -1.717 32 16 0
2.4560001 -0.118 -1.72 30 16 0
2.4619999 -0.114 -1.723 31 16 0
2.473 -0.111 -1.73 32 16 0
2.477 -0.108 -1.7309999 32 16 0
2.484 -0.105 -1.735 32 16 0
2.4920001 -0.101 -1.739 39 16 0
2.4949999 -0.097999997 -1.74 64 16 0
2.4990001 -0.093999997 -1.7410001 137 16 0
2.5039999 -0.090999998 -1.742 150 16 0
2.5 -0.086999997 -1.737 150 16 0
2.5009999 -0.083999999 -1.7359999 150 16 0
2.503 -0.079999998 -1.735 150 16 0
2.4990001 -0.077 -1.73 150 16 0
2.497 -0.072999999 -1.726 150 16 0
2.4990001 -0.07 -1.725 150 16 0
2.497 -0.066 -1.721 150 16 0
2.497 -0.061999999 -1.7180001 150 16 0
2.494 -0.059 -1.712 150 16 0
2.4979999 -0.055 -1.712 150 16 0
2.493 -0.052000001 -1.706 150 16 0
2.4920001 -0.048999999 -1.702 116 16 0
2.4879999 -0.045000002 -1.6950001 54 16 0
2.4949999 -0.041999999 -1.696 33 16 0
2.4979999 -0.037999999 -1.6950001 26 16 0
2.507 -0.035 -1.697 21 16 0
2.5139999 -0.032000002 -1.697 21 16 0
2.5220001 -0.028999999 -1.699 21 16 0
2.5280001 -0.025 -1.698 21 16 0
2.5369999 -0.022 -1.7 21 16 0
2.543 -0.018999999 -1.699 21 16 0
2.5469999 -0.015 -1.698 22 16 0
2.552 -0.012 -1.696 22 16 0
2.573 -0.0089999996 -1.705 25 18 0
2.5739999 -0.0060000001 -1.701 30 16 0
2.5840001 -0.003 -1.702 42 16 0
2.586 0 -1.699 69 16 0
2.5829999 0.003 -1.691 104 16 0
2.5840001 0.0060000001 -1.686 123 16 0
2.585 0.0089999996 -1.682 138 16 0
2.5829999 0.012 -1.675 116 16 0
2.5780001 0.015 -1.666 123 16 0
2.5829999 0.017999999 -1.663 125 16 0
2.5829999 0.021 -1.6569999 121 16 0
2.5880001 0.024 -1.655 87 16 0
2.5910001 0.027000001 -1.65 72 16 0
2.5899999 0.029999999 -1.643 63 16 0
2.589 0.033 -1.637 82 16 0
2.595 0.035999998 -1.6339999 111 16 0
2.5969999 0.039000001 -1.6289999 139 16 0
2.5969999 0.041999999 -1.622 150 16 0
2.6010001 0.044 -1.618 150 16 0
2.598 0.046999998 -1.609 150 16 0
2.598 0.050000001 -1.603 150 16 0
2.602 0.052999999 -1.599 150 16 0
2.602 0.055 -1.591 150 16 0
2.6010001 0.057999998 -1.584 150 16 0
2.6040001 0.059999999 -1.579 150 16 0
2.6029999 0.063000001 -1.571 150 16 0
2.609 0.064999998 -1.567 150 16 0
2.6110001 0.068000004 -1.561 150 16 0
2.609 0.07 -1.553 150 16 0
2.6129999 0.072999999 -1.5470001 150 16 0
2.6159999 0.075000003 -1.5420001 150 16 0
2.6140001 0.077 -1.533 150 16 0
2.6210001 0.079999998 -1.53 150 16 0
2.6159999 0.082000002 -1.5190001 150 16 0
2.619 0.083999999 -1.513 150 16 0
2.6229999 0.086000003 -1.508 150 16 0
2.625 0.088 -1.501 150 16 0
2.6229999 0.090000004 -1.492 150 16 0
2.628 0.093000002 -1.487 150 16 0
2.6300001 0.094999999 -1.48 150 16 0
2.632 0.097000003 -1.473 150 16 0
2.6370001 0.098999999 -1.4680001 150 16 0
2.6400001 0.101 -1.462 150 16 0
2.6370001 0.102 -1.452 150 16 0
2.641 0.104 -1.4450001 150 16 0
2.641 0.106 -1.437 150 16 0
2.6440001 0.108 -1.431 150 16 0
2.648 0.11 -1.424 150 16 0
2.651 0.111 -1.418 150 16 0
2.654 0.113 -1.411 150 16 0
2.658 0.115 -1.404 150 16 0
2.6570001 0.116 -1.395 150 16 0
2.6600001 0.118 -1.388 150 16 0
2.661 0.119 -1.38 150 16 0
2.665 0.121 -1.373 150 16 0
2.6659999 0.122 -1.365 150 16 0
2.6719999 0.124 -1.36 150 16 0
2.6730001 0.125 -1.352 150 16 0
2.6760001 0.127 -1.344 150 16 0
2.6800001 0.12800001 -1.3380001 150 16 0
2.6819999 0.12899999 -1.33 150 16 0
2.675 0.13 -1.317 150 16 0
2.6849999 0.132 -1.313 150 16 0
2.6900001 0.133 -1.307 150 16 0
2.6919999 0.134 -1.299 150 16 0
2.6860001 0.13500001 -1.2869999 150 16 0
2.6989999 0.13600001 -1.284 150 16 0
2.6919999 0.13699999 -1.272 150 16 0
2.6960001 0.138 -1.265 150 16 0
2.7090001 0.139 -1.261 150 16 0
2.7019999 0.14 -1.249 150 16 0
2.7149999 0.141 -1.2460001 150 16 0
2.7179999 0.142 -1.238 150 16 0
2.7119999 0.14300001 -1.227 150 16 0
2.7249999 0.14399999 -1.223 150 16 0
2.723 0.145 -1.2130001 150 16 0
2.723 0.145 -1.204 150 16 0
2.721 0.146 -1.194 150 16 0
2.7290001 0.147 -1.188 150 16 0
2.7279999 0.147 -1.178 150 16 0
2.7309999 0.148 -1.17 150 16 0
2.7349999 0.148 -1.163 150 16 0
2.7379999 0.149 -1.155 150 16 0
2.7409999 0.149 -1.147 150 16 0
2.7449999 0.15000001 -1.1390001 150 16 0
2.7479999 0.15000001 -1.131 150 16 0
2.76 0.15099999 -1.126 150 16 0
2.7539999 0.15099999 -1.115 150 16 0
2.7620001 0.152 -1.108 150 16 0
2.7739999 0.153 -1.104 150 16 0
2.79 0.154 -1.1 48 16 0
2.8399999 0.156 -1.1109999 4 18 0
2.777 0.153 -1.076 0 19 0
2.8 0.154 -1.076 0 16 0
2.8369999 0.156 -1.08 0 16 0
2.9360001 0.162 -1.108 0 16 0
2.9860001 0.16500001 -1.117 0 16 0
2.9860001 0.164 -1.1059999 0 16 0
2.973 0.164 -1.091 0 16 0
3.013 0.16599999 -1.096 0 16 0
2.813 0.155 -1.0140001 1 18 0
2.8429999 0.156 -1.015 24 16 0
2.823 0.155 -0.99800003 150 16 0
2.825 0.154 -0.98900002 150 16 0
2.8280001 0.154 -0.98000002 150 16 0
2.829 0.154 -0.97100002 150 16 0
2.8299999 0.154 -0.96200001 150 16 0
2.8369999 0.154 -0.95499998 150 16 0
2.8399999 0.154 -0.94599998 150 16 0
2.8429999 0.153 -0.93699998 150 16 0
2.846 0.153 -0.92900002 150 16 0
2.8510001 0.153 -0.92000002 150 16 0
2.8559999 0.153 -0.91299999 150 16 0
2.862 0.152 -0.90499997 150 16 0
2.8640001 0.152 -0.89600003 150 16 0
2.8670001 0.15099999 -0.88700002 150 16 0
2.8699999 0.15099999 -0.87800002 150 16 0
2.8759999 0.15000001 -0.87 150 16 0
2.878 0.15000001 -0.86199999 150 16 0
2.881 0.149 -0.85299999 150 16 0
2.8840001 0.149 -0.84399998 150 16 0
2.8859999 0.148 -0.83499998 150 16 0
2.8959999 0.148 -0.82800001 150 16 0
2.9000001 0.147 -0.81900001 150 16 0
2.9030001 0.147 -0.81 150 16 0
2.9089999 0.146 -0.80199999 150 16 0
2.9130001 0.145 -0.79299998 150 16 0
2.914 0.14399999 -0.78399998 150 16 0
2.921 0.14399999 -0.77600002 150 16 0
2.9260001 0.14300001 -0.76800001 150 16 0
2.927 0.142 -0.75800002 150 16 0
2.934 0.141 -0.75 150 16 0
2.937 0.141 -0.741 150 16 0
2.9389999 0.14 -0.73199999 150 16 0
2.9460001 0.139 -0.72399998 150 16 0
2.9549999 0.138 -0.71600002 150 16 0
2.9560001 0.13699999 -0.70700002 150 16 0
2.9590001 0.13600001 -0.69800001 150 16 0
2.967 0.13500001 -0.69 150 16 0
2.964 0.134 -0.67900002 150 16 0
2.974 0.133 -0.671 150 16 0
2.98 0.132 -0.66299999 150 16 0
2.9849999 0.131 -0.65399998 150 16 0
2.987 0.13 -0.64499998 150 16 0
2.9860001 0.12800001 -0.63499999 150 16 0
2.9909999 0.127 -0.62599999 150 16 0
2.9979999 0.126 -0.61799997 150 16 0
3.007 0.125 -0.60900003 150 16 0
3.0109999 0.124 -0.60000002 150 16 0
3.017 0.123 -0.59200001 150 16 0
3.017 0.121 -0.58200002 150 16 0
3.0239999 0.12 -0.574 150 16 0
3.0280001 0.119 -0.56400001 150 16 0
3.0339999 0.117 -0.55599999 150 16 0
3.036 0.116 -0.546 150 16 0
3.0409999 0.115 -0.537 150 16 0
3.046 0.113 -0.528 150 16 0
3.049 0.112 -0.51899999 148 16 0
3.05 0.11 -0.509 150 16 0
3.0639999 0.109 -0.50099999 150 16 0
3.0650001 0.107 -0.49200001 150 16 0
3.075 0.106 -0.48300001 150 16 0
3.0739999 0.104 -0.47299999 150 16 0
3.082 0.103 -0.46399999 150 16 0
3.0869999 0.101 -0.45500001 145 16 0
3.0940001 0.1 -0.44600001 150 16 0
3.098 0.097999997 -0.43700001 150 16 0
3.108 0.096000001 -0.428 150 16 0
3.1099999 0.094999999 -0.41800001 146 16 0
3.1099999 0.093000002 -0.40799999 141 16 0
3.1199999 0.090999998 -0.40000001 150 16 0
3.1240001 0.089000002 -0.38999999 150 16 0
3.1259999 0.086999997 -0.38 150 16 0
3.1329999 0.086000003 -0.37099999 150 16 0
3.141 0.083999999 -0.36199999 150 16 0
3.1500001 0.082000002 -0.35299999 150 16 0
3.151 0.079999998 -0.34299999 138 16 0
3.155 0.078000002 -0.333 141 16 0
3.1589999 0.075999998 -0.32300001 150 16 0
3.165 0.074000001 -0.31400001 150 16 0
3.171 0.071999997 -0.30399999 150 16 0
3.1719999 0.07 -0.29499999 150 16 0
3.1849999 0.068000004 -0.28600001 150 16 0
3.187 0.066 -0.27599999 137 16 0
3.197 0.064000003 -0.266 112 16 0
3.1989999 0.061999999 -0.25600001 67 16 0
3.21 0.059999999 -0.24699999 67 16 0
3.2119999 0.057999998 -0.237 58 16 0
3.2190001 0.055 -0.227 51 16 0
3.2260001 0.052999999 -0.21699999 66 16 0
3.227 0.050999999 -0.207 86 16 0
3.2309999 0.048999999 -0.197 119 16 0
3.237 0.046 -0.18799999 135 16 0
3.2420001 0.044 -0.178 143 16 0
3.2490001 0.041999999 -0.168 135 16 0
3.2550001 0.039000001 -0.15800001 129 16 0
3.26 0.037 -0.148 132 16 0
3.2679999 0.035 -0.138 125 16 0
3.2739999 0.032000002 -0.12800001 111 16 0
3.277 0.029999999 -0.118 77 16 0
3.2880001 0.027000001 -0.108 47 16 0
3.2909999 0.025 -0.097000003 37 16 0
3.29 0.022 -0.086999997 26 16 0
3.289 0.02 -0.077 23 16 0
3.2909999 0.017000001 -0.066 21 16 0
3.2869999 0.014 -0.056000002 20 16 0
3.2820001 0.012 -0.046 20 16 0
3.277 0.0089999996 -0.035 19 16 0
3.276 0.0060000001 -0.025 19 16 0
3.276 0.0040000002 -0.015 19 16 0
3.276 0.001 -0.0040000002 19 16 0
3.2720001 -0.001 0.0049999999 19 16 0
3.2709999 -0.0040000002 0.015 19 16 0
3.267 -0.0060000001 0.025 23 16 0
3.257 -0.0089999996 0.035 26 16 0
3.2650001 -0.012 0.046 37 16 0
3.2690001 -0.015 0.056000002 65 16 0
3.2739999 -0.017999999 0.066 124 16 0
3.2820001 -0.021 0.077 150 16 0
3.29 -0.024 0.086999997 150 16 0
3.2939999 -0.026000001 0.097000003 150 16 0
3.3010001 -0.028999999 0.108 150 16 0
3.3010001 -0.032000002 0.118 150 16 0
3.3110001 -0.035 0.12899999 150 16 0
3.325 -0.039000001 0.14 150 16 0
3.329 -0.041999999 0.15000001 150 16 0
3.3310001 -0.045000002 0.161 150 16 0
3.3410001 -0.048 0.17200001 150 16 0
3.3440001 -0.050999999 0.182 150 16 0
3.3440001 -0.054000001 0.193 150 16 0
3.358 -0.057999998 0.204 150 16 0
3.3659999 -0.061000001 0.215 150 16 0
3.369 -0.064000003 0.22499999 64 16 0
3.3659999 -0.067000002 0.236 41 16 0
3.3699999 -0.071000002 0.24600001 31 16 0
3.3629999 -0.074000001 0.25600001 29 16 0
3.3570001 -0.077 0.266 28 16 0
3.352 -0.079999998 0.27599999 28 16 0
3.3510001 -0.082999997 0.28600001 28 16 0
3.3440001 -0.086999997 0.296 28 16 0
3.3380001 -0.090000004 0.30599999 28 16 0
3.335 -0.093000002 0.31600001 29 16 0
3.336 -0.096000001 0.32600001 28 16 0
3.332 -0.1 0.336 29 16 0
3.325 -0.103 0.34599999 28 16 0
3.3269999 -0.106 0.35699999 34 16 0
3.3210001 -0.11 0.366 41 16 0
3.3080001 -0.113 0.375 52 16 0
3.2969999 -0.116 0.384 48 16 0
3.28 -0.118 0.39199999 41 16 0
3.257 -0.121 0.39899999 40 16 0
3.2460001 -0.124 0.40799999 40 16 0
3.223 -0.127 0.41499999 40 16 0
3.2079999 -0.13 0.42300001 40 16 0
3.1919999 -0.132 0.43099999 39 16 0
3.174 -0.13500001 0.43799999 40 16 0
3.152 -0.138 0.44499999 39 16 0
3.1370001 -0.14 0.45300001 38 16 0
3.125 -0.14300001 0.461 38 16 0
3.102 -0.146 0.46700001 37 16 0
3.086 -0.149 0.47400001 39 16 0
3.0710001 -0.15099999 0.48100001 38 16 0
3.0539999 -0.154 0.48800001 38 16 0
3.036 -0.156 0.49399999 36 16 0
3.0239999 -0.15899999 0.50199997 38 16 0
3.006 -0.162 0.50800002 38 16 0
2.993 -0.16500001 0.51499999 38 16 0
2.9779999 -0.167 0.52200001 37 16 0
2.964 -0.17 0.528 36 16 0
2.9489999 -0.17299999 0.53500003 37 16 0
2.9360001 -0.175 0.54100001 38 16 0
2.9200001 -0.178 0.54799998 38 16 0
2.908 -0.18099999 0.55400002 36 16 0
2.892 -0.183 0.56 38 16 0
2.8800001 -0.186 0.56699997 37 16 0
2.872 -0.189 0.574 39 16 0
2.855 -0.191 0.579 38 16 0
2.842 -0.19400001 0.58499998 39 16 0
2.8280001 -0.197 0.59100002 39 16 0
2.8169999 -0.199 0.59799999 40 16 0
2.799 -0.20200001 0.602 41 16 0
2.7909999 -0.205 0.60900003 40 16 0
2.7739999 -0.207 0.61400002 41 16 0
2.76 -0.20999999 0.61900002 40 16 0
2.7509999 -0.212 0.62599999 40 16 0
2.737 -0.215 0.63099998 45 16 0
2.723 -0.21699999 0.63599998 47 16 0
2.7119999 -0.22 0.64200002 46 16 0
2.7 -0.223 0.64700001 43 16 0
2.6830001 -0.22499999 0.65200001 48 16 0
2.674 -0.228 0.65799999 62 16 0
2.665 -0.23100001 0.66399997 90 16 0
2.6489999 -0.233 0.667 82 16 0
2.642 -0.236 0.67400002 89 16 0
2.6329999 -0.23899999 0.68000001 87 16 0
2.6210001 -0.241 0.685 86 16 0
2.615 -0.244 0.69099998 79 16 0
2.6099999 -0.248 0.69800001 92 16 0
2.5899999 -0.249 0.69999999 86 16 0
2.5799999 -0.252 0.70499998 82 16 0
2.5669999 -0.25400001 0.70999998 115 16 0
2.5599999 -0.257 0.71600002 110 16 0
2.543 -0.25999999 0.71899998 113 16 0
2.536 -0.26199999 0.72399998 126 16 0
2.5250001 -0.26499999 0.72899997 116 16 0
2.516 -0.26800001 0.73400003 108 16 0
2.5050001 -0.27000001 0.73799998 110 16 0
2.4960001 -0.273 0.74299997 117 16 0
2.4890001 -0.27599999 0.74900001 121 16 0
2.4760001 -0.278 0.75199997 120 16 0
2.464 -0.28099999 0.75599998 116 16 0
2.4579999 -0.28400001 0.76200002 123 16 0
2.4489999 -0.287 0.76599997 130 16 0
2.4330001 -0.289 0.76899999 138 16 0
2.4219999 -0.29100001 0.773 115 16 0
2.4170001 -0.294 0.778 129 16 0
2.4089999 -0.29699999 0.78299999 127 16 0
2.395 -0.29899999 0.78600001 131 16 0
2.391 -0.30199999 0.79100001 137 16 0
2.381 -0.30500001 0.79500002 142 16 0
2.3710001 -0.30700001 0.79900002 134 16 0
2.365 -0.31099999 0.80400002 140 16 0
2.3559999 -0.31299999 0.80800003 149 16 0
2.348 -0.31600001 0.81199998 141 16 0
2.3369999 -0.31799999 0.815 137 16 0
2.3299999 -0.32100001 0.81999999 132 16 0
2.3180001 -0.324 0.82300001 134 16 0
2.309 -0.32600001 0.82599998 141 16 0
2.306 -0.33000001 0.83200002 133 16 0
2.2969999 -0.33199999 0.83499998 143 16 0
2.283 -0.33399999 0.83700001 142 16 0
2.2750001 -0.33700001 0.84100002 140 16 0
2.266 -0.34 0.84399998 150 16 0
2.2609999 -0.34299999 0.84899998 150 16 0
2.253 -0.34599999 0.852 147 16 0
2.244 -0.34799999 0.85500002 150 16 0
2.2360001 -0.35100001 0.85900003 150 16 0
2.227 -0.354 0.86199999 150 16 0
2.214 -0.35600001 0.86400002 150 16 0
2.211 -0.359 0.86900002 150 16 0
2.2030001 -0.36199999 0.87199998 150 16 0
2.1949999 -0.36399999 0.875 150 16 0
2.1930001 -0.368 0.88 150 16 0
2.1830001 -0.37 0.88300002 150 16 0
2.174 -0.373 0.88499999 150 16 0
2.168 -0.37599999 0.889 150 16 0
2.1589999 -0.37799999 0.89099997 150 16 0
2.1500001 -0.38100001 0.89399999 150 16 0
2.142 -0.38299999 0.89600003 150 16 0
2.1359999 -0.38699999 0.89999998 150 16 0
2.1259999 -0.389 0.90100002 150 16 0
2.122 -0.39199999 0.90600002 150 16 0
2.1159999 -0.39500001 0.90899998 150 16 0
2.108 -0.398 0.912 150 16 0
2.1029999 -0.40099999 0.91500002 150 16 0
2.0880001 -0.40200001 0.91399997 150 16 0
2.085 -0.40599999 0.91900003 150 16 0
2.0840001 -0.40900001 0.92400002 150 16 0
2.075 -0.412 0.926 150 16 0
2.069 -0.41499999 0.92799997 150 16 0
2.0599999 -0.417 0.93000001 150 16 0
2.056 -0.41999999 0.93400002 150 16 0
2.052 -0.42399999 0.93699998 150 16 0
2.046 -0.426 0.94 150 16 0
2.0380001 -0.42899999 0.94099998 150 16 0
2.029 -0.43099999 0.94300002 150 16 0
2.026 -0.435 0.94700003 150 16 0
2.0220001 -0.43799999 0.94999999 150 16 0
2.0209999 -0.442 0.954 150 16 0
2.01 -0.44400001 0.95499998 150 16 0
2.003 -0.447 0.95599997 150 16 0
1.998 -0.44999999 0.95899999 150 16 0
1.997 -0.454 0.963 150 16 0
1.988 -0.456 0.96399999 150 16 0
1.9809999 -0.458 0.96499997 150 16 0
1.9809999 -0.463 0.97000003 150 16 0
1.9680001 -0.46399999 0.96899998 150 16 0
1.9680001 -0.46799999 0.97299999 150 16 0
1.96 -0.47 0.97399998 150 16 0
1.956 -0.47299999 0.977 150 16 0
1.95 -0.47600001 0.97799999 150 16 0
1.948 -0.47999999 0.98100001 150 16 0
1.941 -0.48199999 0.98199999 150 16 0
1.939 -0.486 0.986 150 16 0
1.9349999 -0.48899999 0.98799998 150 16 0
1.928 -0.491 0.98900002 150 16 0
1.926 -0.495 0.99199998 150 16 0
1.921 -0.498 0.99299997 150 16 0
1.913 -0.5 0.99299997 150 16 0
1.906 -0.50199997 0.99400002 150 16 0
1.902 -0.505 0.99599999 150 16 0
1.898 -0.509 0.99800003 150 16 0
1.896 -0.51200002 1.001 150 16 0
1.891 -0.51499999 1.002 150 16 0
1.887 -0.51800001 1.003 150 16 0
1.885 -0.52200001 1.006 150 16 0
1.883 -0.52499998 1.008 150 16 0
1.88 -0.528 1.011 150 16 0
1.876 -0.53100002 1.012 150 16 0
1.8710001 -0.53399998 1.012 150 16 0
1.869 -0.53799999 1.015 150 16 0
1.864 -0.54000002 1.015 150 16 0
1.862 -0.54400003 1.017 150 16 0
1.86 -0.54699999 1.02 150 16 0
1.853 -0.54900002 1.0190001 150 16 0
1.858 -0.55500001 1.025 150 16 0
1.852 -0.55699998 1.024 123 16 0
1.85 -0.56 1.026 150 16 0
1.847 -0.56300002 1.027 150 16 0
1.8380001 -0.565 1.025 150 16 0
1.837 -0.56800002 1.027 150 16 0
1.835 -0.57200003 1.029 150 16 0
1.83 -0.574 1.029 150 16 0
1.83 -0.57800001 1.031 150 16 0
1.826 -0.58099997 1.031 150 16 0
1.824 -0.58399999 1.033 150 16 0
1.824 -0.588 1.035 150 16 0
1.822 -0.59100002 1.036 150 16 0
1.819 -0.59399998 1.036 150 16 0
1.814 -0.59600002 1.036 150 16 0
1.8099999 -0.59799999 1.035 150 16 0
1.813 -0.60299999 1.039 150 16 0
1.812 -0.60600001 1.04 150 16 0
1.808 -0.60900003 1.04 150 16 0
1.804 -0.611 1.039 150 16 0
1.804 -0.61500001 1.041 150 16 0
1.801 -0.61699998 1.04 150 16 0
1.802 -0.62099999 1.0420001 150 16 0
1.8 -0.62400001 1.043 150 16 0
1.796 -0.62599999 1.0420001 150 16 0
1.795 -0.62900001 1.0420001 150 16 0
1.796 -0.63300002 1.044 150 16 0
1.798 -0.63700002 1.046 150 16 0
1.791 -0.63800001 1.043 150 16 0
1.793 -0.64200002 1.045 150 16 0
1.795 -0.64600003 1.0470001 150 16 0
1.794 -0.64899999 1.0470001 150 16 0
1.798 -0.65399998 1.05 150 16 0
1.795 -0.65600002 1.049 149 16 0
1.796 -0.66000003 1.05 129 16 0
1.7970001 -0.66299999 1.051 97 16 0
1.804 -0.66900003 1.0549999 81 19 0
1.8049999 -0.67299998 1.057 62 16 0
1.812 -0.67799997 1.0599999 66 19 0
1.813 -0.68099999 1.061 55 16 0
1.817 -0.68599999 1.063 53 16 0
1.818 -0.68900001 1.064 47 16 0
1.8200001 -0.69300002 1.0650001 43 16 0
1.824 -0.69700003 1.067 45 16 0
1.824 -0.69999999 1.067 44 16 0
1.829 -0.70499998 1.069 47 16 0
1.829 -0.70700002 1.069 41 16 0
1.836 -0.713 1.072 42 19 0
1.835 -0.71499997 1.071 43 16 0
1.8380001 -0.71899998 1.072 43 16 0
1.84 -0.722 1.072 42 16 0
1.84 -0.72500002 1.071 40 16 0
1.8430001 -0.72799999 1.072 38 16 0
1.845 -0.73100001 1.072 38 16 0
1.845 -0.73400003 1.0700001 41 16 0
1.847 -0.73699999 1.0700001 37 16 0
1.849 -0.74000001 1.0700001 40 16 0
1.849 -0.74199998 1.069 39 16 0
1.85 -0.745 1.068 35 16 0
1.849 -0.74599999 1.066 39 16 0
1.85 -0.74900001 1.064 39 16 0
1.85 -0.75 1.062 40 16 0
1.851 -0.75300002 1.061 34 16 0
1.851 -0.755 1.059 38 16 0
1.851 -0.75599998 1.057 38 16 0
1.851 -0.75800002 1.0549999 42 16 0
1.851 -0.75999999 1.053 41 16 0
1.852 -0.76099998 1.051 44 16 0
1.85 -0.76200002 1.0470001 47 16 0
1.846 -0.76200002 1.043 37 16 0
1.845 -0.76300001 1.04 51 16 0
1.848 -0.76499999 1.038 63 16 0
1.852 -0.76800001 1.038 95 16 0
1.848 -0.76800001 1.033 108 16 0
1.855 -0.77200001 1.034 142 16 0
1.851 -0.77100003 1.029 150 16 0
1.851 -0.77200001 1.026 150 16 0
1.8559999 -0.77499998 1.025 150 16 0
1.862 -0.778 1.025 150 16 0
1.862 -0.77899998 1.023 150 16 0
1.868 -0.78200001 1.022 150 16 0
1.869 -0.78299999 1.0190001 150 16 0
1.872 -0.78500003 1.018 150 16 0
