# .PCD v0.7 - Point Cloud Data file format
VERSION 0.7
FIELDS x y z intensity tag line
SIZE 4 4 4 4 1 1
TYPE F F F F U U
COUNT 1 1 1 1 1 1
WIDTH 1361
HEIGHT 1
VIEWPOINT 0 0 0 1 0 0 0
POINTS 1361
DATA ascii
2.9170001 0.273 0.54500002 45 16 0
2.901 0.27500001 0.55000001 42 16 0
2.8829999 0.27700001 0.55599999 46 16 0
2.8729999 0.28 0.56300002 44 16 0
2.8610001 0.28299999 0.56900001 44 16 0
2.842 0.28400001 0.574 42 16 0
2.8340001 0.287 0.58099997 53 16 0
2.8169999 0.289 0.58600003 47 16 0
2.8039999 0.29100001 0.59200001 79 16 0
2.7880001 0.29300001 0.597 75 16 0
2.776 0.29499999 0.60399997 78 16 0
2.76 0.29699999 0.60900003 87 16 0
2.753 0.30000001 0.616 82 16 0
2.7409999 0.30199999 0.62099999 104 16 0
2.721 0.303 0.625 133 16 0
2.711 0.30500001 0.63200003 102 16 0
2.7 0.30700001 0.63800001 98 16 0
2.681 0.308 0.64099997 95 16 0
2.674 0.31 0.648 98 16 0
2.6659999 0.31299999 0.65499997 102 16 0
2.652 0.31400001 0.65899998 103 16 0
2.6429999 0.31600001 0.66500002 108 16 0
2.6289999 0.317 0.67000002 91 16 0
2.6210001 0.31900001 0.676 68 16 0
2.608 0.32100001 0.68099999 48 16 0
2.596 0.322 0.68599999 103 16 0
2.5780001 0.32300001 0.69 122 16 0
2.569 0.32499999 0.69599998 104 16 0
2.559 0.32600001 0.70099998 150 16 0
2.55 0.32800001 0.70700002 150 16 0
2.5409999 0.33000001 0.71200001 150 16 0
2.52 0.33000001 0.71499997 149 16 0
2.5150001 0.33199999 0.72100002 150 16 0
2.5050001 0.333 0.72600001 150 16 0
2.4920001 0.33399999 0.73100001 150 16 0
2.487 0.336 0.73699999 150 16 0
2.47 0.336 0.74000001 150 16 0
2.464 0.338 0.74599999 150 16 0
2.451 0.33899999 0.75 150 16 0
2.4389999 0.34 0.75400001 150 16 0
2.428 0.34099999 0.759 150 16 0
2.4170001 0.34200001 0.76300001 150 16 0
2.4100001 0.34299999 0.76899999 150 16 0
2.3989999 0.34400001 0.773 150 16 0
2.391 0.345 0.77899998 150 16 0
2.382 0.34599999 0.78299999 150 16 0
2.3659999 0.34599999 0.78600001 150 16 0
2.3599999 0.347 0.79100001 150 16 0
2.3499999 0.34799999 0.796 150 16 0
2.342 0.34900001 0.801 150 16 0
2.336 0.34999999 0.80699998 150 16 0
2.3199999 0.34999999 0.80800003 150 16 0
2.313 0.35100001 0.81400001 150 16 0
2.303 0.352 0.81800002 150 16 0
2.293 0.352 0.82200003 150 16 0
2.28 0.352 0.82499999 150 16 0
2.2750001 0.35299999 0.82999998 150 16 0
2.263 0.35299999 0.833 150 16 0
2.2550001 0.354 0.838 150 16 0
2.2460001 0.354 0.84200001 150 16 0
2.234 0.354 0.84500003 150 16 0
2.2260001 0.35499999 0.84899998 150 16 0
2.214 0.35499999 0.852 150 16 0
2.207 0.35499999 0.85699999 150 16 0
2.201 0.35600001 0.86199999 150 16 0
2.194 0.35600001 0.866 150 16 0
2.1819999 0.35600001 0.86900002 150 16 0
2.171 0.35600001 0.87199998 150 16 0
2.1659999 0.35699999 0.87699997 150 16 0
2.154 0.35600001 0.87900001 150 16 0
2.148 0.35699999 0.884 150 16 0
2.1389999 0.35699999 0.88700002 150 16 0
2.131 0.35699999 0.89099997 150 16 0
2.122 0.35699999 0.89399999 150 16 0
2.1159999 0.35699999 0.89899999 150 16 0
2.1029999 0.35600001 0.89999998 150 16 0
2.095 0.35600001 0.90399998 150 16 0
2.092 0.35699999 0.91000003 150 16 0
2.085 0.35699999 0.91299999 150 16 0
2.076 0.35600001 0.91600001 150 16 0
2.0650001 0.35600001 0.91799998 150 16 0
2.0569999 0.35499999 0.92199999 150 16 0
2.049 0.35499999 0.92500001 150 16 0
2.04 0.354 0.92699999 150 16 0
2.0369999 0.35499999 0.93300003 150 16 0
2.03 0.35499999 0.93599999 150 16 0
2.0239999 0.35499999 0.94 150 16 0
2.016 0.354 0.94300002 150 16 0
2.007 0.35299999 0.94499999 150 16 0
1.9960001 0.352 0.94700003 150 16 0
1.992 0.352 0.95099998 150 16 0
1.984 0.352 0.954 150 16 0
1.971 0.34999999 0.954 150 16 0
1.964 0.34999999 0.958 150 16 0
1.96 0.34999999 0.96200001 150 16 0
1.9529999 0.34900001 0.96499997 150 16 0
1.947 0.34799999 0.96799999 150 16 0
1.938 0.347 0.97000003 150 16 0
1.9349999 0.347 0.97500002 150 16 0
1.926 0.34599999 0.977 150 16 0
1.92 0.345 0.98000002 150 16 0
1.9119999 0.34400001 0.98100001 150 16 0
1.904 0.34299999 0.98400003 150 16 0
1.895 0.34200001 0.98500001 150 16 0
1.893 0.34200001 0.99000001 150 16 0
1.8890001 0.34099999 0.99400002 150 16 0
1.8789999 0.34 0.995 150 16 0
1.872 0.33899999 0.99699998 150 16 0
1.87 0.33899999 1.002 150 16 0
1.8660001 0.338 1.005 150 16 0
1.852 0.336 1.0039999 150 16 0
1.85 0.33500001 1.008 150 16 0
1.8380001 0.333 1.007 150 16 0
1.834 0.33199999 1.011 150 16 0
1.829 0.331 1.0140001 150 16 0
1.825 0.33000001 1.017 150 16 0
1.819 0.329 1.0190001 150 16 0
1.8150001 0.32800001 1.022 150 16 0
1.806 0.32699999 1.023 150 16 0
1.804 0.32600001 1.027 150 16 0
1.798 0.324 1.028 150 16 0
1.794 0.32300001 1.031 150 16 0
1.7869999 0.322 1.033 150 16 0
1.784 0.32100001 1.036 150 16 0
1.775 0.31900001 1.036 150 16 0
1.777 0.31900001 1.0420001 150 16 0
1.7640001 0.31600001 1.04 150 19 0
1.765 0.31600001 1.045 150 16 0
1.756 0.31299999 1.045 150 16 0
1.7539999 0.31200001 1.048 150 16 0
1.737 0.30899999 1.043 150 18 0
1.735 0.308 1.046 150 16 0
1.7309999 0.30599999 1.049 150 16 0
1.727 0.30500001 1.051 150 16 0
1.723 0.303 1.053 150 16 0
1.722 0.30199999 1.056 150 16 0
1.72 0.301 1.059 150 16 0
1.716 0.30000001 1.062 150 16 0
1.715 0.29800001 1.0650001 150 16 0
1.706 0.296 1.064 150 16 0
1.7 0.294 1.064 150 16 0
1.699 0.29300001 1.067 150 16 0
1.697 0.29100001 1.0700001 150 16 0
1.6950001 0.28999999 1.073 150 16 0
1.6900001 0.28799999 1.074 150 16 0
1.686 0.28600001 1.075 150 16 0
1.678 0.28299999 1.074 150 16 0
1.679 0.28299999 1.0779999 150 16 0
1.678 0.28099999 1.081 150 16 0
1.674 0.27900001 1.082 150 16 0
1.668 0.27700001 1.082 150 16 0
1.663 0.27500001 1.082 150 16 0
1.66 0.273 1.0829999 150 16 0
1.659 0.271 1.086 150 16 0
1.654 0.26899999 1.085 150 16 0
1.654 0.26699999 1.089 150 16 0
1.651 0.26499999 1.09 150 16 0
1.648 0.26300001 1.09 150 16 0
1.6440001 0.26100001 1.091 150 16 0
1.643 0.259 1.0930001 150 16 0
1.642 0.25799999 1.095 150 16 0
1.641 0.25600001 1.097 150 16 0
1.635 0.25299999 1.095 150 16 0
1.637 0.252 1.099 150 16 0
1.636 0.25 1.101 150 16 0
1.63 0.24699999 1.099 150 16 0
1.631 0.24600001 1.102 150 16 0
1.627 0.243 1.102 150 16 0
1.626 0.241 1.103 150 16 0
1.62 0.23800001 1.101 150 16 0
1.618 0.236 1.101 150 16 0
1.6160001 0.234 1.102 150 16 0
1.614 0.23199999 1.102 150 16 0
1.615 0.23 1.105 150 16 0
1.609 0.227 1.102 150 19 0
1.613 0.226 1.1059999 150 16 0
1.608 0.223 1.104 150 16 0
1.61 0.221 1.107 150 16 0
1.607 0.219 1.1059999 150 16 0
1.607 0.21699999 1.107 150 16 0
1.605 0.214 1.107 150 16 0
1.6059999 0.212 1.109 150 16 0
1.604 0.20999999 1.108 150 16 0
1.604 0.208 1.109 150 16 0
1.602 0.205 1.108 150 16 0
1.602 0.20299999 1.109 150 16 0
1.602 0.20100001 1.109 150 16 0
1.601 0.199 1.109 150 16 0
1.604 0.197 1.1109999 150 16 0
1.602 0.19400001 1.11 150 16 0
1.601 0.192 1.11 150 16 0
1.601 0.19 1.11 150 16 0
1.6 0.18700001 1.109 150 16 0
1.601 0.185 1.11 150 16 0
1.599 0.182 1.108 150 16 0
1.604 0.18099999 1.1109999 150 16 0
1.602 0.178 1.11 150 16 0
1.603 0.176 1.11 150 16 0
1.603 0.17399999 1.109 150 16 0
1.601 0.171 1.107 150 16 0
1.604 0.169 1.109 150 16 0
1.605 0.167 1.108 150 16 0
1.605 0.164 1.108 150 16 0
1.607 0.162 1.108 150 16 0
1.608 0.16 1.108 150 16 0
1.609 0.15700001 1.107 150 16 0
1.61 0.155 1.1059999 150 16 0
1.61 0.153 1.1059999 150 16 0
1.614 0.15099999 1.107 150 16 0
1.615 0.148 1.1059999 150 16 0
1.6160001 0.146 1.105 150 16 0
1.615 0.14300001 1.103 150 16 0
1.617 0.141 1.102 150 16 0
1.619 0.139 1.102 150 16 0
1.6210001 0.13600001 1.101 150 16 0
1.6210001 0.134 1.099 150 16 0
1.625 0.132 1.1 150 16 0
1.623 0.12899999 1.097 150 16 0
1.624 0.127 1.095 150 16 0
1.63 0.125 1.097 150 16 0
1.633 0.123 1.097 150 16 0
1.635 0.121 1.095 150 16 0
1.636 0.118 1.0930001 150 16 0
1.646 0.117 1.097 150 19 0
1.6390001 0.114 1.09 150 16 0
1.65 0.112 1.095 150 16 0
1.655 0.11 1.095 150 16 0
1.6569999 0.108 1.094 150 16 0
1.658 0.105 1.091 150 16 0
1.66 0.103 1.09 150 16 0
1.6619999 0.101 1.087 150 16 0
1.6619999 0.097999997 1.085 150 16 0
1.6670001 0.096000001 1.085 150 16 0
1.669 0.093999997 1.082 150 16 0
1.6720001 0.092 1.081 150 16 0
1.674 0.090000004 1.079 150 16 0
1.676 0.088 1.077 150 16 0
1.681 0.086000003 1.076 150 16 0
1.686 0.083999999 1.075 150 16 0
1.688 0.081 1.073 150 16 0
1.691 0.079000004 1.071 150 16 0
1.694 0.077 1.069 150 16 0
1.7 0.075000003 1.069 150 16 0
1.706 0.072999999 1.069 150 16 0
1.707 0.071000002 1.0650001 150 16 0
1.712 0.068999998 1.064 150 16 0
1.715 0.067000002 1.062 150 16 0
1.722 0.064999998 1.062 150 16 0
1.724 0.063000001 1.059 150 16 0
1.733 0.061000001 1.0599999 150 16 0
1.734 0.059 1.056 150 16 0
1.737 0.057 1.053 150 16 0
1.743 0.055 1.053 150 16 0
1.748 0.052999999 1.051 150 16 0
1.75 0.050999999 1.0470001 150 16 0
1.756 0.048999999 1.046 150 16 0
1.7589999 0.046999998 1.043 150 16 0
1.761 0.045000002 1.039 150 16 0
1.765 0.043000001 1.0369999 150 16 0
1.7690001 0.041999999 1.034 150 16 0
1.773 0.039999999 1.031 150 16 0
1.79 0.037999999 1.036 150 19 0
1.7920001 0.035999998 1.0319999 150 16 0
1.8 0.034000002 1.0319999 150 16 0
1.803 0.033 1.028 150 16 0
1.8099999 0.030999999 1.027 150 16 0
1.818 0.028999999 1.026 150 16 0
1.823 0.027000001 1.024 150 16 0
1.8279999 0.026000001 1.021 150 16 0
1.835 0.024 1.0190001 150 16 0
1.839 0.022 1.016 150 16 0
1.844 0.02 1.013 150 16 0
1.851 0.018999999 1.011 150 16 0
1.858 0.017000001 1.0089999 150 16 0
1.864 0.015 1.007 150 16 0
1.868 0.014 1.003 150 16 0
1.877 0.012 1.002 150 16 0
1.881 0.011 0.99800003 150 16 0
1.887 0.0089999996 0.995 150 16 0
1.895 0.0070000002 0.99400002 150 16 0
1.905 0.0060000001 0.99299997 150 16 0
1.909 0.0040000002 0.98900002 150 16 0
1.914 0.003 0.986 150 16 0
1.9220001 0.001 0.98400003 150 16 0
1.928 0 0.98100001 150 16 0
1.937 -0.001 0.97899997 150 16 0
1.941 -0.0020000001 0.97399998 150 16 0
1.947 -0.0040000002 0.97100002 150 16 0
1.956 -0.0049999999 0.96899998 150 16 0
1.962 -0.0070000002 0.96600002 150 16 0
1.969 -0.0080000004 0.963 150 16 0
1.98 -0.0089999996 0.96200001 150 16 0
1.984 -0.011 0.95700002 150 16 0
1.994 -0.012 0.95599997 150 16 0
1.999 -0.013 0.95099998 150 16 0
2.0020001 -0.015 0.94599998 149 16 0
2.0090001 -0.016000001 0.94300002 150 16 0
2.023 -0.017000001 0.94300002 150 16 0
2.033 -0.018999999 0.94 141 16 0
2.0420001 -0.02 0.93800002 144 16 0
2.05 -0.021 0.935 143 16 0
2.056 -0.023 0.93099999 150 16 0
2.0639999 -0.024 0.92699999 145 16 0
2.0739999 -0.025 0.92500001 143 16 0
2.0810001 -0.026000001 0.921 139 16 0
2.086 -0.027000001 0.91600001 130 16 0
2.0940001 -0.028000001 0.912 140 16 0
2.1040001 -0.028999999 0.91000003 127 16 0
2.115 -0.030999999 0.90700001 133 16 0
2.1199999 -0.032000002 0.90200001 140 16 0
2.1270001 -0.033 0.898 123 16 0
2.1389999 -0.034000002 0.89600003 123 16 0
2.1440001 -0.035 0.89099997 125 16 0
2.1570001 -0.035999998 0.889 135 16 0
2.1619999 -0.037 0.884 121 16 0
2.1700001 -0.037999999 0.87900001 125 16 0
2.175 -0.039000001 0.87400001 124 16 0
2.1849999 -0.039999999 0.87099999 116 16 0
2.1989999 -0.041000001 0.86900002 119 16 0
2.204 -0.041999999 0.86299998 116 16 0
2.2179999 -0.043000001 0.861 124 16 0
2.227 -0.044 0.85699999 121 16 0
2.234 -0.044 0.852 110 16 0
2.24 -0.045000002 0.847 104 16 0
2.253 -0.046 0.84399998 124 16 0
2.2620001 -0.046999998 0.83999997 129 16 0
2.2739999 -0.048 0.83700001 111 16 0
2.2809999 -0.048999999 0.83200002 117 16 0
2.289 -0.048999999 0.82700002 122 16 0
2.299 -0.050000001 0.82300001 105 16 0
2.316 -0.050999999 0.82099998 123 16 0
2.3269999 -0.052000001 0.81699997 103 16 0
2.332 -0.052000001 0.81099999 102 16 0
2.342 -0.052999999 0.80599999 105 16 0
2.3529999 -0.054000001 0.80199999 115 16 0
2.365 -0.054000001 0.79799998 121 16 0
2.372 -0.055 0.792 119 16 0
2.3840001 -0.055 0.78799999 117 16 0
2.388 -0.056000002 0.78200001 109 16 0
2.401 -0.056000002 0.778 110 16 0
2.4130001 -0.057 0.773 119 16 0
2.415 -0.057 0.76599997 121 16 0
2.4289999 -0.057999998 0.76200002 130 16 0
2.438 -0.057999998 0.75700003 114 16 0
2.4519999 -0.059 0.75300002 106 16 0
2.46 -0.059 0.74699998 118 16 0
2.473 -0.059999999 0.74199998 124 16 0
2.4809999 -0.059999999 0.736 102 16 0
2.4920001 -0.061000001 0.73100001 74 16 0
2.5109999 -0.061000001 0.72799999 65 16 0
2.516 -0.061000001 0.72100002 68 16 0
2.5339999 -0.061999999 0.71799999 57 16 0
2.5420001 -0.061999999 0.71200001 65 16 0
2.556 -0.061999999 0.70700002 64 16 0
2.5669999 -0.063000001 0.70099998 53 16 0
2.579 -0.063000001 0.69599998 56 16 0
2.5910001 -0.063000001 0.69099998 49 16 0
2.605 -0.063000001 0.685 50 16 0
2.622 -0.064000003 0.68099999 48 16 0
2.6329999 -0.064000003 0.67500001 37 16 0
2.6470001 -0.064000003 0.67000002 41 16 0
2.661 -0.064000003 0.66399997 38 16 0
2.6670001 -0.064000003 0.65700001 38 16 0
2.684 -0.064000003 0.65200001 40 16 0
2.6919999 -0.064000003 0.64499998 44 16 0
2.7060001 -0.064999998 0.63999999 33 16 0
2.721 -0.064999998 0.634 33 16 0
2.7349999 -0.064999998 0.62800002 33 16 0
2.7460001 -0.064999998 0.62199998 32 16 0
2.763 -0.064999998 0.616 34 16 0
2.7750001 -0.064999998 0.61000001 31 16 0
2.7880001 -0.064999998 0.60299999 31 16 0
2.803 -0.064000003 0.597 32 16 0
2.8169999 -0.064000003 0.59100002 28 16 0
2.8310001 -0.064000003 0.58399999 24 16 0
2.846 -0.064000003 0.57800001 28 16 0
2.859 -0.064000003 0.57099998 31 16 0
2.878 -0.064000003 0.565 31 16 0
2.8900001 -0.064000003 0.55800003 32 16 0
2.9059999 -0.063000001 0.55199999 32 16 0
2.9189999 -0.063000001 0.54500002 30 16 0
2.938 -0.063000001 0.53899997 30 16 0
2.948 -0.061999999 0.53100002 31 16 0
2.9690001 -0.061999999 0.52499998 30 16 0
2.9849999 -0.061999999 0.51800001 31 16 0
3 -0.061999999 0.50999999 31 16 0
3.0109999 -0.061000001 0.50199997 30 16 0
3.029 -0.061000001 0.495 32 16 0
3.046 -0.059999999 0.48800001 30 16 0
3.0610001 -0.059999999 0.48100001 30 16 0
3.0799999 -0.059 0.47400001 30 16 0
3.0999999 -0.059 0.46599999 30 16 0
3.1170001 -0.057999998 0.45899999 31 16 0
3.138 -0.057999998 0.45100001 28 16 0
3.158 -0.057 0.44400001 28 16 0
3.175 -0.057 0.43599999 28 16 0
3.194 -0.056000002 0.42899999 29 16 0
3.2090001 -0.055 0.41999999 29 16 0
3.2290001 -0.055 0.412 28 16 0
3.2479999 -0.054000001 0.40400001 29 16 0
3.2690001 -0.052999999 0.396 29 16 0
3.2850001 -0.052000001 0.38699999 28 16 0
3.306 -0.052000001 0.37900001 29 16 0
3.3210001 -0.050999999 0.37 29 16 0
3.3440001 -0.050000001 0.36199999 28 16 0
3.3629999 -0.048999999 0.35299999 28 16 0
3.3870001 -0.048 0.34400001 30 16 0
3.401 -0.046999998 0.33500001 55 16 0
3.404 -0.046 0.324 99 16 0
3.3989999 -0.045000002 0.31299999 66 16 0
3.392 -0.043000001 0.301 64 16 0
3.382 -0.041999999 0.289 70 16 0
3.3789999 -0.039999999 0.278 62 16 0
3.3710001 -0.039000001 0.266 65 16 0
3.365 -0.037 0.255 74 16 0
3.362 -0.035999998 0.244 71 16 0
3.3540001 -0.034000002 0.233 67 16 0
3.3499999 -0.033 0.222 70 16 0
3.3429999 -0.032000002 0.20999999 71 16 0
3.336 -0.029999999 0.199 70 16 0
3.335 -0.028999999 0.18799999 71 16 0
3.3239999 -0.027000001 0.177 83 16 0
3.3210001 -0.025 0.16599999 92 16 0
3.3080001 -0.024 0.155 79 16 0
3.3050001 -0.022 0.14399999 83 16 0
3.303 -0.021 0.134 115 16 0
3.2969999 -0.018999999 0.123 92 16 0
3.2939999 -0.017000001 0.112 59 16 0
3.2880001 -0.016000001 0.101 35 16 0
3.283 -0.014 0.090999998 27 16 0
3.2839999 -0.013 0.079999998 23 16 0
3.2820001 -0.011 0.068999998 20 16 0
3.2820001 -0.0089999996 0.059 18 16 0
3.2809999 -0.0080000004 0.048999999 16 16 0
3.279 -0.0060000001 0.037999999 16 16 0
3.2809999 -0.0040000002 0.028000001 16 16 0
3.2839999 -0.0020000001 0.017000001 16 16 0
3.279 -0.001 0.0070000002 16 16 0
3.279 0 -0.003 16 16 0
3.2809999 0.0020000001 -0.013 17 16 0
3.2780001 0.0040000002 -0.024 17 16 0
3.2780001 0.0049999999 -0.034000002 17 16 0
3.2809999 0.0070000002 -0.045000002 17 16 0
3.279 0.0089999996 -0.055 17 16 0
3.2850001 0.011 -0.066 17 16 0
3.2820001 0.013 -0.075999998 18 16 0
3.276 0.015 -0.086000003 19 16 0
3.283 0.017000001 -0.097000003 22 16 0
3.283 0.018999999 -0.107 26 16 0
3.277 0.021 -0.118 31 16 0
3.2739999 0.023 -0.12800001 40 16 0
3.2720001 0.025 -0.139 45 16 0
3.2609999 0.027000001 -0.148 48 16 0
3.253 0.028999999 -0.15800001 52 16 0
3.253 0.030999999 -0.169 53 16 0
3.2449999 0.033 -0.17900001 52 16 0
3.237 0.035 -0.18799999 56 16 0
3.2309999 0.037 -0.198 74 16 0
3.227 0.039000001 -0.208 63 16 0
3.224 0.041000001 -0.219 53 16 0
3.223 0.043000001 -0.229 51 16 0
3.2130001 0.045000002 -0.23800001 43 16 0
3.21 0.046999998 -0.248 39 16 0
3.207 0.048999999 -0.25799999 40 16 0
3.1989999 0.050999999 -0.26800001 41 16 0
3.1930001 0.052999999 -0.27700001 41 16 0
3.1889999 0.055 -0.287 43 16 0
3.181 0.057999998 -0.29699999 46 16 0
3.174 0.059999999 -0.30599999 52 16 0
3.1670001 0.061999999 -0.315 52 16 0
3.1600001 0.064000003 -0.32499999 53 16 0
3.1559999 0.066 -0.33399999 50 16 0
3.1530001 0.068000004 -0.34400001 63 16 0
3.1470001 0.071000002 -0.35299999 63 16 0
3.1470001 0.072999999 -0.36300001 66 16 0
3.1329999 0.075000003 -0.37200001 49 16 0
3.1259999 0.077 -0.38100001 49 16 0
3.1240001 0.079999998 -0.391 55 16 0
3.115 0.082000002 -0.39899999 49 16 0
3.1140001 0.083999999 -0.40900001 54 16 0
3.1029999 0.086000003 -0.41800001 53 16 0
3.1010001 0.089000002 -0.42699999 58 16 0
3.098 0.090999998 -0.43700001 51 16 0
3.0940001 0.093000002 -0.44600001 55 16 0
3.0869999 0.096000001 -0.45500001 65 16 0
3.0799999 0.097999997 -0.463 77 16 0
3.0769999 0.1 -0.47299999 91 16 0
3.069 0.103 -0.48100001 83 16 0
3.062 0.105 -0.49000001 94 16 0
3.063 0.108 -0.5 85 16 0
3.0539999 0.11 -0.50800002 86 16 0
3.0439999 0.112 -0.51599997 82 16 0
3.04 0.115 -0.52499998 88 16 0
3.039 0.117 -0.53399998 92 16 0
3.0309999 0.12 -0.54299998 91 16 0
3.029 0.122 -0.55199999 87 16 0
3.023 0.125 -0.56099999 75 16 0
3.0150001 0.127 -0.56900001 85 16 0
3.0139999 0.13 -0.57800001 89 16 0
3.0090001 0.132 -0.58700001 91 16 0
3.0039999 0.13500001 -0.59500003 93 16 0
2.9979999 0.138 -0.60399997 88 16 0
2.9909999 0.14 -0.61199999 89 16 0
2.9860001 0.14300001 -0.62 73 16 0
2.98 0.145 -0.62800002 74 16 0
2.9749999 0.148 -0.63700002 80 16 0
2.973 0.15099999 -0.64600003 91 16 0
2.97 0.153 -0.65499997 77 16 0
2.964 0.156 -0.66299999 106 16 0
2.951 0.15800001 -0.66900003 100 16 0
2.948 0.161 -0.67799997 113 16 0
2.95 0.164 -0.68800002 109 16 0
2.9389999 0.16599999 -0.69400001 109 16 0
2.9330001 0.169 -0.70200002 109 16 0
2.9319999 0.17200001 -0.71100003 115 16 0
2.925 0.175 -0.71899998 103 16 0
2.9230001 0.178 -0.72799999 107 16 0
2.9159999 0.18000001 -0.73500001 123 16 0
2.9119999 0.183 -0.74400002 108 16 0
2.9070001 0.186 -0.75199997 119 16 0
2.904 0.189 -0.75999999 118 16 0
2.892 0.191 -0.76599997 113 16 0
2.8900001 0.19400001 -0.77499998 133 16 0
2.888 0.197 -0.78299999 126 16 0
2.8789999 0.2 -0.79000002 137 16 0
2.8659999 0.20200001 -0.796 129 16 0
2.858 0.205 -0.80199999 139 16 0
2.8599999 0.208 -0.81199998 127 16 0
2.8570001 0.212 -0.81999999 120 16 0
2.8559999 0.215 -0.829 127 16 0
2.845 0.21699999 -0.83499998 150 16 0
2.839 0.22 -0.84200001 150 16 0
2.836 0.223 -0.85000002 150 16 0
2.832 0.226 -0.85799998 149 16 0
2.8269999 0.229 -0.86500001 150 16 0
2.819 0.23199999 -0.87199998 150 16 0
2.8150001 0.235 -0.87900001 135 16 0
2.813 0.23800001 -0.88800001 150 16 0
2.8099999 0.242 -0.89600003 150 16 0
2.8050001 0.245 -0.903 147 16 0
2.799 0.248 -0.91000003 148 16 0
2.7909999 0.25099999 -0.91600001 150 16 0
2.7880001 0.25400001 -0.92400002 150 16 0
2.78 0.257 -0.93000001 150 16 0
2.777 0.25999999 -0.93800002 150 16 0
2.773 0.264 -0.94499999 150 16 0
2.77 0.26699999 -0.95300001 141 16 0
2.7620001 0.27000001 -0.95899999 150 16 0
2.7620001 0.273 -0.96700001 135 16 0
2.7639999 0.27700001 -0.97600001 27 16 0
2.766 0.28099999 -0.986 19 16 0
0 0 0 0 16 0
3.069 0.32100001 -1.113 0 17 0
0 0 0 0 16 0
0 0 0 0 16 0
3.1240001 0.34 -1.1619999 0 16 0
3.0940001 0.34099999 -1.161 0 16 0
3.1199999 0.34799999 -1.1799999 0 16 0
3.1129999 0.352 -1.187 0 16 0
3.1489999 0.361 -1.211 0 18 0
4.1290002 0.479 -1.6 0 17 0
2.697 0.317 -1.053 37 17 0
2.7019999 0.32100001 -1.063 72 16 0
2.691 0.324 -1.067 138 16 0
2.688 0.32800001 -1.074 149 16 0
2.677 0.33000001 -1.0779999 150 16 0
2.6700001 0.33399999 -1.0829999 150 16 0
2.6659999 0.33700001 -1.09 150 16 0
2.6630001 0.34099999 -1.097 150 16 0
2.6530001 0.34400001 -1.101 150 16 0
2.651 0.34799999 -1.108 150 16 0
2.6489999 0.352 -1.115 150 16 0
2.6389999 0.354 -1.119 146 16 0
2.6359999 0.35800001 -1.125 150 16 0
2.6329999 0.36199999 -1.132 150 16 0
2.6270001 0.366 -1.137 150 16 0
2.6229999 0.36899999 -1.143 149 16 0
2.6199999 0.373 -1.15 150 16 0
2.619 0.377 -1.1569999 150 16 0
2.6110001 0.38100001 -1.161 150 16 0
2.608 0.384 -1.1670001 150 16 0
2.6029999 0.38800001 -1.173 150 16 0
2.5999999 0.39199999 -1.179 150 16 0
2.595 0.396 -1.184 150 16 0
2.582 0.398 -1.186 150 16 0
2.5880001 0.40400001 -1.196 150 16 0
2.5799999 0.40700001 -1.2 150 16 0
2.572 0.41 -1.2029999 150 16 0
2.573 0.41499999 -1.211 150 16 0
2.566 0.41800001 -1.215 150 16 0
2.5650001 0.42199999 -1.222 150 16 0
2.559 0.426 -1.226 150 16 0
2.5539999 0.43000001 -1.2309999 150 16 0
2.55 0.43399999 -1.2359999 150 16 0
2.5469999 0.43799999 -1.2410001 150 16 0
2.5439999 0.442 -1.247 150 16 0
2.5409999 0.44600001 -1.252 150 16 0
2.5369999 0.44999999 -1.257 150 16 0
2.5339999 0.454 -1.263 150 16 0
2.526 0.45699999 -1.265 150 16 0
2.529 0.463 -1.274 150 16 0
2.517 0.465 -1.274 150 16 0
2.5139999 0.46900001 -1.279 150 16 0
2.5090001 0.47299999 -1.283 150 16 0
2.506 0.477 -1.288 150 16 0
2.5009999 0.48100001 -1.2920001 150 16 0
2.4990001 0.48500001 -1.2970001 150 16 0
2.4949999 0.48899999 -1.302 150 16 0
2.487 0.49200001 -1.303 150 16 0
2.487 0.49700001 -1.3099999 150 16 0
2.48 0.50099999 -1.312 150 16 0
2.477 0.505 -1.317 150 16 0
2.474 0.509 -1.321 150 16 0
2.467 0.51300001 -1.323 150 16 0
2.4619999 0.51599997 -1.326 150 16 0
2.4579999 0.51999998 -1.33 150 16 0
2.4549999 0.52499998 -1.334 150 16 0
2.4519999 0.52899998 -1.3380001 150 16 0
2.4489999 0.53299999 -1.342 150 16 0
2.4460001 0.537 -1.346 150 16 0
2.441 0.54100001 -1.348 150 16 0
2.4389999 0.54500002 -1.353 150 16 0
2.4349999 0.54900002 -1.3559999 150 16 0
2.4330001 0.55400002 -1.36 150 16 0
2.4289999 0.55800003 -1.363 150 16 0
2.4289999 0.56199998 -1.367 150 16 0
2.4230001 0.56599998 -1.369 150 16 0
2.4200001 0.56999999 -1.373 150 16 0
2.411 0.57300001 -1.372 150 16 0
2.4089999 0.57700002 -1.375 146 16 0
2.4089999 0.58200002 -1.38 150 16 0
2.4030001 0.58600003 -1.381 150 16 0
2.4030001 0.59100002 -1.386 150 16 0
2.398 0.59399998 -1.387 150 16 0
2.3940001 0.59799999 -1.3890001 147 16 0
2.392 0.602 -1.392 147 16 0
2.3900001 0.60600001 -1.395 145 16 0
2.388 0.611 -1.398 150 16 0
2.3840001 0.61500001 -1.4 135 16 0
2.382 0.61900002 -1.402 144 16 0
2.3789999 0.62300003 -1.404 145 16 0
2.375 0.62699997 -1.406 146 16 0
2.3729999 0.63099998 -1.408 146 16 0
2.3710001 0.63499999 -1.41 148 16 0
2.365 0.63800001 -1.41 138 16 0
2.3659999 0.64300001 -1.414 147 16 0
2.3640001 0.64700001 -1.415 147 16 0
2.358 0.64999998 -1.415 150 16 0
2.3559999 0.65399998 -1.4170001 148 16 0
2.3559999 0.65899998 -1.42 150 16 0
2.3529999 0.662 -1.421 136 16 0
2.3499999 0.66600001 -1.421 150 16 0
2.3469999 0.67000002 -1.4220001 150 16 0
2.342 0.67299998 -1.4220001 150 16 0
2.339 0.676 -1.4220001 150 16 0
2.3369999 0.68000001 -1.423 150 16 0
2.3369999 0.685 -1.425 150 16 0
2.3329999 0.68800002 -1.425 150 16 0
2.332 0.69199997 -1.426 150 16 0
2.3299999 0.69599998 -1.427 150 16 0
2.326 0.699 -1.426 150 16 0
2.3269999 0.70300001 -1.428 150 16 0
2.316 0.704 -1.4220001 150 19 0
2.3199999 0.70999998 -1.426 150 16 0
2.316 0.71200001 -1.425 150 16 0
2.3210001 0.71799999 -1.4299999 150 16 0
2.316 0.72100002 -1.427 150 16 0
2.313 0.72399998 -1.426 150 16 0
2.3110001 0.727 -1.426 150 16 0
2.3069999 0.73000002 -1.424 150 16 0
2.306 0.73299998 -1.424 150 16 0
2.303 0.736 -1.423 150 16 0
2.3039999 0.74000001 -1.423 150 16 0
2.3010001 0.74299997 -1.4220001 150 16 0
2.2980001 0.74599999 -1.42 150 16 0
2.299 0.75 -1.421 150 16 0
2.2980001 0.75300002 -1.42 150 16 0
2.296 0.75599998 -1.419 150 16 0
2.2939999 0.759 -1.4170001 150 16 0
2.2939999 0.76200002 -1.416 150 16 0
2.2920001 0.76499999 -1.415 150 16 0
2.2920001 0.76800001 -1.414 150 16 0
2.2909999 0.77100003 -1.413 150 16 0
2.2909999 0.77399999 -1.4119999 150 16 0
2.2909999 0.77700001 -1.411 150 16 0
2.289 0.77899998 -1.408 150 16 0
2.2880001 0.78200001 -1.4069999 150 16 0
2.2880001 0.78500003 -1.405 150 16 0
2.2880001 0.78799999 -1.404 150 16 0
2.2880001 0.79100001 -1.402 150 16 0
2.286 0.79299998 -1.399 150 16 0
2.286 0.796 -1.398 150 16 0
2.286 0.79799998 -1.395 150 16 0
2.286 0.801 -1.393 150 16 0
2.2869999 0.80400002 -1.392 150 16 0
2.2820001 0.80400002 -1.387 150 16 0
2.283 0.80699998 -1.385 150 16 0
2.2880001 0.81099999 -1.386 150 16 0
2.289 0.81400001 -1.383 150 16 0
2.2839999 0.81400001 -1.378 150 16 0
2.2850001 0.81699997 -1.376 150 16 0
2.2850001 0.81900001 -1.373 150 16 0
2.286 0.82099998 -1.3710001 150 16 0
2.28 0.82099998 -1.364 150 16 0
2.2809999 0.82300001 -1.362 150 16 0
2.289 0.82700002 -1.363 150 16 0
2.2809999 0.82599998 -1.355 150 16 0
2.2820001 0.82800001 -1.352 150 16 0
2.2850001 0.83099997 -1.35 150 16 0
2.286 0.833 -1.347 150 16 0
2.2869999 0.83399999 -1.344 150 16 0
2.289 0.83600003 -1.341 150 16 0
2.2869999 0.83700001 -1.336 150 16 0
2.2880001 0.838 -1.3329999 150 16 0
2.289 0.83999997 -1.329 150 16 0
2.2909999 0.84100002 -1.326 150 16 0
2.293 0.84299999 -1.323 150 16 0
2.2939999 0.84399998 -1.319 150 16 0
2.2950001 0.84600002 -1.3150001 150 16 0
2.2950001 0.84600002 -1.311 150 16 0
2.2969999 0.847 -1.307 150 16 0
2.2980001 0.84799999 -1.303 150 16 0
2.3 0.85000002 -1.3 150 16 0
2.3010001 0.85100001 -1.295 150 16 0
2.3039999 0.852 -1.2920001 150 16 0
2.3050001 0.85299999 -1.2869999 150 16 0
2.3069999 0.85399997 -1.284 150 16 0
2.309 0.85399997 -1.28 150 16 0
2.3080001 0.85399997 -1.274 150 16 0
2.3099999 0.85500002 -1.27 150 16 0
2.316 0.85699999 -1.267 150 16 0
2.3139999 0.85600001 -1.261 150 16 0
2.3199999 0.85799998 -1.2589999 150 16 0
2.322 0.85799998 -1.2539999 150 16 0
2.3239999 0.85900003 -1.25 150 16 0
2.326 0.85900003 -1.245 150 16 0
2.325 0.85799998 -1.239 150 16 0
2.3299999 0.85900003 -1.2359999 150 16 0
2.3340001 0.86000001 -1.232 150 16 0
2.3340001 0.85900003 -1.226 150 16 0
2.3380001 0.86000001 -1.222 150 16 0
2.339 0.86000001 -1.217 150 16 0
2.339 0.85900003 -1.21 150 16 0
2.3440001 0.85900003 -1.207 150 16 0
2.349 0.86000001 -1.2029999 150 16 0
2.3469999 0.85799998 -1.196 150 16 0
2.3499999 0.85799998 -1.191 150 16 0
2.352 0.85699999 -1.186 150 16 0
2.3570001 0.85799998 -1.182 150 16 0
2.358 0.85699999 -1.176 150 16 0
2.3599999 0.85600001 -1.171 150 16 0
2.365 0.85600001 -1.166 150 16 0
2.3659999 0.85500002 -1.16 150 16 0
2.369 0.85399997 -1.155 150 16 0
2.3729999 0.85399997 -1.151 150 16 0
2.3740001 0.852 -1.1440001 150 16 0
2.3789999 0.852 -1.14 150 16 0
2.382 0.85100001 -1.135 150 16 0
2.3829999 0.85000002 -1.128 150 16 0
2.3889999 0.85000002 -1.125 150 16 0
2.391 0.84799999 -1.118 150 16 0
2.392 0.84600002 -1.112 150 16 0
2.398 0.84600002 -1.108 150 16 0
2.401 0.84500003 -1.102 150 16 0
2.3989999 0.84200001 -1.094 150 16 0
2.408 0.84200001 -1.091 150 16 0
2.4100001 0.83999997 -1.085 150 16 0
2.4119999 0.83899999 -1.079 150 16 0
2.4170001 0.838 -1.074 150 16 0
2.4170001 0.83499998 -1.067 150 16 0
2.421 0.83399999 -1.062 150 16 0
2.427 0.833 -1.057 150 16 0
2.4300001 0.83099997 -1.052 150 16 0
2.4319999 0.829 -1.045 150 16 0
2.4360001 0.82700002 -1.04 150 16 0
2.4400001 0.82499999 -1.034 150 16 0
2.4430001 0.82300001 -1.028 150 16 0
2.4460001 0.82099998 -1.022 150 16 0
2.45 0.81999999 -1.016 150 16 0
2.4530001 0.81699997 -1.01 150 16 0
2.4560001 0.815 -1.0039999 150 16 0
2.46 0.81300002 -0.99900001 150 16 0
2.4649999 0.81099999 -0.99299997 150 16 0
2.473 0.81 -0.98900002 150 16 0
2.4749999 0.80699998 -0.98199999 150 16 0
2.4820001 0.80599999 -0.97799999 87 16 0
2.4820001 0.80299997 -0.97100002 5 16 0
2.546 0.81999999 -0.98799998 0 17 0
2.5599999 0.81999999 -0.986 0 16 0
2.566 0.81800002 -0.98100001 0 16 0
2.5699999 0.81599998 -0.97500002 0 16 0
2.4319999 0.76800001 -0.91500002 2 17 0
2.437 0.76599997 -0.91000003 6 16 0
2.4489999 0.76599997 -0.90700001 8 16 0
2.4560001 0.764 -0.90200001 1 16 0
2.599 0.80500001 -0.94700003 0 17 0
2.5969999 0.80000001 -0.93900001 0 16 0
2.6159999 0.80199999 -0.93800002 0 16 0
2.572 0.78399998 -0.91399997 0 16 0
2.5450001 0.77100003 -0.89700001 11 16 0
2.5409999 0.76599997 -0.88800001 119 16 0
2.5420001 0.76200002 -0.88099998 150 16 0
2.5450001 0.759 -0.875 150 16 0
2.546 0.755 -0.86799997 150 16 0
2.552 0.75199997 -0.86299998 150 16 0
2.556 0.74900001 -0.85600001 150 16 0
2.559 0.745 -0.85000002 150 16 0
2.562 0.74199998 -0.84299999 150 16 0
2.566 0.73799998 -0.83700001 150 16 0
2.569 0.73500001 -0.83099997 150 16 0
2.572 0.73100001 -0.824 150 16 0
2.5869999 0.73000002 -0.82200003 150 16 0
2.5910001 0.727 -0.815 150 16 0
2.592 0.722 -0.80800003 150 16 0
2.5969999 0.71899998 -0.80199999 150 16 0
2.6040001 0.71600002 -0.79699999 150 16 0
2.609 0.713 -0.79100001 150 16 0
2.612 0.70899999 -0.78399998 150 16 0
2.6170001 0.70499998 -0.778 150 16 0
2.6210001 0.70099998 -0.77200001 150 16 0
2.6240001 0.69700003 -0.76599997 150 16 0
2.6270001 0.69300002 -0.759 150 16 0
2.6370001 0.69 -0.75400001 150 16 0
2.6400001 0.68599999 -0.74800003 150 16 0
2.6429999 0.68199998 -0.741 150 16 0
2.651 0.67900002 -0.736 150 16 0
2.654 0.67400002 -0.72899997 150 16 0
2.6559999 0.67000002 -0.72299999 150 16 0
2.6600001 0.66600001 -0.71600002 150 16 0
2.6719999 0.66299999 -0.71200001 150 16 0
2.6719999 0.65799999 -0.70499998 150 16 0
2.677 0.65399998 -0.699 150 16 0
2.684 0.64999998 -0.69300002 150 16 0
2.6889999 0.64600003 -0.68699998 150 16 0
2.694 0.64200002 -0.68099999 150 16 0
2.7 0.63800001 -0.67500001 150 16 0
2.7060001 0.634 -0.66900003 150 16 0
2.7090001 0.62900001 -0.662 150 16 0
2.714 0.62400001 -0.65600002 150 16 0
2.7190001 0.62 -0.64999998 150 16 0
2.7219999 0.61500001 -0.64300001 150 16 0
2.7279999 0.611 -0.63700002 150 16 0
2.7309999 0.60600001 -0.63099998 150 16 0
2.7390001 0.602 -0.625 150 16 0
2.7420001 0.597 -0.61900002 150 16 0
2.7490001 0.59299999 -0.61299998 150 16 0
2.7490001 0.58700001 -0.60600001 150 16 0
2.7620001 0.58399999 -0.60100001 150 16 0
2.766 0.579 -0.59500003 150 16 0
2.7690001 0.574 -0.588 150 16 0
2.7780001 0.56999999 -0.583 150 16 0
2.7809999 0.56400001 -0.57599998 150 16 0
2.7869999 0.56 -0.56999999 150 16 0
2.7909999 0.55500001 -0.56400001 150 16 0
2.796 0.55000001 -0.55699998 150 16 0
2.8010001 0.54500002 -0.551 150 16 0
2.809 0.54000002 -0.54500002 150 16 0
2.8139999 0.53500003 -0.53899997 150 16 0
2.819 0.52999997 -0.53299999 150 16 0
2.825 0.52499998 -0.52600002 150 16 0
2.8299999 0.51999998 -0.51999998 150 16 0
2.8369999 0.51499999 -0.514 150 16 0
2.8399999 0.509 -0.50700003 150 16 0
2.8440001 0.50400001 -0.50099999 150 16 0
2.8540001 0.49900001 -0.49599999 150 16 0
2.858 0.49399999 -0.48899999 150 16 0
2.8610001 0.48800001 -0.48199999 150 16 0
2.8670001 0.48300001 -0.47600001 150 16 0
2.8710001 0.477 -0.47 150 16 0
2.8800001 0.472 -0.46399999 150 16 0
2.882 0.46599999 -0.45699999 150 16 0
2.8889999 0.461 -0.45100001 150 16 0
2.8929999 0.45500001 -0.44400001 150 16 0
2.902 0.44999999 -0.43900001 150 16 0
2.914 0.44600001 -0.433 150 16 0
2.921 0.44 -0.42699999 150 16 0
2.9230001 0.43399999 -0.41999999 150 16 0
2.9300001 0.428 -0.414 150 16 0
2.9319999 0.42199999 -0.40700001 150 16 0
2.941 0.417 -0.40099999 150 16 0
2.947 0.41100001 -0.39500001 150 16 0
2.954 0.405 -0.389 150 16 0
2.9560001 0.39899999 -0.382 150 16 0
2.9660001 0.39399999 -0.37599999 150 16 0
2.973 0.38800001 -0.37 150 16 0
2.9760001 0.38100001 -0.36300001 150 16 0
2.98 0.375 -0.35600001 150 16 0
2.987 0.36899999 -0.34999999 150 16 0
2.997 0.36399999 -0.34400001 150 16 0
3.0009999 0.35699999 -0.338 150 16 0
3.0050001 0.35100001 -0.331 150 16 0
3.006 0.34400001 -0.324 150 16 0
3.02 0.33899999 -0.31799999 150 16 0
3.0209999 0.33199999 -0.31099999 150 16 0
3.033 0.32600001 -0.30500001 150 16 0
3.0339999 0.31900001 -0.29800001 150 16 0
3.04 0.31299999 -0.292 150 16 0
3.046 0.30700001 -0.285 150 16 0
3.0569999 0.301 -0.27900001 150 16 0
3.0580001 0.294 -0.27200001 150 16 0
3.0650001 0.287 -0.266 150 16 0
3.0699999 0.28099999 -0.259 150 16 0
3.075 0.27399999 -0.25299999 150 16 0
3.085 0.26800001 -0.24600001 150 16 0
3.092 0.26100001 -0.23999999 150 16 0
3.0969999 0.25400001 -0.233 150 16 0
3.105 0.248 -0.227 150 16 0
3.1159999 0.241 -0.221 150 16 0
3.1199999 0.234 -0.214 150 16 0
3.1259999 0.227 -0.207 144 16 0
3.135 0.221 -0.20100001 148 16 0
3.1359999 0.213 -0.19400001 150 16 0
3.145 0.207 -0.18700001 150 16 0
3.1530001 0.2 -0.18000001 147 16 0
3.1630001 0.193 -0.17399999 150 16 0
3.1670001 0.186 -0.167 137 16 0
3.1760001 0.17900001 -0.161 150 16 0
3.1800001 0.171 -0.154 148 16 0
3.1900001 0.164 -0.147 142 16 0
3.198 0.15700001 -0.14 131 16 0
3.2 0.149 -0.133 112 16 0
3.214 0.142 -0.127 122 16 0
3.217 0.13500001 -0.12 146 16 0
3.2249999 0.127 -0.113 124 16 0
3.2309999 0.12 -0.106 148 16 0
3.244 0.113 -0.1 146 16 0
3.244 0.105 -0.093000002 130 16 0
3.2550001 0.097000003 -0.086000003 133 16 0
3.2609999 0.090000004 -0.079000004 143 16 0
3.2720001 0.082000002 -0.071999997 123 16 0
3.277 0.074000001 -0.064999998 125 16 0
3.2809999 0.066 -0.057999998 88 16 0
3.29 0.059 -0.050999999 48 16 0
3.293 0.050999999 -0.044 74 16 0
3.2980001 0.043000001 -0.037 108 16 0
3.3099999 0.035 -0.029999999 111 16 0
3.3210001 0.027000001 -0.023 42 16 0
3.3099999 0.018999999 -0.016000001 22 16 0
3.2869999 0.011 -0.0089999996 19 16 0
3.279 0.0020000001 -0.0020000001 19 16 0
3.2639999 -0.0040000002 0.0040000002 18 16 0
3.2490001 -0.012 0.011 32 16 0
3.2550001 -0.02 0.017000001 150 16 0
3.263 -0.028000001 0.024 150 16 0
3.2690001 -0.037 0.030999999 150 16 0
3.277 -0.045000002 0.037999999 150 16 0
3.2850001 -0.052999999 0.045000002 150 16 0
3.2909999 -0.061000001 0.052000001 150 16 0
3.289 -0.068999998 0.059 53 16 0
3.28 -0.077 0.066 33 16 0
3.2620001 -0.085000001 0.071999997 33 16 0
3.2460001 -0.093000002 0.078000002 33 16 0
3.2309999 -0.1 0.085000001 34 16 0
3.2179999 -0.108 0.090999998 32 16 0
3.2060001 -0.116 0.097000003 32 16 0
3.1900001 -0.123 0.103 33 16 0
3.1789999 -0.131 0.109 32 16 0
3.1600001 -0.138 0.115 32 16 0
3.1470001 -0.145 0.121 32 16 0
3.132 -0.152 0.127 31 16 0
3.118 -0.16 0.133 31 16 0
3.1099999 -0.167 0.139 30 16 0
3.089 -0.17399999 0.14399999 30 16 0
3.079 -0.18099999 0.15000001 31 16 0
3.062 -0.18799999 0.155 31 16 0
3.0480001 -0.19499999 0.161 31 16 0
3.0350001 -0.20200001 0.16599999 31 16 0
3.0209999 -0.208 0.171 31 16 0
3 -0.215 0.176 31 16 0
2.993 -0.222 0.182 31 16 0
2.9790001 -0.229 0.18700001 31 16 0
2.9619999 -0.235 0.192 30 16 0
2.957 -0.242 0.197 31 16 0
2.9419999 -0.249 0.20200001 32 16 0
2.925 -0.255 0.207 32 16 0
2.911 -0.26100001 0.212 34 16 0
2.8989999 -0.26699999 0.21600001 33 16 0
2.8900001 -0.27399999 0.221 33 16 0
2.8759999 -0.28 0.226 33 16 0
2.869 -0.287 0.23100001 33 16 0
2.855 -0.29300001 0.235 32 16 0
2.8410001 -0.29899999 0.23999999 33 16 0
2.829 -0.30599999 0.244 33 16 0
2.8169999 -0.31200001 0.249 34 16 0
2.8050001 -0.31799999 0.25299999 35 16 0
2.7920001 -0.324 0.257 35 16 0
2.7809999 -0.33000001 0.26199999 37 16 0
2.77 -0.336 0.266 36 16 0
2.7590001 -0.34200001 0.27000001 38 16 0
2.7460001 -0.347 0.27399999 35 16 0
2.744 -0.35499999 0.27900001 39 16 0
2.7249999 -0.359 0.28299999 37 16 0
2.7160001 -0.36500001 0.287 38 16 0
2.7060001 -0.37099999 0.29100001 38 16 0
2.701 -0.37799999 0.296 39 16 0
2.684 -0.38299999 0.29899999 41 16 0
2.674 -0.389 0.303 46 16 0
2.6619999 -0.39399999 0.30599999 45 16 0
2.654 -0.40000001 0.31099999 54 16 0
2.6400001 -0.405 0.31400001 52 16 0
2.628 -0.41100001 0.317 49 16 0
2.618 -0.41600001 0.32100001 48 16 0
2.6110001 -0.42199999 0.32499999 49 16 0
2.596 -0.42699999 0.32800001 60 16 0
2.589 -0.433 0.33199999 57 16 0
2.572 -0.43700001 0.33399999 62 16 0
2.566 -0.44299999 0.338 56 16 0
2.5539999 -0.44800001 0.34099999 58 16 0
2.5450001 -0.454 0.345 61 16 0
2.54 -0.46000001 0.34900001 63 16 0
2.526 -0.46399999 0.352 57 16 0
2.5120001 -0.46900001 0.354 60 16 0
2.5009999 -0.47400001 0.35699999 57 16 0
2.493 -0.479 0.361 59 16 0
2.483 -0.484 0.36300001 69 16 0
2.474 -0.49000001 0.36700001 69 16 0
2.4630001 -0.49399999 0.36899999 66 16 0
2.4530001 -0.49900001 0.37200001 66 16 0
2.45 -0.505 0.37599999 73 16 0
2.4319999 -0.509 0.37799999 68 16 0
2.428 -0.51499999 0.38100001 76 16 0
2.4189999 -0.51999998 0.384 76 16 0
2.4130001 -0.52499998 0.38800001 84 16 0
2.398 -0.52899998 0.389 77 16 0
2.3900001 -0.53399998 0.39199999 79 16 0
2.385 -0.54000002 0.396 76 16 0
2.369 -0.54299998 0.39700001 77 16 0
2.3659999 -0.54900002 0.40000001 82 16 0
2.3510001 -0.55299997 0.40200001 75 16 0
2.3429999 -0.55699998 0.405 79 16 0
2.3340001 -0.56199998 0.40700001 84 16 0
2.3199999 -0.565 0.40900001 82 16 0
2.316 -0.57099998 0.412 82 16 0
2.303 -0.57499999 0.41299999 88 16 0
2.293 -0.579 0.41499999 85 16 0
2.283 -0.583 0.41800001 90 16 0
2.277 -0.58899999 0.41999999 103 16 0
2.2650001 -0.59200001 0.42199999 105 16 0
2.257 -0.59600002 0.42399999 97 16 0
2.25 -0.60100001 0.426 111 16 0
2.2390001 -0.60500002 0.428 107 16 0
2.223 -0.60799998 0.42899999 108 16 0
2.22 -0.61299998 0.43200001 114 16 0
2.211 -0.61699998 0.433 111 16 0
2.204 -0.62199998 0.43599999 113 16 0
2.1930001 -0.62599999 0.43700001 118 16 0
2.188 -0.63099998 0.43900001 118 16 0
2.1760001 -0.634 0.44 107 16 0
2.168 -0.63800001 0.442 113 16 0
2.1600001 -0.64200002 0.44400001 118 16 0
2.1500001 -0.64600003 0.44499999 129 16 0
2.1470001 -0.65200001 0.44800001 118 16 0
2.1389999 -0.65600002 0.44999999 124 16 0
2.1270001 -0.65799999 0.44999999 129 16 0
2.1170001 -0.662 0.45100001 143 16 0
2.1110001 -0.66600001 0.45300001 135 16 0
2.1029999 -0.67000002 0.45500001 124 16 0
2.0940001 -0.67400002 0.456 129 16 0
2.086 -0.67699999 0.45699999 134 16 0
2.0810001 -0.68199998 0.45899999 133 16 0
2.062 -0.68199998 0.458 134 19 0
2.056 -0.68699998 0.46000001 138 16 0
2.0510001 -0.69199997 0.461 145 16 0
2.04 -0.69400001 0.46200001 150 16 0
2.0350001 -0.699 0.46399999 145 16 0
2.027 -0.70200002 0.465 144 16 0
2.02 -0.70599997 0.46599999 143 16 0
2.0109999 -0.70899999 0.46700001 137 16 0
2.006 -0.71399999 0.46799999 150 16 0
1.9910001 -0.71399999 0.46700001 125 16 0
1.989 -0.72000003 0.47 150 16 0
1.982 -0.72299999 0.47 149 16 0
1.97 -0.72500002 0.47 150 16 0
1.967 -0.73000002 0.472 150 16 0
1.962 -0.73500001 0.47400001 150 16 0
1.956 -0.73900002 0.47499999 150 16 0
1.9400001 -0.73900002 0.47299999 150 16 0
1.938 -0.74400002 0.47499999 150 16 0
1.925 -0.745 0.47400001 150 16 0
1.92 -0.74900001 0.47499999 150 16 0
1.914 -0.75300002 0.47600001 150 16 0
1.908 -0.75700003 0.477 150 16 0
1.9 -0.75999999 0.477 150 16 0
1.896 -0.764 0.47799999 150 16 0
1.887 -0.76599997 0.47799999 150 16 0
1.875 -0.76700002 0.477 150 16 0
1.872 -0.77200001 0.479 150 16 0
1.8660001 -0.77499998 0.479 150 16 0
1.86 -0.77899998 0.47999999 150 16 0
1.853 -0.78100002 0.47999999 150 16 0
1.834 -0.77899998 0.477 150 19 0
1.829 -0.78299999 0.47799999 150 16 0
1.827 -0.78799999 0.479 150 16 0
1.821 -0.79100001 0.479 150 16 0
1.818 -0.796 0.47999999 150 16 0
1.807 -0.79699999 0.479 150 16 0
1.8049999 -0.801 0.47999999 150 16 0
1.796 -0.80299997 0.47999999 150 16 0
1.793 -0.80699998 0.48100001 150 16 0
1.7869999 -0.81 0.48100001 150 16 0
1.777 -0.81099999 0.479 150 16 0
1.771 -0.81400001 0.479 150 16 0
1.763 -0.81599998 0.479 150 16 0
1.757 -0.81800002 0.479 150 16 0
1.752 -0.82200003 0.479 150 16 0
1.748 -0.82499999 0.479 150 16 0
1.743 -0.82800001 0.479 150 16 0
1.74 -0.83200002 0.479 150 16 0
1.724 -0.82999998 0.47600001 150 19 0
1.72 -0.833 0.477 150 16 0
1.715 -0.83600003 0.47600001 150 16 0
1.71 -0.83899999 0.47600001 150 16 0
1.7029999 -0.83999997 0.47499999 150 16 0
1.699 -0.84399998 0.47499999 4 0 0
1.691 -0.84500003 0.47400001 150 16 0
1.687 -0.84799999 0.47400001 3 0 0
1.684 -0.85100001 0.47400001 150 16 0
1.676 -0.85299999 0.47299999 3 0 0
1.6720001 -0.85600001 0.472 4 0 0
1.669 -0.85900003 0.472 88 0 0
1.661 -0.86000001 0.47099999 87 0 0
1.659 -0.86400002 0.47099999 67 0 0
1.652 -0.86500001 0.47 6 0 0
1.649 -0.86799997 0.47 4 0 0
1.64 -0.86799997 0.46799999 118 0 0
1.638 -0.87199998 0.46799999 6 0 0
1.63 -0.87199998 0.46599999 124 0 0
1.626 -0.875 0.465 119 0 0
1.618 -0.875 0.46399999 101 0 0
1.622 -0.88200003 0.465 150 0 0
1.612 -0.88099998 0.463 147 0 0
1.61 -0.884 0.46200001 137 0 0
1.6059999 -0.88599998 0.461 130 0 0
1.6 -0.88800001 0.46000001 114 0 0
1.599 -0.89200002 0.46000001 124 0 0
1.594 -0.89300001 0.45899999 150 0 0
1.582 -0.89099997 0.456 136 3 0
1.5779999 -0.89300001 0.454 150 0 0
1.571 -0.89300001 0.45199999 119 0 0
1.572 -0.898 0.45300001 101 0 0
1.567 -0.89899999 0.45100001 138 0 0
1.563 -0.89999998 0.44999999 118 0 0
1.5599999 -0.903 0.449 93 0 0
1.553 -0.903 0.447 101 0 0
1.552 -0.90600002 0.44600001 126 0 0
1.544 -0.90499997 0.44400001 106 0 0
1.54 -0.90600002 0.442 116 0 0
1.538 -0.90899998 0.442 150 0 0
1.534 -0.91000003 0.44 112 0 0
1.534 -0.91299999 0.43900001 134 0 0
1.526 -0.912 0.43700001 150 0 0
1.524 -0.91500002 0.43599999 124 0 0
1.52 -0.91600001 0.43399999 150 0 0
1.517 -0.917 0.43200001 111 0 0
1.5140001 -0.91799998 0.43099999 150 0 0
1.51 -0.91900003 0.42899999 144 0 0
1.508 -0.921 0.428 150 0 0
1.502 -0.921 0.42500001 133 0 0
1.498 -0.921 0.42399999 143 0 0
1.497 -0.92400002 0.42300001 127 0 0
1.494 -0.92400002 0.421 125 0 0
1.493 -0.92699999 0.41999999 150 0 0
1.4910001 -0.92799997 0.41800001 86 0 0
1.48 -0.92400002 0.414 150 2 0
1.477 -0.92500001 0.412 134 0 0
1.476 -0.92699999 0.41100001 99 0 0
1.472 -0.92699999 0.40900001 144 0 0
1.471 -0.92900002 0.40799999 127 0 0
1.471 -0.93099999 0.40599999 132 0 0
1.467 -0.93099999 0.40400001 134 0 0
1.467 -0.93300003 0.403 112 0 0
1.4630001 -0.93300003 0.40099999 113 0 0
1.4630001 -0.935 0.39899999 125 0 0
1.462 -0.93599999 0.398 121 0 0
1.459 -0.93599999 0.39500001 111 0 0
1.459 -0.93800002 0.39399999 128 0 0
1.455 -0.93699998 0.391 126 0 0
1.454 -0.93900001 0.38999999 126 0 0
1.452 -0.93900001 0.38800001 86 0 0
1.449 -0.93900001 0.38499999 101 0 0
1.451 -0.94199997 0.384 107 0 0
1.448 -0.94099998 0.382 129 0 0
1.446 -0.94099998 0.38 127 0 0
1.442 -0.94 0.377 119 0 0
1.437 -0.93800002 0.37400001 105 0 0
1.442 -0.94199997 0.373 114 0 0
1.441 -0.94199997 0.37200001 91 0 0
1.437 -0.94099998 0.36899999 97 0 0
1.436 -0.94099998 0.36700001 111 0 0
1.436 -0.94199997 0.36500001 110 0 0
1.436 -0.94300002 0.36300001 134 0 0
1.436 -0.94300002 0.361 124 0 0
1.431 -0.94099998 0.35800001 129 3 0
1.434 -0.94300002 0.35699999 92 0 0
1.431 -0.94199997 0.354 91 0 0
1.4299999 -0.94199997 0.352 100 0 0
1.4299999 -0.94199997 0.34999999 95 0 0
1.431 -0.94300002 0.34799999 78 0 0
1.431 -0.94300002 0.34599999 128 0 0
1.4299999 -0.94199997 0.34299999 118 0 0
1.4299999 -0.94300002 0.34099999 150 0 0
1.429 -0.94199997 0.33899999 113 0 0
1.428 -0.94099998 0.336 106 0 0
1.431 -0.94300002 0.33500001 98 0 0
1.424 -0.93800002 0.331 76 2 0
1.4299999 -0.94099998 0.33000001 80 0 0
1.4299999 -0.94099998 0.32800001 134 0 0
1.431 -0.94099998 0.32600001 97 0 0
1.424 -0.93599999 0.322 93 2 0
1.429 -0.93900001 0.32100001 101 0 0
1.4299999 -0.93900001 0.31900001 97 0 0
1.426 -0.935 0.31600001 83 0 0
1.427 -0.935 0.31299999 99 0 0
1.427 -0.935 0.31099999 100 0 0
1.428 -0.93400002 0.30899999 96 0 0
1.434 -0.93699998 0.308 123 0 0
1.429 -0.93300003 0.30399999 112 0 0
1.4299999 -0.93199998 0.30199999 75 0 0
1.431 -0.93099999 0.30000001 97 0 0
1.432 -0.93099999 0.29800001 87 0 0
1.433 -0.93000001 0.296 88 0 0
1.434 -0.92900002 0.29300001 101 0 0
1.4349999 -0.92900002 0.29100001 84 0 0
1.434 -0.926 0.28799999 95 0 0
1.4349999 -0.92500001 0.28600001 104 0 0
1.436 -0.92400002 0.28400001 95 0 0
1.4450001 -0.92799997 0.28299999 86 3 0
1.441 -0.92299998 0.28 82 0 0
1.4450001 -0.92400002 0.278 86 0 0
1.443 -0.92000002 0.27500001 73 0 0
1.4450001 -0.92000002 0.273 85 0 0
1.446 -0.91799998 0.27000001 79 0 0
1.457 -0.92299998 0.27000001 92 3 0
1.451 -0.917 0.266 104 0 0
1.4579999 -0.91900003 0.26499999 119 0 0
1.454 -0.91399997 0.26199999 87 0 0
1.455 -0.91299999 0.259 74 0 0
1.4630001 -0.91500002 0.25799999 99 0 0
1.466 -0.91399997 0.25600001 75 0 0
1.465 -0.91100001 0.25299999 79 0 0
1.469 -0.91000003 0.25099999 84 0 0
1.469 -0.90799999 0.249 76 0 0
1.474 -0.90799999 0.24699999 119 0 0
1.475 -0.90600002 0.245 84 0 0
1.477 -0.90399998 0.242 94 0 0
1.482 -0.90399998 0.241 86 0 0
1.483 -0.90200001 0.23800001 87 0 0
1.485 -0.89999998 0.236 78 0 0
1.487 -0.898 0.234 62 0 0
1.489 -0.89600003 0.23199999 97 0 0
1.493 -0.89499998 0.23 88 0 0
1.495 -0.89300001 0.227 72 0 0
1.497 -0.89099997 0.22499999 82 0 0
1.499 -0.88800001 0.223 71 0 0
1.503 -0.88700002 0.221 72 0 0
1.506 -0.88499999 0.219 59 0 0
1.512 -0.88499999 0.21699999 100 0 0
1.516 -0.884 0.215 78 0 0
1.5190001 -0.88200003 0.213 76 0 0
1.521 -0.87900001 0.211 73 0 0
1.523 -0.87699997 0.20900001 73 0 0
1.527 -0.87599999 0.207 104 0 0
1.531 -0.87400001 0.205 75 0 0
1.531 -0.87 0.20200001 78 0 0
1.534 -0.86799997 0.2 101 0 0
1.5369999 -0.866 0.198 120 0 0
1.539 -0.86299998 0.19599999 87 0 0
1.546 -0.86299998 0.19400001 84 0 0
1.548 -0.86000001 0.192 70 0 0
1.549 -0.85600001 0.19 92 0 0
1.554 -0.85399997 0.18799999 72 0 0
1.557 -0.852 0.186 67 0 0
1.561 -0.85000002 0.184 71 0 0
1.5700001 -0.85000002 0.183 58 0 0
1.576 -0.84899998 0.18099999 56 0 0
1.576 -0.84500003 0.17900001 63 0 0
1.58 -0.84200001 0.177 67 0 0
1.585 -0.83999997 0.175 72 0 0
1.59 -0.83899999 0.17299999 67 0 0
1.592 -0.83499998 0.171 82 0 0
1.603 -0.83600003 0.17 56 0 0
1.605 -0.833 0.168 56 0 0
1.608 -0.829 0.16599999 53 0 0
1.612 -0.82700002 0.164 49 0 0
1.614 -0.82300001 0.162 50 0 0
1.619 -0.82099998 0.16 54 0 0
1.628 -0.81999999 0.15899999 56 0 0
1.631 -0.81699997 0.15700001 67 0 0
1.636 -0.81400001 0.155 49 0 0
1.642 -0.81199998 0.153 59 0 0
1.645 -0.80900002 0.15099999 53 0 0
1.652 -0.80699998 0.15000001 59 0 0
1.659 -0.80599999 0.148 54 0 0
1.6619999 -0.80199999 0.146 56 0 0
1.664 -0.79799998 0.14399999 39 0 0
1.674 -0.79699999 0.14300001 41 0 0
1.678 -0.79400003 0.141 5 0 0
1.6799999 -0.79000002 0.139 36 0 0
1.693 -0.79000002 0.138 39 0 0
1.696 -0.787 0.13600001 32 0 0
1.702 -0.78399998 0.13500001 37 0 0
1.706 -0.77999997 0.133 1 0 0
1.71 -0.77700001 0.131 31 0 0
1.7180001 -0.77499998 0.13 2 0 0
1.728 -0.77399999 0.12899999 34 0 0
1.7359999 -0.77200001 0.127 31 0 0
1.739 -0.76800001 0.125 1 0 0
1.749 -0.76700002 0.124 33 0 0
1.7539999 -0.764 0.122 1 0 0
1.757 -0.759 0.121 1 0 0
1.7640001 -0.75700003 0.119 132 16 0
1.766 -0.75199997 0.117 124 16 0
1.78 -0.75199997 0.116 132 16 0
1.785 -0.74800003 0.115 127 16 0
1.79 -0.745 0.113 139 16 0
1.793 -0.74000001 0.112 125 16 0
1.801 -0.73699999 0.11 125 16 0
1.808 -0.73400003 0.109 129 16 0
1.8150001 -0.73100001 0.107 134 16 0
1.819 -0.727 0.106 134 16 0
1.834 -0.727 0.105 130 16 0
1.836 -0.722 0.103 133 16 0
1.844 -0.71899998 0.102 120 16 0
1.851 -0.71600002 0.1 1 0 0
1.857 -0.71200001 0.098999999 1 0 0
1.865 -0.70899999 0.097000003 113 16 0
1.869 -0.704 0.096000001 123 16 0
1.877 -0.70099998 0.094999999 117 16 0
1.893 -0.70099998 0.093999997 1 0 0
1.8940001 -0.69499999 0.092 112 16 0
1.9 -0.69099998 0.090999998 119 16 0
1.908 -0.68800002 0.089000002 120 16 0
1.911 -0.68199998 0.088 105 16 0
1.914 -0.67699999 0.086000003 116 16 0
1.925 -0.67500001 0.085000001 116 16 0
1.941 -0.67400002 0.083999999 110 16 0
1.95 -0.67000002 0.082999997 104 16 0
1.957 -0.667 0.082000002 101 16 0
1.962 -0.662 0.079999998 104 16 0
1.969 -0.65799999 0.079000004 100 16 0
1.98 -0.65399998 0.078000002 102 16 0
1.987 -0.65100002 0.077 99 16 0
1.995 -0.64600003 0.075000003 102 16 0
2.0039999 -0.64300001 0.074000001 102 16 0
2.0090001 -0.63800001 0.072999999 101 16 0
2.02 -0.634 0.071999997 94 16 0
2.0280001 -0.63 0.071000002 91 16 0
2.0380001 -0.62699997 0.068999998 102 16 0
2.0469999 -0.62300003 0.068000004 97 16 0
2.0550001 -0.61799997 0.067000002 89 16 0
2.0639999 -0.61400002 0.066 93 16 0
2.076 -0.611 0.064999998 91 16 0
2.0840001 -0.60600001 0.064000003 80 16 0
2.092 -0.602 0.061999999 84 16 0
2.102 -0.59799999 0.061000001 79 16 0
2.1110001 -0.59299999 0.059999999 90 16 0
2.1199999 -0.58899999 0.059 86 16 0
2.131 -0.58499998 0.057999998 77 16 0
2.1370001 -0.579 0.057 75 16 0
2.1530001 -0.57700002 0.056000002 79 16 0
2.1559999 -0.56999999 0.055 77 16 0
