# .PCD v0.7 - Point Cloud Data file format
VERSION 0.7
FIELDS x y z intensity tag line
SIZE 4 4 4 4 1 1
TYPE F F F F U U
COUNT 1 1 1 1 1 1
WIDTH 1367
HEIGHT 1
VIEWPOINT 0 0 0 1 0 0 0
POINTS 1367
DATA ascii
3.0280001 0.63 0.039999999 113 16 0
3.026 0.63999999 0.041999999 108 16 0
3.0239999 0.64899999 0.043000001 107 16 0
3.0179999 0.65799999 0.044 114 16 0
3.0139999 0.667 0.045000002 107 16 0
3.0109999 0.67699999 0.046999998 114 16 0
3.0039999 0.685 0.048 119 16 0
3.0020001 0.69400001 0.048999999 111 16 0
3 0.704 0.050999999 119 16 0
2.993 0.71200001 0.052000001 115 16 0
2.99 0.72100002 0.054000001 121 16 0
2.9879999 0.73000002 0.055 127 16 0
2.983 0.73900002 0.056000002 125 16 0
2.9779999 0.74800003 0.057999998 101 16 0
2.9749999 0.75700003 0.059 114 16 0
2.9690001 0.76499999 0.061000001 99 16 0
2.9660001 0.77399999 0.061999999 112 16 0
2.964 0.78299999 0.064000003 121 16 0
2.9590001 0.792 0.064999998 123 16 0
2.9560001 0.801 0.067000002 101 16 0
2.951 0.80900002 0.068999998 113 16 0
2.948 0.81800002 0.07 117 16 0
2.9389999 0.82499999 0.071999997 110 16 0
2.9389999 0.83499998 0.074000001 125 16 0
2.934 0.84299999 0.075000003 112 16 0
2.931 0.852 0.077 113 16 0
2.927 0.861 0.079000004 118 16 0
2.9219999 0.86900002 0.079999998 141 16 0
2.9189999 0.87800002 0.082000002 117 16 0
2.9189999 0.88700002 0.083999999 120 16 0
2.911 0.89499998 0.086000003 120 16 0
2.911 0.90399998 0.088 127 16 0
2.905 0.912 0.090000004 122 16 0
2.902 0.921 0.092 121 16 0
2.8989999 0.92900002 0.093000002 135 16 0
2.8959999 0.93800002 0.094999999 121 16 0
2.8929999 0.94700003 0.097000003 127 16 0
2.8900001 0.95499998 0.098999999 137 16 0
2.882 0.96200001 0.101 124 16 0
2.888 0.97399998 0.104 33 16 0
2.8829999 0.98199999 0.106 35 16 0
2.872 0.98699999 0.107 127 16 0
2.8670001 0.995 0.109 132 16 0
2.8670001 1.005 0.112 117 16 0
2.8670001 1.0140001 0.114 138 16 0
2.8570001 1.02 0.116 131 16 0
2.858 1.03 0.118 127 16 0
2.8529999 1.038 0.121 127 16 0
2.848 1.045 0.123 118 16 0
2.8429999 1.053 0.125 121 16 0
2.8510001 1.0650001 0.12800001 126 16 0
2.8440001 1.072 0.13 121 16 0
2.8340001 1.077 0.132 118 16 0
2.832 1.086 0.134 128 16 0
2.829 1.094 0.13699999 113 16 0
2.826 1.102 0.139 133 16 0
2.826 1.112 0.142 125 16 0
2.819 1.118 0.14399999 128 16 0
2.819 1.127 0.147 118 16 0
2.8150001 1.1339999 0.149 128 16 0
2.8080001 1.141 0.152 118 16 0
2.809 1.151 0.154 123 16 0
2.803 1.1569999 0.15700001 144 16 0
2.8039999 1.1670001 0.16 108 16 0
2.799 1.174 0.162 125 16 0
2.793 1.1799999 0.16500001 128 16 0
2.793 1.189 0.168 115 16 0
2.79 1.197 0.17 123 16 0
2.7909999 1.206 0.17299999 123 16 0
2.783 1.212 0.176 119 16 0
2.7839999 1.222 0.17900001 120 16 0
2.78 1.229 0.182 121 16 0
2.777 1.2359999 0.185 119 16 0
2.773 1.244 0.18799999 146 16 0
2.7709999 1.251 0.191 149 16 0
2.767 1.258 0.193 145 16 0
2.766 1.267 0.197 138 16 0
2.763 1.274 0.2 142 16 0
2.7590001 1.281 0.20299999 139 16 0
2.756 1.288 0.206 136 16 0
2.7550001 1.2970001 0.20900001 145 16 0
2.753 1.304 0.212 142 16 0
2.7490001 1.311 0.215 143 16 0
2.7460001 1.318 0.21799999 142 16 0
2.7420001 1.325 0.221 146 16 0
2.743 1.334 0.22499999 137 16 0
2.7420001 1.342 0.228 150 16 0
2.7309999 1.345 0.23100001 142 16 0
2.7320001 1.354 0.235 134 16 0
2.733 1.362 0.23800001 150 16 0
2.727 1.368 0.241 136 16 0
2.7260001 1.375 0.245 148 16 0
2.7290001 1.385 0.249 143 16 0
2.7290001 1.393 0.252 150 16 0
2.7079999 1.391 0.25400001 67 16 0
2.6719999 1.38 0.25400001 32 16 0
2.6600001 1.382 0.257 41 16 0
2.6589999 1.3890001 0.26100001 55 16 0
2.654 1.3940001 0.264 101 16 0
2.6500001 1.399 0.26699999 143 16 0
2.651 1.408 0.271 150 16 0
2.648 1.414 0.27500001 150 16 0
2.6470001 1.421 0.278 142 16 0
2.6440001 1.427 0.28200001 148 16 0
2.6429999 1.434 0.28600001 150 16 0
2.6400001 1.439 0.289 143 16 0
2.6400001 1.447 0.29300001 126 16 0
2.641 1.454 0.29699999 132 16 0
2.635 1.4579999 0.301 119 16 0
2.635 1.466 0.30500001 113 16 0
2.6329999 1.472 0.30899999 118 16 0
2.6340001 1.479 0.31299999 117 16 0
2.6340001 1.487 0.317 113 16 0
2.6340001 1.494 0.32100001 107 16 0
2.628 1.497 0.324 84 16 0
2.632 1.506 0.329 89 16 0
2.635 1.5140001 0.333 101 16 0
2.6359999 1.522 0.338 51 16 0
2.658 1.541 0.345 48 18 0
2.675 1.558 0.352 46 16 0
2.6730001 1.563 0.35600001 41 16 0
2.661 1.562 0.35800001 36 16 0
2.6530001 1.564 0.36199999 34 16 0
2.6440001 1.5650001 0.36500001 32 16 0
2.6389999 1.569 0.368 31 16 0
2.6340001 1.571 0.37200001 32 16 0
2.622 1.5700001 0.375 30 16 0
2.6140001 1.571 0.37799999 30 16 0
2.6059999 1.572 0.38100001 31 16 0
2.5929999 1.5700001 0.384 34 16 0
2.5869999 1.572 0.38699999 40 16 0
2.582 1.575 0.391 63 16 0
2.5769999 1.577 0.39399999 111 16 0
2.5769999 1.582 0.39899999 138 16 0
2.579 1.589 0.40400001 134 16 0
2.5780001 1.594 0.40799999 142 16 0
2.5769999 1.598 0.412 148 16 0
2.575 1.602 0.41600001 143 16 0
2.573 1.605 0.41999999 144 16 0
2.575 1.6109999 0.42500001 138 16 0
2.5769999 1.617 0.43000001 139 16 0
2.572 1.618 0.433 141 16 0
2.5739999 1.624 0.43799999 137 16 0
2.573 1.628 0.442 132 16 0
2.5699999 1.63 0.447 131 16 0
2.5699999 1.6339999 0.45100001 132 16 0
2.5710001 1.6390001 0.456 147 16 0
2.5739999 1.645 0.461 138 16 0
2.572 1.647 0.465 123 16 0
2.5739999 1.652 0.46900001 124 16 0
2.5739999 1.656 0.47400001 124 16 0
2.573 1.659 0.47799999 109 16 0
2.575 1.663 0.48300001 128 16 0
2.576 1.6670001 0.48800001 145 16 0
2.5769999 1.671 0.49200001 141 16 0
2.576 1.673 0.49599999 141 16 0
2.573 1.674 0.5 139 16 0
2.5739999 1.677 0.505 140 16 0
2.5739999 1.681 0.509 138 16 0
2.576 1.684 0.514 140 16 0
2.5769999 1.687 0.51800001 121 16 0
2.575 1.688 0.52200001 135 16 0
2.575 1.6900001 0.52700001 125 16 0
2.575 1.692 0.53100002 129 16 0
2.5780001 1.696 0.53600001 143 16 0
2.572 1.694 0.53899997 136 16 0
2.5810001 1.702 0.54500002 140 16 0
2.5799999 1.702 0.54900002 138 16 0
2.5780001 1.702 0.55299997 131 16 0
2.585 1.7079999 0.55800003 136 16 0
2.586 1.71 0.56300002 150 16 0
2.5799999 1.707 0.56599998 144 16 0
2.5910001 1.715 0.57200003 136 16 0
2.5910001 1.716 0.57599998 133 16 0
2.596 1.719 0.58099997 125 16 0
2.592 1.717 0.58399999 138 16 0
2.596 1.72 0.58899999 122 16 0
2.595 1.72 0.59299999 123 16 0
2.598 1.722 0.597 119 16 0
2.596 1.721 0.60100001 127 16 0
2.5969999 1.721 0.60500002 113 16 0
2.6029999 1.724 0.61000001 113 16 0
2.602 1.724 0.61299998 111 16 0
2.602 1.723 0.61699998 115 16 0
2.6059999 1.725 0.62199998 134 16 0
2.608 1.725 0.62599999 143 16 0
2.6099999 1.725 0.63 146 16 0
2.6099999 1.724 0.63300002 150 16 0
2.6129999 1.725 0.63700002 150 16 0
2.6129999 1.723 0.64099997 150 16 0
2.618 1.724 0.64499998 144 16 0
2.618 1.723 0.64899999 147 16 0
2.6159999 1.72 0.65200001 73 16 0
2.6129999 1.716 0.65399998 46 16 0
2.6110001 1.7130001 0.65700001 39 16 0
2.6010001 1.704 0.65700001 36 19 0
2.599 1.699 0.65899998 35 16 0
2.598 1.697 0.662 35 16 0
2.589 1.688 0.66299999 36 19 0
2.5840001 1.682 0.66399997 37 16 0
2.5829999 1.679 0.667 36 16 0
2.576 1.671 0.66799998 36 16 0
2.5710001 1.665 0.66900003 36 16 0
2.572 1.6619999 0.67199999 36 16 0
2.5669999 1.655 0.67299998 36 16 0
2.563 1.649 0.67400002 36 16 0
2.5669999 1.648 0.67799997 37 16 0
2.5599999 1.64 0.67799997 36 16 0
2.5539999 1.632 0.67900002 36 16 0
2.553 1.628 0.68099999 37 16 0
2.5469999 1.62 0.68099999 34 16 0
2.5469999 1.615 0.68300003 36 16 0
2.546 1.6109999 0.685 36 16 0
2.5420001 1.604 0.68599999 37 16 0
2.5409999 1.598 0.68699998 37 16 0
2.5409999 1.594 0.68900001 38 16 0
2.5339999 1.585 0.68900001 38 16 0
2.533 1.58 0.69 38 16 0
2.529 1.572 0.69 39 16 0
2.5239999 1.564 0.69 39 16 0
2.526 1.5599999 0.69199997 38 16 0
2.5250001 1.5549999 0.69300002 39 16 0
2.5220001 1.548 0.69400001 38 16 0
2.52 1.541 0.69400001 38 16 0
2.5239999 1.538 0.69700003 34 16 0
2.51 1.524 0.69400001 34 18 0
2.5090001 1.518 0.69400001 33 16 0
2.5109999 1.513 0.69599998 34 16 0
2.5109999 1.508 0.69700003 35 16 0
2.513 1.503 0.69800001 35 16 0
2.513 1.497 0.699 34 16 0
2.5079999 1.488 0.69800001 36 16 0
2.5109999 1.484 0.699 36 16 0
2.5090001 1.477 0.699 37 16 0
2.506 1.4680001 0.699 35 16 0
2.5079999 1.464 0.69999999 36 16 0
2.51 1.4579999 0.70099998 38 16 0
2.507 1.45 0.69999999 34 16 0
2.5079999 1.444 0.70099998 36 16 0
2.51 1.439 0.70099998 37 16 0
2.51 1.432 0.70200002 37 16 0
2.5109999 1.426 0.70200002 38 16 0
2.513 1.421 0.70200002 38 16 0
2.51 1.4119999 0.70099998 37 16 0
2.5090001 1.405 0.70099998 38 16 0
2.5079999 1.397 0.69999999 38 16 0
2.5109999 1.392 0.70099998 40 16 0
2.5139999 1.387 0.70099998 39 16 0
2.5120001 1.378 0.69999999 39 16 0
2.5120001 1.3710001 0.699 39 16 0
2.5120001 1.365 0.699 39 16 0
2.5150001 1.359 0.699 39 16 0
2.5179999 1.353 0.699 39 16 0
2.5179999 1.346 0.69800001 41 16 0
2.523 1.341 0.699 42 16 0
2.5209999 1.332 0.69700003 42 16 0
2.5239999 1.327 0.69700003 42 16 0
2.523 1.319 0.69599998 41 16 0
2.526 1.313 0.69599998 41 16 0
2.529 1.307 0.69499999 41 16 0
2.527 1.298 0.69400001 41 16 0
2.526 1.29 0.69199997 42 16 0
2.529 1.284 0.69199997 41 16 0
2.53 1.277 0.69099998 43 16 0
2.5339999 1.271 0.69 41 16 0
2.539 1.266 0.69 42 16 0
2.54 1.2589999 0.68900001 42 16 0
2.54 1.251 0.68699998 42 16 0
2.54 1.243 0.68599999 43 16 0
2.5469999 1.239 0.68599999 46 16 0
2.55 1.232 0.685 46 16 0
2.556 1.227 0.685 42 16 0
2.556 1.219 0.68300003 42 16 0
2.5599999 1.2130001 0.68199998 42 16 0
2.5610001 1.206 0.68000001 45 16 0
2.5639999 1.199 0.67900002 42 16 0
2.5699999 1.193 0.67900002 49 16 0
2.579 1.1900001 0.67900002 55 16 0
2.576 1.1799999 0.676 53 16 0
2.5780001 1.173 0.67400002 48 16 0
2.5829999 1.1670001 0.67299998 49 16 0
2.585 1.16 0.67199999 51 16 0
2.5869999 1.152 0.67000002 51 16 0
2.5899999 1.146 0.66799998 49 16 0
2.595 1.1390001 0.667 54 16 0
2.595 1.131 0.66500002 41 16 0
2.6029999 1.127 0.66399997 54 16 0
2.6040001 1.119 0.662 57 16 0
2.608 1.112 0.66000003 54 16 0
2.612 1.105 0.65799999 52 16 0
2.6199999 1.101 0.65799999 53 16 0
2.6240001 1.094 0.65600002 56 16 0
2.6259999 1.087 0.653 48 16 0
2.6389999 1.084 0.65399998 55 16 0
2.6340001 1.073 0.64999998 56 16 0
2.6489999 1.071 0.64999998 51 16 0
2.6459999 1.061 0.64700001 47 16 0
2.6489999 1.054 0.64399999 45 16 0
2.6559999 1.048 0.64300001 51 16 0
2.665 1.043 0.64200002 56 16 0
2.668 1.036 0.639 53 16 0
2.6719999 1.029 0.63700002 41 16 0
2.675 1.022 0.63499999 41 16 0
2.681 1.016 0.63300002 40 16 0
2.687 1.01 0.63099998 41 16 0
2.691 1.002 0.62800002 41 16 0
2.6989999 0.99699998 0.62699997 40 16 0
2.704 0.99000001 0.62400001 40 16 0
2.707 0.98299998 0.62199998 39 16 0
2.71 0.97600001 0.61900002 40 16 0
2.7179999 0.97000003 0.61699998 41 16 0
2.721 0.96200001 0.61400002 40 16 0
2.733 0.958 0.61299998 39 16 0
2.734 0.94999999 0.61000001 40 16 0
2.74 0.94300002 0.60699999 39 16 0
2.747 0.93699998 0.60500002 39 16 0
2.7550001 0.93099999 0.60299999 41 16 0
2.7590001 0.92400002 0.60000002 41 16 0
2.763 0.917 0.597 40 16 0
2.773 0.912 0.59500003 39 16 0
2.78 0.90499997 0.59299999 40 16 0
2.79 0.89999998 0.59100002 39 16 0
2.793 0.89200002 0.58700001 39 16 0
2.796 0.884 0.58399999 40 16 0
2.799 0.87699997 0.58099997 38 16 0
2.8069999 0.87099999 0.57800001 38 16 0
2.8110001 0.86299998 0.57499999 40 16 0
2.816 0.85600001 0.57099998 39 16 0
2.829 0.852 0.56999999 39 16 0
2.8399999 0.84600002 0.56800002 40 16 0
2.8469999 0.83999997 0.565 39 16 0
2.852 0.83200002 0.56099999 40 16 0
2.8610001 0.82700002 0.55900002 39 16 0
2.8640001 0.81900001 0.55500001 39 16 0
2.8729999 0.81199998 0.55199999 38 16 0
2.882 0.80599999 0.54900002 41 16 0
2.8859999 0.79900002 0.54500002 39 16 0
2.9030001 0.79500002 0.54400003 40 16 0
2.9059999 0.787 0.54000002 39 16 0
2.9119999 0.77999997 0.537 38 16 0
2.921 0.773 0.53399998 38 16 0
2.925 0.76599997 0.52899998 37 16 0
2.9389999 0.76099998 0.52700001 37 16 0
2.9449999 0.75300002 0.52399999 36 16 0
2.9530001 0.74699998 0.51999998 36 16 0
2.957 0.73900002 0.51599997 36 16 0
2.974 0.73400003 0.514 38 16 0
2.9779999 0.727 0.50999999 34 16 0
2.9820001 0.71899998 0.50599998 33 16 0
2.9909999 0.71200001 0.50199997 32 16 0
3.003 0.70599997 0.49900001 34 16 0
3.0120001 0.69999999 0.495 34 16 0
3.017 0.69199997 0.491 33 16 0
3.0280001 0.68599999 0.48800001 33 16 0
3.039 0.67900002 0.48500001 34 16 0
3.0469999 0.67299998 0.48100001 34 16 0
3.0569999 0.66600001 0.477 35 16 0
3.0650001 0.65899998 0.47299999 37 16 0
3.076 0.65200001 0.46900001 37 16 0
3.0840001 0.64499998 0.465 42 16 0
3.0910001 0.63800001 0.461 60 16 0
3.0969999 0.63 0.456 130 16 0
3.1010001 0.62199998 0.45199999 150 16 0
3.105 0.61400002 0.447 150 16 0
3.1110001 0.60600001 0.442 150 16 0
3.115 0.59799999 0.43700001 150 16 0
3.1099999 0.58899999 0.43099999 150 16 0
3.1159999 0.58099997 0.426 150 16 0
3.1140001 0.57200003 0.41999999 150 16 0
3.1210001 0.56400001 0.41600001 149 16 0
3.1240001 0.55599999 0.41100001 136 16 0
3.1210001 0.54699999 0.405 150 16 0
3.1259999 0.53899997 0.40000001 144 16 0
3.1340001 0.53200001 0.39500001 150 16 0
3.125 0.52200001 0.38800001 143 16 0
3.1259999 0.51300001 0.38299999 138 16 0
3.135 0.50599998 0.37799999 145 16 0
3.1370001 0.49700001 0.373 150 16 0
3.138 0.48899999 0.36700001 150 16 0
3.142 0.48100001 0.36199999 143 16 0
3.138 0.472 0.35499999 150 16 0
3.145 0.46399999 0.34999999 150 16 0
3.152 0.456 0.345 144 16 0
3.1489999 0.447 0.33899999 144 16 0
3.1500001 0.43900001 0.333 135 16 0
3.151 0.43099999 0.32800001 139 16 0
3.154 0.42199999 0.322 150 16 0
3.1570001 0.414 0.31600001 150 16 0
3.158 0.40599999 0.31099999 141 16 0
3.1600001 0.398 0.30500001 146 16 0
3.1619999 0.389 0.29899999 150 16 0
3.1670001 0.38100001 0.294 144 16 0
3.168 0.373 0.28799999 145 16 0
3.1659999 0.36399999 0.28200001 126 16 0
3.168 0.35600001 0.27599999 119 16 0
3.1730001 0.34799999 0.27000001 118 16 0
3.1700001 0.33899999 0.264 120 16 0
3.1719999 0.331 0.25799999 114 16 0
3.177 0.32300001 0.252 132 16 0
3.174 0.315 0.24600001 125 16 0
3.1800001 0.30700001 0.23999999 137 16 0
3.177 0.29800001 0.234 111 16 0
3.178 0.28999999 0.228 117 16 0
3.1789999 0.28200001 0.222 126 16 0
3.184 0.27399999 0.21600001 142 16 0
3.1819999 0.26499999 0.20999999 114 16 0
3.188 0.257 0.204 107 16 0
3.188 0.249 0.197 130 16 0
3.194 0.241 0.192 116 16 0
3.1849999 0.23199999 0.185 49 16 0
3.1359999 0.22 0.176 28 18 0
3.1819999 0.215 0.17200001 51 16 0
3.165 0.206 0.16500001 28 16 0
3.1459999 0.197 0.15800001 20 16 0
3.187 0.191 0.153 32 16 0
3.2060001 0.184 0.148 50 16 0
3.2160001 0.176 0.142 39 16 0
3.2260001 0.169 0.13600001 30 16 0
3.247 0.161 0.131 30 16 0
3.2609999 0.154 0.125 30 16 0
3.2750001 0.146 0.119 29 16 0
3.2869999 0.138 0.112 29 16 0
3.3039999 0.131 0.106 32 16 0
3.3210001 0.123 0.1 45 16 0
3.3180001 0.114 0.093999997 62 16 0
3.3239999 0.106 0.086999997 85 16 0
3.319 0.097999997 0.079999998 58 16 0
3.3280001 0.089000002 0.072999999 22 16 0
3.3329999 0.081 0.067000002 2 16 0
3.2880001 0.071999997 0.059 1 18 0
3.319 0.064000003 0.052999999 4 16 0
3.336 0.056000002 0.046 17 16 0
3.3299999 0.048 0.039000001 49 16 0
3.3280001 0.039000001 0.033 53 16 0
3.342 0.030999999 0.026000001 55 16 0
3.332 0.023 0.018999999 29 16 0
3.313 0.014 0.012 19 16 0
3.299 0.0060000001 0.0049999999 18 16 0
3.27 -0.001 -0.001 16 16 0
3.2520001 -0.0089999996 -0.0080000004 18 16 0
3.233 -0.017000001 -0.014 33 16 0
3.2349999 -0.025 -0.021 93 16 0
3.2409999 -0.033 -0.028000001 117 16 0
3.243 -0.041000001 -0.035 127 16 0
3.2420001 -0.048999999 -0.041999999 117 16 0
3.243 -0.057 -0.048 128 16 0
3.243 -0.064999998 -0.055 150 16 0
3.24 -0.072999999 -0.061999999 42 16 0
3.2179999 -0.079999998 -0.068999998 26 16 0
3.201 -0.088 -0.075000003 26 16 0
3.1819999 -0.094999999 -0.081 25 16 0
3.1630001 -0.102 -0.088 26 16 0
3.1389999 -0.109 -0.093999997 26 16 0
3.1240001 -0.116 -0.1 25 16 0
3.102 -0.123 -0.106 25 16 0
3.0899999 -0.13 -0.112 25 16 0
3.0680001 -0.13600001 -0.118 25 16 0
3.049 -0.14300001 -0.124 25 16 0
3.0350001 -0.149 -0.13 24 16 0
3.0139999 -0.156 -0.13500001 25 16 0
2.9990001 -0.162 -0.141 24 16 0
2.984 -0.169 -0.147 25 16 0
2.9660001 -0.175 -0.153 24 16 0
2.9460001 -0.18000001 -0.15800001 24 16 0
2.9330001 -0.18700001 -0.164 25 16 0
2.9119999 -0.192 -0.169 25 16 0
2.901 -0.199 -0.175 26 16 0
2.888 -0.204 -0.18000001 26 16 0
2.8670001 -0.20999999 -0.186 25 16 0
2.8559999 -0.21600001 -0.191 25 16 0
2.8410001 -0.222 -0.197 25 16 0
2.8239999 -0.227 -0.20200001 25 16 0
2.809 -0.23199999 -0.207 25 16 0
2.7969999 -0.23800001 -0.212 26 16 0
2.78 -0.243 -0.21699999 25 16 0
2.77 -0.249 -0.223 26 16 0
2.757 -0.25400001 -0.228 27 16 0
2.7360001 -0.259 -0.23199999 24 16 0
2.727 -0.264 -0.23800001 26 16 0
2.7179999 -0.27000001 -0.243 26 16 0
2.7079999 -0.27500001 -0.248 26 16 0
2.691 -0.28 -0.25299999 28 16 0
2.681 -0.285 -0.25799999 26 16 0
2.6700001 -0.28999999 -0.26300001 26 16 0
2.654 -0.294 -0.26800001 28 16 0
2.6370001 -0.29899999 -0.27200001 27 16 0
2.6289999 -0.30399999 -0.27700001 26 16 0
2.6159999 -0.308 -0.28200001 28 16 0
2.599 -0.31200001 -0.28600001 27 16 0
2.589 -0.317 -0.29100001 27 16 0
2.5829999 -0.322 -0.29699999 27 16 0
2.5699999 -0.32699999 -0.301 28 16 0
2.562 -0.33199999 -0.30599999 28 16 0
2.5420001 -0.33500001 -0.31 28 16 0
2.5339999 -0.34 -0.315 26 16 0
2.52 -0.34400001 -0.31900001 27 16 0
2.513 -0.34799999 -0.324 28 16 0
2.4979999 -0.352 -0.32800001 28 16 0
2.4849999 -0.35600001 -0.333 27 16 0
2.48 -0.361 -0.338 29 16 0
2.4690001 -0.36500001 -0.34200001 28 16 0
2.4579999 -0.36899999 -0.347 27 16 0
2.4449999 -0.37200001 -0.35100001 29 16 0
2.4360001 -0.37599999 -0.35499999 26 16 0
2.4260001 -0.38 -0.36000001 27 16 0
2.421 -0.38499999 -0.36500001 29 16 0
2.4089999 -0.389 -0.36899999 28 16 0
2.395 -0.39199999 -0.373 28 16 0
2.3859999 -0.396 -0.377 27 16 0
2.3729999 -0.39899999 -0.38100001 26 16 0
2.3610001 -0.40200001 -0.38499999 38 16 0
2.358 -0.40700001 -0.38999999 29 16 0
2.346 -0.41 -0.39399999 28 16 0
2.336 -0.41299999 -0.398 35 16 0
2.322 -0.41600001 -0.40200001 36 16 0
2.312 -0.419 -0.40599999 29 16 0
2.3069999 -0.42399999 -0.41100001 36 16 0
2.2969999 -0.42699999 -0.41499999 40 16 0
2.2880001 -0.43000001 -0.419 37 16 0
2.2820001 -0.43399999 -0.42300001 42 16 0
2.27 -0.43700001 -0.42699999 42 16 0
2.2609999 -0.44 -0.43099999 42 16 0
2.25 -0.44299999 -0.435 39 16 0
2.2449999 -0.447 -0.44 47 16 0
2.2349999 -0.44999999 -0.44299999 45 16 0
2.223 -0.45199999 -0.447 39 16 0
2.2179999 -0.456 -0.45100001 41 16 0
2.2079999 -0.458 -0.45500001 41 16 0
2.2049999 -0.463 -0.46000001 46 16 0
2.188 -0.46399999 -0.46200001 47 16 0
2.184 -0.46799999 -0.46700001 50 16 0
2.181 -0.472 -0.472 57 16 0
2.168 -0.47299999 -0.47499999 62 16 0
2.1630001 -0.477 -0.47999999 72 16 0
2.154 -0.47999999 -0.48300001 60 16 0
2.145 -0.48199999 -0.48699999 60 16 0
2.142 -0.486 -0.49200001 68 16 0
2.1199999 -0.48500001 -0.493 64 19 0
2.1170001 -0.48899999 -0.498 68 16 0
2.1099999 -0.49200001 -0.50199997 70 16 0
2.105 -0.495 -0.50599998 61 16 0
2.0910001 -0.49599999 -0.50800002 66 16 0
2.082 -0.498 -0.51200002 68 16 0
2.0840001 -0.50300002 -0.51800001 68 16 0
2.072 -0.50400001 -0.52100003 67 16 0
2.0639999 -0.50700003 -0.52399999 65 16 0
2.056 -0.509 -0.528 72 16 0
2.0480001 -0.51099998 -0.53100002 71 16 0
2.0439999 -0.514 -0.53600001 80 16 0
2.04 -0.51700002 -0.54000002 73 16 0
2.0309999 -0.51899999 -0.54299998 69 16 0
2.0220001 -0.52100003 -0.54699999 72 16 0
2.0190001 -0.52399999 -0.551 79 16 0
2.0109999 -0.52600002 -0.55500001 76 16 0
2.003 -0.528 -0.55800003 78 16 0
1.995 -0.52999997 -0.56199998 74 16 0
1.9910001 -0.53200001 -0.56599998 78 16 0
1.984 -0.53399998 -0.56999999 80 16 0
1.98 -0.537 -0.574 81 16 0
1.9680001 -0.53799999 -0.57599998 82 16 0
1.966 -0.54100001 -0.58099997 80 16 0
1.957 -0.542 -0.58399999 83 16 0
1.955 -0.54500002 -0.58899999 84 16 0
1.948 -0.54699999 -0.59200001 95 16 0
1.936 -0.54699999 -0.59399998 77 16 0
1.929 -0.54900002 -0.597 80 16 0
1.9299999 -0.55299997 -0.60299999 86 16 0
1.921 -0.55400002 -0.60600001 85 16 0
1.919 -0.55699998 -0.611 81 16 0
1.9119999 -0.55800003 -0.61400002 86 16 0
1.903 -0.55900002 -0.61699998 89 16 0
1.904 -0.56300002 -0.62199998 100 16 0
1.8940001 -0.56300002 -0.625 83 16 0
1.893 -0.56599998 -0.63 83 16 0
1.886 -0.56699997 -0.63300002 88 16 0
1.881 -0.56900001 -0.63700002 115 16 0
1.876 -0.57099998 -0.64099997 125 16 0
1.874 -0.574 -0.64499998 132 16 0
1.865 -0.574 -0.648 118 16 0
1.851 -0.57300001 -0.648 121 16 0
1.847 -0.57499999 -0.65200001 118 16 0
1.845 -0.57700002 -0.65700001 150 16 0
1.8380001 -0.57800001 -0.66000003 146 16 0
1.835 -0.57999998 -0.66399997 150 16 0
1.83 -0.58200002 -0.66799998 150 16 0
1.826 -0.583 -0.67199999 150 16 0
1.824 -0.58499998 -0.676 150 16 0
1.8200001 -0.58700001 -0.68000001 149 16 0
1.816 -0.58899999 -0.68400002 150 16 0
1.8099999 -0.58899999 -0.68699998 150 16 0
1.807 -0.59100002 -0.69099998 145 16 0
1.802 -0.59200001 -0.69499999 141 16 0
1.799 -0.59399998 -0.699 150 16 0
1.796 -0.59600002 -0.70300001 150 16 0
1.794 -0.59799999 -0.70700002 150 16 0
1.786 -0.59799999 -0.70899999 148 16 0
1.783 -0.59899998 -0.713 146 16 0
1.78 -0.60100001 -0.71799999 150 16 0
1.773 -0.60100001 -0.72000003 142 16 0
1.7690001 -0.602 -0.72399998 150 16 0
1.766 -0.60299999 -0.72799999 150 16 0
1.761 -0.60399997 -0.73100001 150 16 0
1.76 -0.60600001 -0.73500001 150 16 0
1.753 -0.60600001 -0.73799998 150 16 0
1.747 -0.60600001 -0.74000001 150 16 0
1.743 -0.60699999 -0.74400002 150 16 0
1.743 -0.60900003 -0.74900001 150 16 0
1.7410001 -0.61000001 -0.75300002 150 16 0
1.7359999 -0.61000001 -0.75599998 150 16 0
1.734 -0.61199999 -0.75999999 150 16 0
1.729 -0.61199999 -0.76300001 150 16 0
1.724 -0.61199999 -0.76599997 150 16 0
1.722 -0.61299998 -0.76999998 150 16 0
1.72 -0.61400002 -0.77399999 150 16 0
1.717 -0.61500001 -0.778 150 16 0
1.715 -0.616 -0.78200001 150 16 0
1.712 -0.61699998 -0.78500003 150 16 0
1.711 -0.61799997 -0.79000002 150 16 0
1.7079999 -0.61900002 -0.79299998 150 16 0
1.702 -0.61799997 -0.79500002 150 16 0
1.701 -0.61900002 -0.80000001 150 16 0
1.699 -0.62 -0.80400002 150 16 0
1.697 -0.62099999 -0.80699998 150 16 0
1.692 -0.62099999 -0.81 150 16 0
1.693 -0.62199998 -0.815 150 16 0
1.691 -0.62300003 -0.81900001 150 16 0
1.686 -0.62199998 -0.82099998 150 16 0
1.684 -0.62300003 -0.82499999 150 16 0
1.6849999 -0.62400001 -0.82999998 150 16 0
1.678 -0.62300003 -0.83099997 150 16 0
1.679 -0.62400001 -0.83600003 150 16 0
1.679 -0.625 -0.83999997 150 16 0
1.677 -0.62599999 -0.84399998 150 16 0
1.673 -0.625 -0.84600002 150 16 0
1.671 -0.625 -0.85000002 150 16 0
1.669 -0.625 -0.85299999 150 16 0
1.67 -0.62599999 -0.85799998 150 16 0
1.665 -0.625 -0.86000001 150 16 0
1.664 -0.625 -0.86299998 150 16 0
1.6619999 -0.625 -0.86699998 2 0 0
1.661 -0.625 -0.87 2 0 0
1.659 -0.625 -0.87300003 150 16 0
1.6569999 -0.625 -0.87599999 150 16 0
1.652 -0.62400001 -0.87800002 2 0 0
1.654 -0.625 -0.88300002 150 16 0
1.652 -0.62400001 -0.88599998 2 0 0
1.654 -0.625 -0.89099997 2 0 0
1.651 -0.62400001 -0.89300001 2 0 0
1.652 -0.625 -0.89700001 2 0 0
1.648 -0.62300003 -0.89899999 2 0 0
1.649 -0.62400001 -0.903 2 0 0
1.649 -0.62400001 -0.90700001 150 16 0
1.649 -0.62400001 -0.91100001 2 0 0
1.645 -0.62199998 -0.912 150 16 0
1.649 -0.62300003 -0.91799998 2 0 0
1.647 -0.62300003 -0.92000002 2 0 0
1.643 -0.62099999 -0.921 150 16 0
1.642 -0.62 -0.92400002 150 16 0
1.6440001 -0.62 -0.92900002 2 0 0
1.642 -0.61900002 -0.93099999 150 16 0
1.641 -0.61799997 -0.93300003 150 16 0
1.641 -0.61799997 -0.93699998 150 16 0
1.643 -0.61799997 -0.94099998 150 16 0
1.642 -0.61699998 -0.94400001 150 16 0
1.642 -0.616 -0.94599998 150 16 0
1.641 -0.61500001 -0.949 150 16 0
1.645 -0.616 -0.954 150 16 0
1.645 -0.61500001 -0.95599997 150 16 0
1.645 -0.61400002 -0.95999998 150 16 0
1.645 -0.61299998 -0.96200001 150 16 0
1.645 -0.61199999 -0.96499997 150 16 0
1.645 -0.611 -0.96700001 150 16 0
1.6440001 -0.60900003 -0.96899998 150 16 0
1.651 -0.61000001 -0.97500002 150 19 0
1.65 -0.60900003 -0.977 150 16 0
1.65 -0.60799998 -0.97899997 150 16 0
1.654 -0.60799998 -0.98400003 150 16 0
1.651 -0.60500002 -0.98400003 150 16 0
1.651 -0.60399997 -0.986 150 16 0
1.653 -0.60299999 -0.99000001 150 16 0
1.655 -0.602 -0.99199998 150 16 0
1.656 -0.60100001 -0.995 150 16 0
1.654 -0.59799999 -0.99599999 150 16 0
1.659 -0.59799999 -1 150 16 0
1.659 -0.597 -1.002 150 16 0
1.6619999 -0.59600002 -1.005 150 16 0
1.661 -0.59399998 -1.006 150 16 0
1.661 -0.59200001 -1.008 150 16 0
1.665 -0.59100002 -1.011 150 16 0
1.665 -0.58899999 -1.013 150 16 0
1.6670001 -0.588 -1.015 150 16 0
1.67 -0.58700001 -1.017 150 16 0
1.681 -0.58899999 -1.025 150 18 0
1.682 -0.58700001 -1.027 150 16 0
1.687 -0.58600003 -1.031 150 16 0
1.688 -0.58399999 -1.0319999 150 16 0
1.691 -0.583 -1.034 150 16 0
1.693 -0.58099997 -1.036 150 16 0
1.694 -0.579 -1.0369999 150 16 0
1.7 -0.579 -1.0420001 150 16 0
1.702 -0.57599998 -1.043 150 16 0
1.702 -0.574 -1.043 150 16 0
1.705 -0.57200003 -1.045 150 16 0
1.709 -0.57099998 -1.048 150 16 0
1.7130001 -0.56999999 -1.05 150 16 0
1.714 -0.56699997 -1.051 150 16 0
1.717 -0.56599998 -1.053 150 16 0
1.721 -0.56400001 -1.0549999 150 16 0
1.724 -0.56199998 -1.056 150 16 0
1.726 -0.56 -1.057 150 16 0
1.73 -0.55800003 -1.059 150 16 0
1.735 -0.55699998 -1.061 150 16 0
1.734 -0.55299997 -1.0599999 150 16 0
1.7410001 -0.55199999 -1.063 150 16 0
1.747 -0.551 -1.067 150 16 0
1.75 -0.54900002 -1.067 150 16 0
1.757 -0.54799998 -1.0700001 150 16 0
1.7589999 -0.546 -1.071 150 16 0
1.762 -0.54299998 -1.071 150 16 0
1.767 -0.54100001 -1.073 150 16 0
1.77 -0.53899997 -1.073 150 16 0
1.771 -0.53600001 -1.073 150 16 0
1.778 -0.53500003 -1.075 150 16 0
1.784 -0.53299999 -1.077 150 16 0
1.786 -0.52999997 -1.077 145 16 0
1.7920001 -0.52899998 -1.079 144 16 0
1.798 -0.52700001 -1.081 149 16 0
1.802 -0.52399999 -1.081 145 16 0
1.807 -0.523 -1.082 146 16 0
1.811 -0.51999998 -1.082 141 16 0
1.814 -0.51700002 -1.082 146 16 0
1.8200001 -0.51599997 -1.0829999 138 16 0
1.825 -0.51300001 -1.0829999 143 16 0
1.831 -0.51099998 -1.084 140 16 0
1.837 -0.509 -1.085 137 16 0
1.841 -0.50700003 -1.085 147 16 0
1.845 -0.50400001 -1.085 131 16 0
1.851 -0.50199997 -1.086 137 16 0
1.859 -0.5 -1.0880001 138 16 0
1.863 -0.49700001 -1.087 138 16 0
1.868 -0.495 -1.087 132 16 0
1.876 -0.493 -1.089 140 16 0
1.878 -0.49000001 -1.087 139 16 0
1.8839999 -0.48800001 -1.087 139 16 0
1.8890001 -0.48500001 -1.086 135 16 0
1.891 -0.48199999 -1.084 139 16 0
1.896 -0.47999999 -1.084 134 16 0
1.91 -0.479 -1.089 134 19 0
1.92 -0.47799999 -1.091 134 16 0
1.9220001 -0.47400001 -1.0880001 130 16 0
1.925 -0.47099999 -1.086 133 16 0
1.933 -0.46900001 -1.086 131 16 0
1.939 -0.46700001 -1.086 137 16 0
1.949 -0.465 -1.0880001 128 16 0
1.954 -0.46200001 -1.087 144 16 0
1.961 -0.46000001 -1.086 132 16 0
1.967 -0.45699999 -1.085 130 16 0
1.97 -0.454 -1.0829999 132 16 0
1.978 -0.45199999 -1.0829999 118 16 0
1.983 -0.449 -1.081 118 16 0
1.987 -0.44600001 -1.079 116 16 0
1.992 -0.44299999 -1.077 122 16 0
1.999 -0.44100001 -1.077 118 16 0
2.0039999 -0.43700001 -1.074 116 16 0
2.0139999 -0.43599999 -1.075 121 16 0
2.017 -0.43200001 -1.072 114 16 0
2.0250001 -0.43000001 -1.072 115 16 0
2.0309999 -0.42699999 -1.0700001 121 16 0
2.036 -0.42399999 -1.068 114 16 0
2.0439999 -0.42199999 -1.067 117 16 0
2.0550001 -0.41999999 -1.067 119 16 0
2.062 -0.417 -1.066 115 16 0
2.0650001 -0.414 -1.062 117 16 0
2.0739999 -0.412 -1.062 108 16 0
2.076 -0.40799999 -1.057 115 16 0
2.086 -0.40599999 -1.057 109 16 0
2.095 -0.40400001 -1.056 114 16 0
2.099 -0.40099999 -1.053 109 16 0
2.1059999 -0.398 -1.051 121 16 0
2.118 -0.396 -1.051 123 16 0
2.1210001 -0.39300001 -1.0470001 110 16 0
2.1300001 -0.38999999 -1.046 109 16 0
2.1370001 -0.38800001 -1.043 106 16 0
2.1470001 -0.38600001 -1.043 99 16 0
2.1530001 -0.38299999 -1.04 126 16 0
2.1589999 -0.38 -1.0369999 119 16 0
2.1659999 -0.377 -1.034 119 16 0
2.1730001 -0.37400001 -1.031 114 16 0
2.1819999 -0.37200001 -1.03 115 16 0
2.1900001 -0.36899999 -1.027 110 16 0
2.197 -0.366 -1.024 119 16 0
2.207 -0.36399999 -1.023 117 16 0
2.2119999 -0.361 -1.0190001 114 16 0
2.2190001 -0.35800001 -1.016 116 16 0
2.223 -0.35499999 -1.011 121 16 0
2.2349999 -0.35299999 -1.01 120 16 0
2.244 -0.35100001 -1.008 88 16 0
2.25 -0.34799999 -1.0039999 99 16 0
2.257 -0.345 -1.001 91 16 0
2.2639999 -0.34200001 -0.99699998 94 16 0
2.2720001 -0.33899999 -0.99400002 85 16 0
2.276 -0.336 -0.98900002 83 16 0
2.2839999 -0.33399999 -0.986 91 16 0
2.29 -0.33000001 -0.98199999 78 16 0
2.3039999 -0.329 -0.98100001 71 16 0
2.3069999 -0.32499999 -0.97500002 68 16 0
2.3169999 -0.32300001 -0.97299999 82 16 0
2.322 -0.31999999 -0.96799999 75 16 0
2.3310001 -0.317 -0.96399999 69 16 0
2.335 -0.31400001 -0.95899999 78 16 0
2.339 -0.31099999 -0.954 76 16 0
2.352 -0.30899999 -0.95200002 77 16 0
2.3610001 -0.30599999 -0.949 71 16 0
2.3670001 -0.303 -0.94400001 67 16 0
2.3759999 -0.301 -0.94 73 16 0
2.3840001 -0.29800001 -0.93599999 68 16 0
2.3889999 -0.29499999 -0.93099999 66 16 0
2.3940001 -0.292 -0.92500001 66 16 0
2.411 -0.28999999 -0.92400002 75 16 0
2.4170001 -0.28799999 -0.92000002 69 16 0
2.4260001 -0.285 -0.91500002 72 16 0
2.4300001 -0.28200001 -0.91000003 71 16 0
2.4400001 -0.27900001 -0.90600002 69 16 0
2.4449999 -0.27599999 -0.89999998 62 16 0
2.4519999 -0.27399999 -0.89499998 68 16 0
2.4590001 -0.271 -0.88999999 63 16 0
2.4679999 -0.26800001 -0.88599998 59 16 0
2.477 -0.266 -0.88099998 69 16 0
2.4879999 -0.264 -0.87800002 63 16 0
2.4920001 -0.25999999 -0.87099999 64 16 0
2.497 -0.257 -0.86500001 64 16 0
2.5050001 -0.255 -0.86000001 55 16 0
2.5139999 -0.252 -0.85500002 61 16 0
2.52 -0.25 -0.85000002 55 16 0
2.5309999 -0.24699999 -0.84500003 55 16 0
2.5380001 -0.244 -0.83999997 55 16 0
2.552 -0.242 -0.83600003 66 16 0
2.556 -0.23899999 -0.82999998 55 16 0
2.566 -0.237 -0.82499999 63 16 0
2.5780001 -0.235 -0.82099998 67 16 0
2.582 -0.23199999 -0.81400001 63 16 0
2.589 -0.229 -0.80800003 58 16 0
2.5969999 -0.226 -0.80199999 53 16 0
2.6059999 -0.22400001 -0.79699999 51 16 0
2.6140001 -0.221 -0.79100001 45 16 0
2.6210001 -0.219 -0.78500003 52 16 0
2.6289999 -0.21600001 -0.77899998 49 16 0
2.6329999 -0.213 -0.77200001 50 16 0
2.641 -0.211 -0.76599997 47 16 0
2.651 -0.208 -0.75999999 47 16 0
2.6600001 -0.206 -0.755 36 16 0
2.6670001 -0.20299999 -0.74800003 36 16 0
2.6719999 -0.2 -0.741 37 16 0
2.6789999 -0.198 -0.73500001 35 16 0
2.6900001 -0.19499999 -0.72899997 36 16 0
2.698 -0.193 -0.72299999 35 16 0
2.7079999 -0.19 -0.71700001 36 16 0
2.7179999 -0.18799999 -0.71100003 36 16 0
2.724 -0.185 -0.704 37 16 0
2.7309999 -0.183 -0.69700003 38 16 0
2.7409999 -0.18000001 -0.69099998 37 16 0
2.7460001 -0.178 -0.68400002 35 16 0
2.7579999 -0.175 -0.67799997 35 16 0
2.763 -0.17299999 -0.67000002 35 16 0
2.7709999 -0.17 -0.66399997 34 16 0
2.779 -0.168 -0.65700001 34 16 0
2.7909999 -0.16500001 -0.65100002 35 16 0
2.7950001 -0.163 -0.64300001 28 16 0
2.8050001 -0.16 -0.63599998 28 16 0
2.8180001 -0.15800001 -0.63 30 16 0
2.8199999 -0.155 -0.62199998 28 16 0
2.8299999 -0.153 -0.61500001 30 16 0
2.8399999 -0.15099999 -0.60799998 31 16 0
2.839 -0.148 -0.59899998 29 16 0
2.8540001 -0.146 -0.59299999 29 16 0
2.8659999 -0.14300001 -0.58700001 30 16 0
2.872 -0.141 -0.579 30 16 0
2.881 -0.139 -0.57099998 29 16 0
2.891 -0.13600001 -0.56400001 29 16 0
2.8989999 -0.134 -0.55699998 30 16 0
2.905 -0.131 -0.54900002 29 16 0
2.9130001 -0.12899999 -0.54100001 29 16 0
2.9170001 -0.126 -0.53200001 29 16 0
2.928 -0.124 -0.52499998 27 16 0
2.9389999 -0.122 -0.51800001 29 16 0
2.947 -0.119 -0.50999999 29 16 0
2.9549999 -0.117 -0.50199997 28 16 0
2.9590001 -0.114 -0.493 29 16 0
2.9679999 -0.112 -0.48500001 30 16 0
2.9849999 -0.11 -0.479 31 16 0
2.9990001 -0.108 -0.47099999 30 16 0
3 -0.105 -0.46200001 31 16 0
3.0139999 -0.103 -0.454 31 16 0
3.0179999 -0.101 -0.44600001 31 16 0
3.026 -0.097999997 -0.43700001 30 16 0
3.0369999 -0.096000001 -0.42899999 26 16 0
3.0480001 -0.093999997 -0.421 26 16 0
3.053 -0.092 -0.412 27 16 0
3.063 -0.089000002 -0.40400001 27 16 0
3.075 -0.086999997 -0.396 28 16 0
3.082 -0.085000001 -0.38699999 29 16 0
3.0910001 -0.082000002 -0.37799999 28 16 0
3.0969999 -0.079999998 -0.36899999 31 16 0
3.105 -0.078000002 -0.36000001 40 16 0
3.1140001 -0.075999998 -0.35100001 60 16 0
3.1199999 -0.072999999 -0.34200001 121 16 0
3.1240001 -0.071000002 -0.333 150 16 0
3.125 -0.068999998 -0.32300001 150 16 0
3.1340001 -0.066 -0.31400001 150 16 0
3.1329999 -0.064000003 -0.30399999 150 16 0
3.138 -0.061999999 -0.294 150 16 0
3.141 -0.059 -0.285 150 16 0
3.1429999 -0.057 -0.27500001 150 16 0
3.1470001 -0.055 -0.26499999 150 16 0
3.148 -0.052000001 -0.255 150 16 0
3.155 -0.050000001 -0.24600001 150 16 0
3.1559999 -0.048 -0.236 150 16 0
3.1630001 -0.046 -0.227 150 16 0
3.1670001 -0.044 -0.21699999 150 16 0
3.165 -0.041000001 -0.207 150 16 0
3.1700001 -0.039000001 -0.197 150 16 0
3.175 -0.037 -0.18700001 150 16 0
3.174 -0.035 -0.177 150 16 0
3.1819999 -0.033 -0.167 150 16 0
3.184 -0.030999999 -0.15700001 150 16 0
3.1900001 -0.028999999 -0.147 150 16 0
3.1919999 -0.027000001 -0.138 150 16 0
3.1889999 -0.024 -0.127 150 16 0
3.1960001 -0.022 -0.117 146 16 0
3.198 -0.02 -0.107 111 16 0
3.2019999 -0.017999999 -0.097000003 61 16 0
3.21 -0.016000001 -0.086999997 47 16 0
3.2160001 -0.014 -0.077 37 16 0
3.2219999 -0.012 -0.067000002 30 16 0
3.23 -0.0099999998 -0.057 24 16 0
3.237 -0.0080000004 -0.046999998 21 16 0
3.2449999 -0.0060000001 -0.037 20 16 0
3.2520001 -0.0049999999 -0.026000001 18 16 0
3.2650001 -0.003 -0.016000001 18 16 0
3.2720001 -0.001 -0.0060000001 19 16 0
3.279 0 0.0040000002 19 16 0
3.2920001 0.0020000001 0.014 20 16 0
3.2969999 0.0040000002 0.025 20 16 0
3.299 0.0060000001 0.035 20 16 0
3.313 0.0080000004 0.046 20 16 0
3.325 0.0099999998 0.057 21 16 0
3.3329999 0.012 0.068000004 21 16 0
3.336 0.013 0.078000002 24 16 0
3.336 0.015 0.089000002 38 16 0
3.3139999 0.017000001 0.098999999 36 16 0
3.289 0.018999999 0.109 42 16 0
3.28 0.02 0.119 150 16 0
3.283 0.022 0.13 150 16 0
3.2850001 0.024 0.14 150 16 0
3.29 0.025 0.15099999 150 16 0
3.2950001 0.027000001 0.161 150 16 0
3.2969999 0.028999999 0.17200001 150 16 0
3.299 0.029999999 0.183 150 16 0
3.3080001 0.032000002 0.19400001 150 16 0
3.3099999 0.034000002 0.205 150 16 0
3.3110001 0.035 0.215 150 16 0
3.3210001 0.037 0.227 150 16 0
3.322 0.039000001 0.237 150 16 0
3.325 0.039999999 0.248 150 16 0
3.325 0.041999999 0.259 150 16 0
3.3340001 0.043000001 0.271 150 16 0
3.335 0.045000002 0.28099999 150 16 0
3.3410001 0.046 0.29300001 150 16 0
3.345 0.048 0.30399999 150 16 0
3.3469999 0.048999999 0.315 150 16 0
3.3510001 0.050999999 0.32600001 150 16 0
3.362 0.052000001 0.338 150 16 0
3.3559999 0.054000001 0.34799999 150 16 0
3.346 0.055 0.35800001 45 16 0
3.3239999 0.056000002 0.366 38 16 0
3.3099999 0.057 0.37599999 38 16 0
3.289 0.057999998 0.384 38 16 0
3.2709999 0.059 0.39199999 38 16 0
3.2490001 0.059 0.40000001 36 16 0
3.2320001 0.059999999 0.40900001 37 16 0
3.2149999 0.061000001 0.417 38 16 0
3.1949999 0.061999999 0.42500001 38 16 0
3.1800001 0.063000001 0.433 37 16 0
3.1630001 0.063000001 0.44100001 39 16 0
3.141 0.064000003 0.44800001 37 16 0
3.1259999 0.064999998 0.456 39 16 0
3.1029999 0.064999998 0.463 36 16 0
3.0829999 0.066 0.47 40 16 0
3.073 0.067000002 0.479 39 16 0
3.0580001 0.067000002 0.486 41 16 0
3.0339999 0.068000004 0.49200001 40 16 0
3.0239999 0.068000004 0.50099999 42 16 0
3.007 0.068999998 0.50800002 41 16 0
2.99 0.068999998 0.51499999 39 16 0
2.971 0.07 0.52100003 39 16 0
2.9549999 0.07 0.528 43 16 0
2.941 0.071000002 0.53500003 42 16 0
2.9300001 0.071000002 0.54299998 42 16 0
2.904 0.071000002 0.54799998 41 16 0
2.8859999 0.071000002 0.55400002 43 16 0
2.869 0.071999997 0.56 48 16 0
2.8559999 0.071999997 0.56699997 58 16 0
2.8410001 0.071999997 0.57300001 47 16 0
2.8269999 0.071999997 0.57999998 63 16 0
2.819 0.072999999 0.58700001 77 16 0
2.806 0.072999999 0.59399998 49 16 0
2.796 0.072999999 0.60100001 54 16 0
2.7780001 0.072999999 0.60699999 49 16 0
2.767 0.072999999 0.61299998 45 16 0
2.7539999 0.074000001 0.61900002 54 16 0
2.7420001 0.074000001 0.62599999 100 16 0
2.721 0.074000001 0.63 89 16 0
2.704 0.072999999 0.63499999 110 16 0
2.6949999 0.074000001 0.64200002 127 16 0
2.6819999 0.074000001 0.648 129 16 0
2.6719999 0.074000001 0.65499997 122 16 0
2.665 0.074000001 0.662 119 16 0
2.645 0.074000001 0.66600001 114 16 0
2.6340001 0.074000001 0.67199999 123 16 0
2.628 0.074000001 0.67900002 115 16 0
2.6099999 0.072999999 0.68300003 113 16 0
2.598 0.072999999 0.68800002 116 16 0
2.5840001 0.072999999 0.69300002 113 16 0
2.572 0.072999999 0.699 112 16 0
2.562 0.072999999 0.70499998 122 16 0
2.5469999 0.071999997 0.70899999 133 16 0
2.536 0.071999997 0.71499997 129 16 0
2.5239999 0.071999997 0.72000003 133 16 0
2.517 0.071999997 0.72600001 137 16 0
2.5 0.071000002 0.73000002 135 16 0
2.4879999 0.071000002 0.73500001 124 16 0
2.4719999 0.07 0.73799998 150 16 0
2.4660001 0.07 0.745 150 16 0
2.457 0.07 0.75099999 150 16 0
2.4430001 0.068999998 0.75400001 150 16 0
2.434 0.068999998 0.75999999 150 16 0
2.421 0.068999998 0.764 150 16 0
2.411 0.068000004 0.76899999 150 16 0
2.404 0.068000004 0.77499998 150 16 0
2.3929999 0.067000002 0.77899998 150 16 0
2.382 0.067000002 0.78399998 150 16 0
2.372 0.066 0.78899997 150 16 0
2.3640001 0.066 0.79400003 150 16 0
2.3540001 0.064999998 0.79900002 150 16 0
2.3440001 0.064999998 0.80299997 150 16 0
2.336 0.064000003 0.80900002 150 16 0
2.326 0.063000001 0.81300002 150 16 0
2.3099999 0.063000001 0.815 150 16 0
2.3069999 0.061999999 0.82200003 150 16 0
2.289 0.061000001 0.82300001 150 16 0
2.2839999 0.061000001 0.829 150 16 0
2.277 0.059999999 0.83499998 150 16 0
2.267 0.059 0.838 150 16 0
2.256 0.059 0.84200001 150 16 0
2.2460001 0.057999998 0.84600002 150 16 0
2.2379999 0.057 0.85100001 150 16 0
2.2309999 0.056000002 0.85600001 150 16 0
2.2190001 0.055 0.85900003 150 16 0
2.2090001 0.054000001 0.86199999 150 16 0
2.1989999 0.054000001 0.866 150 16 0
2.191 0.052999999 0.87 150 16 0
2.184 0.052000001 0.875 150 16 0
2.1719999 0.050999999 0.87699997 150 16 0
2.1630001 0.050000001 0.88099998 150 16 0
2.1570001 0.048999999 0.88599998 150 16 0
2.1489999 0.048 0.88999999 150 16 0
2.1359999 0.046999998 0.89200002 150 16 0
2.1340001 0.046 0.898 150 16 0
2.122 0.045000002 0.89999998 150 16 0
2.118 0.044 0.90600002 150 16 0
2.1059999 0.043000001 0.90700001 150 16 0
2.096 0.041999999 0.91000003 150 16 0
2.0899999 0.041000001 0.91500002 150 16 0
2.082 0.039999999 0.91900003 150 16 0
2.0769999 0.039000001 0.92299998 150 16 0
2.073 0.037999999 0.92799997 150 16 0
2.0569999 0.035999998 0.92799997 150 16 0
2.05 0.035 0.93199998 150 16 0
2.046 0.034000002 0.93699998 150 16 0
2.0380001 0.033 0.94 150 16 0
2.027 0.030999999 0.94199997 150 16 0
2.02 0.029999999 0.94499999 150 16 0
2.016 0.028999999 0.94999999 150 16 0
2 0.028000001 0.949 150 16 0
1.9910001 0.026000001 0.95200002 150 16 0
1.9859999 0.025 0.95599997 150 16 0
1.9809999 0.024 0.95999998 150 16 0
1.975 0.023 0.963 150 16 0
1.969 0.021 0.96700001 150 16 0
1.9630001 0.02 0.97000003 150 16 0
1.956 0.017999999 0.97299999 150 16 0
1.946 0.017000001 0.97399998 150 16 0
1.941 0.016000001 0.97799999 150 16 0
1.934 0.014 0.98100001 150 16 0
1.925 0.013 0.98299998 150 16 0
1.916 0.011 0.98400003 150 16 0
1.9119999 0.0099999998 0.98799998 150 16 0
1.905 0.0080000004 0.991 150 16 0
1.902 0.0070000002 0.995 150 16 0
1.893 0.0049999999 0.99699998 150 16 0
1.885 0.0040000002 0.99800003 150 16 0
1.876 0.0020000001 0.99900001 150 16 0
1.874 0 1.0039999 150 16 0
1.865 0 1.005 150 16 0
1.859 -0.0020000001 1.008 150 16 0
1.854 -0.003 1.011 150 16 0
1.847 -0.0049999999 1.013 150 16 0
1.8430001 -0.0070000002 1.016 150 16 0
1.84 -0.0080000004 1.02 150 16 0
1.8329999 -0.0099999998 1.022 150 16 0
1.827 -0.012 1.024 150 16 0
1.825 -0.014 1.028 150 16 0
1.821 -0.015 1.031 150 16 0
1.807 -0.017000001 1.029 150 16 0
1.803 -0.018999999 1.0319999 150 16 0
1.799 -0.021 1.035 150 16 0
1.794 -0.022 1.0369999 150 16 0
1.7920001 -0.024 1.041 150 16 0
1.776 -0.026000001 1.0369999 150 19 0
1.768 -0.028000001 1.0369999 150 16 0
1.7640001 -0.029999999 1.04 150 16 0
1.76 -0.030999999 1.0420001 150 16 0
1.757 -0.033 1.046 150 16 0
1.7539999 -0.035 1.049 150 16 0
1.751 -0.037 1.051 150 16 0
1.749 -0.039000001 1.0549999 150 16 0
1.742 -0.041000001 1.0549999 150 16 0
1.738 -0.043000001 1.058 150 16 0
1.734 -0.045000002 1.059 150 16 0
1.728 -0.046999998 1.0599999 150 16 0
1.726 -0.048999999 1.064 150 16 0
1.721 -0.050999999 1.0650001 150 16 0
1.719 -0.052999999 1.068 150 16 0
1.712 -0.055 1.068 150 16 0
1.707 -0.057 1.068 150 16 0
1.704 -0.059 1.071 150 16 0
1.701 -0.061000001 1.073 150 16 0
1.693 -0.063000001 1.072 150 16 0
1.692 -0.064999998 1.075 150 16 0
1.689 -0.067000002 1.077 150 16 0
1.686 -0.068999998 1.079 150 16 0
1.6849999 -0.071000002 1.082 150 16 0
1.675 -0.072999999 1.079 150 16 0
1.674 -0.075000003 1.082 150 16 0
1.6720001 -0.078000002 1.084 150 16 0
1.67 -0.079999998 1.087 150 16 0
1.666 -0.082000002 1.087 150 16 0
1.6670001 -0.083999999 1.091 150 16 0
1.665 -0.086999997 1.0930001 150 16 0
1.66 -0.089000002 1.0930001 150 16 0
1.658 -0.090999998 1.095 150 16 0
1.656 -0.093000002 1.096 150 16 0
1.655 -0.094999999 1.098 150 16 0
1.652 -0.097999997 1.1 150 16 0
1.648 -0.1 1.099 150 16 0
1.646 -0.102 1.101 150 16 0
1.6440001 -0.104 1.102 150 16 0
1.6440001 -0.107 1.104 150 16 0
1.643 -0.109 1.1059999 150 16 0
1.631 -0.111 1.101 150 18 0
1.627 -0.113 1.1 150 16 0
1.6210001 -0.115 1.098 150 16 0
1.623 -0.117 1.102 150 16 0
1.619 -0.119 1.101 150 16 0
1.619 -0.122 1.103 150 16 0
1.618 -0.124 1.104 150 16 0
1.6160001 -0.126 1.104 150 16 0
1.615 -0.12899999 1.1059999 150 16 0
1.6160001 -0.131 1.108 150 16 0
1.609 -0.133 1.105 150 19 0
1.609 -0.13500001 1.1059999 150 16 0
1.607 -0.138 1.1059999 150 16 0
1.607 -0.14 1.108 150 16 0
1.608 -0.14300001 1.11 150 16 0
1.605 -0.145 1.109 150 16 0
1.605 -0.147 1.109 150 16 0
1.604 -0.149 1.11 150 16 0
1.604 -0.152 1.1109999 150 16 0
1.603 -0.154 1.1109999 150 16 0
1.603 -0.156 1.1109999 150 16 0
1.602 -0.15899999 1.1109999 150 16 0
1.601 -0.161 1.1109999 150 16 0
1.601 -0.163 1.1109999 150 16 0
1.6 -0.16500001 1.1109999 150 16 0
1.6 -0.168 1.1109999 150 16 0
1.601 -0.17 1.112 150 16 0
1.601 -0.17200001 1.112 150 16 0
1.599 -0.175 1.1109999 150 16 0
1.599 -0.177 1.1109999 150 16 0
1.601 -0.17900001 1.112 150 16 0
1.6 -0.18099999 1.1109999 150 16 0
1.6 -0.184 1.1109999 150 16 0
1.602 -0.186 1.112 150 16 0
1.603 -0.18799999 1.112 150 16 0
1.6059999 -0.191 1.113 150 16 0
1.604 -0.193 1.1109999 150 16 0
1.605 -0.19499999 1.1109999 150 16 0
1.6059999 -0.197 1.1109999 150 16 0
1.607 -0.2 1.11 150 16 0
1.609 -0.20200001 1.1109999 150 16 0
1.607 -0.204 1.109 150 16 0
1.609 -0.206 1.109 150 16 0
1.61 -0.208 1.108 150 16 0
1.61 -0.20999999 1.107 150 16 0
1.613 -0.213 1.107 150 16 0
1.617 -0.215 1.108 150 16 0
1.617 -0.21699999 1.1059999 150 16 0
1.62 -0.22 1.107 150 16 0
1.62 -0.222 1.105 150 16 0
1.623 -0.22400001 1.105 150 16 0
1.622 -0.226 1.102 150 16 0
1.632 -0.229 1.107 150 18 0
1.626 -0.23 1.101 150 16 0
1.6339999 -0.233 1.104 150 16 0
1.638 -0.235 1.104 150 16 0
1.641 -0.237 1.104 150 16 0
1.642 -0.23899999 1.102 150 16 0
1.643 -0.241 1.1 150 16 0
1.6440001 -0.243 1.098 150 16 0
1.649 -0.245 1.099 150 16 0
1.65 -0.24699999 1.097 150 16 0
1.651 -0.249 1.094 150 16 0
1.654 -0.25099999 1.0930001 150 16 0
1.659 -0.25299999 1.094 150 16 0
1.66 -0.255 1.091 150 16 0
1.6619999 -0.257 1.09 150 16 0
1.665 -0.259 1.0880001 150 16 0
1.668 -0.25999999 1.086 150 16 0
1.673 -0.26300001 1.087 150 16 0
1.676 -0.26499999 1.085 150 16 0
1.678 -0.266 1.0829999 150 16 0
1.681 -0.26800001 1.081 150 16 0
1.6849999 -0.27000001 1.08 150 16 0
1.688 -0.27200001 1.0779999 150 16 0
1.6950001 -0.27399999 1.079 150 16 0
1.7029999 -0.27599999 1.08 150 16 0
1.705 -0.278 1.077 150 16 0
1.706 -0.27900001 1.074 150 16 0
1.712 -0.28099999 1.073 150 16 0
1.715 -0.28299999 1.071 150 16 0
1.7180001 -0.28400001 1.069 125 16 0
1.733 -0.287 1.073 117 18 0
1.7359999 -0.289 1.071 124 16 0
1.74 -0.28999999 1.069 145 16 0
1.73 -0.28999999 1.059 150 19 0
1.732 -0.29100001 1.0549999 150 16 0
1.7359999 -0.292 1.053 150 16 0
1.751 -0.296 1.057 150 19 0
1.758 -0.29800001 1.057 150 16 0
1.76 -0.29899999 1.053 150 16 0
1.766 -0.30000001 1.052 150 16 0
1.77 -0.30199999 1.049 150 16 0
1.773 -0.303 1.0470001 150 16 0
1.781 -0.30500001 1.046 150 16 0
1.786 -0.30599999 1.044 150 16 0
1.791 -0.30700001 1.041 150 16 0
1.795 -0.308 1.039 150 16 0
1.801 -0.31 1.0369999 150 16 0
1.807 -0.31099999 1.035 150 16 0
1.813 -0.31299999 1.033 150 16 0
1.8150001 -0.31299999 1.029 150 16 0
1.822 -0.315 1.028 150 16 0
1.825 -0.31600001 1.024 150 16 0
1.832 -0.317 1.022 150 16 0
1.841 -0.31900001 1.021 150 16 0
1.8430001 -0.31900001 1.017 150 16 0
1.855 -0.322 1.018 150 16 0
1.857 -0.322 1.013 150 16 0
1.867 -0.324 1.013 150 16 0
1.872 -0.32499999 1.01 150 16 0
1.88 -0.32600001 1.008 150 16 0
1.885 -0.32699999 1.005 150 16 0
1.893 -0.32800001 1.003 150 16 0
1.898 -0.329 1 150 16 0
1.901 -0.329 0.99599999 150 16 0
1.9069999 -0.33000001 0.99299997 150 16 0
1.9170001 -0.331 0.991 150 16 0
1.921 -0.33199999 0.98699999 150 16 0
1.931 -0.333 0.98699999 150 16 0
1.9349999 -0.333 0.98199999 150 16 0
1.947 -0.33500001 0.98199999 150 16 0
1.951 -0.33500001 0.97799999 150 16 0
1.9579999 -0.336 0.97500002 150 16 0
1.961 -0.336 0.97000003 150 16 0
1.9680001 -0.33700001 0.96700001 150 16 0
1.973 -0.33700001 0.963 150 16 0
1.99 -0.33899999 0.96499997 150 19 0
2.0009999 -0.34099999 0.96399999 150 16 0
2.0039999 -0.34 0.958 150 16 0
2.0150001 -0.34099999 0.95700002 150 16 0
2.02 -0.34200001 0.95300001 150 16 0
2.03 -0.34200001 0.95099998 150 16 0
2.036 -0.34299999 0.94700003 150 16 0
2.0439999 -0.34299999 0.94400001 150 16 0
2.0510001 -0.34299999 0.94 150 16 0
2.059 -0.34400001 0.93699998 150 16 0
2.0650001 -0.34400001 0.93300003 140 16 0
2.0739999 -0.34400001 0.93000001 136 16 0
2.082 -0.345 0.92699999 125 16 0
2.0899999 -0.345 0.92299998 140 16 0
2.0999999 -0.34599999 0.921 134 16 0
2.1029999 -0.345 0.91500002 147 16 0
2.1099999 -0.345 0.91100001 121 16 0
2.119 -0.345 0.90799999 133 16 0
2.1289999 -0.34599999 0.90499997 131 16 0
2.1359999 -0.345 0.90100002 137 16 0
2.1459999 -0.34599999 0.898 122 16 0
2.1559999 -0.34599999 0.89499998 99 16 0
2.165 -0.34599999 0.89200002 92 16 0
2.174 -0.34599999 0.88800001 89 16 0
2.1849999 -0.34599999 0.88499999 89 16 0
2.194 -0.34599999 0.88099998 85 16 0
2.197 -0.345 0.875 81 16 0
2.2049999 -0.345 0.87099999 74 16 0
2.217 -0.345 0.86799997 74 16 0
2.227 -0.345 0.86500001 92 16 0
2.2379999 -0.345 0.86199999 93 16 0
2.243 -0.34400001 0.85600001 88 16 0
2.253 -0.34400001 0.852 92 16 0
2.2579999 -0.34299999 0.847 85 16 0
2.2690001 -0.34299999 0.84399998 75 16 0
2.277 -0.34200001 0.83899999 72 16 0
2.2920001 -0.34299999 0.83700001 70 16 0
2.3 -0.34200001 0.83200002 73 16 0
2.312 -0.34200001 0.829 85 16 0
2.3210001 -0.34099999 0.824 83 16 0
2.3280001 -0.34099999 0.81900001 82 16 0
2.3399999 -0.34 0.81599998 81 16 0
2.348 -0.33899999 0.81099999 73 16 0
2.3559999 -0.33899999 0.80599999 76 16 0
2.3659999 -0.338 0.801 75 16 0
2.3770001 -0.33700001 0.79699999 78 16 0
2.388 -0.33700001 0.79299998 71 16 0
2.3959999 -0.336 0.78799999 77 16 0
2.405 -0.33500001 0.78299999 70 16 0
2.4170001 -0.33399999 0.77899998 75 16 0
2.428 -0.333 0.77499998 75 16 0
2.437 -0.33199999 0.76999998 72 16 0
2.4449999 -0.331 0.764 73 16 0
2.457 -0.33000001 0.75999999 71 16 0
2.473 -0.33000001 0.75700003 68 16 0
2.48 -0.32800001 0.75099999 67 16 0
2.493 -0.32800001 0.74699998 61 16 0
2.4990001 -0.32600001 0.74000001 61 16 0
2.5109999 -0.32499999 0.736 60 16 0
2.5220001 -0.324 0.73100001 55 16 0
2.5369999 -0.32300001 0.727 61 16 0
2.546 -0.32100001 0.72100002 58 16 0
2.5569999 -0.31999999 0.71600002 59 16 0
2.5710001 -0.31900001 0.71200001 54 16 0
2.5840001 -0.31799999 0.708 62 16 0
2.5940001 -0.31600001 0.70200002 60 16 0
2.605 -0.315 0.69599998 37 16 0
2.612 -0.31299999 0.69 34 16 0
2.6270001 -0.31200001 0.68599999 36 16 0
2.6400001 -0.31 0.68099999 34 16 0
2.648 -0.308 0.67400002 33 16 0
2.6570001 -0.30599999 0.66799998 34 16 0
2.668 -0.30500001 0.662 36 16 0
2.6789999 -0.303 0.65700001 34 16 0
2.694 -0.30199999 0.65200001 33 16 0
2.704 -0.30000001 0.64600003 33 16 0
2.717 -0.29800001 0.63999999 33 16 0
2.73 -0.296 0.63499999 33 16 0
2.743 -0.294 0.62900001 32 16 0
2.7579999 -0.29300001 0.62400001 34 16 0
2.766 -0.28999999 0.61699998 32 16 0
