# .PCD v0.7 - Point Cloud Data file format
VERSION 0.7
FIELDS x y z intensity tag line
SIZE 4 4 4 4 1 1
TYPE F F F F U U
COUNT 1 1 1 1 1 1
WIDTH 1370
HEIGHT 1
VIEWPOINT 0 0 0 1 0 0 0
POINTS 1370
DATA ascii
2.2019999 -0.52899998 -0.078000002 77 16 0
2.2179999 -0.52499998 -0.078000002 62 16 0
2.2320001 -0.52100003 -0.078000002 63 16 0
2.24 -0.51599997 -0.078000002 56 16 0
2.2550001 -0.51200002 -0.078000002 58 16 0
2.2609999 -0.50599998 -0.078000002 57 16 0
2.276 -0.50099999 -0.077 53 16 0
2.2809999 -0.495 -0.077 56 16 0
2.296 -0.491 -0.077 53 16 0
2.3069999 -0.48500001 -0.075999998 57 16 0
2.3210001 -0.47999999 -0.075999998 48 16 0
2.3329999 -0.47499999 -0.075999998 54 16 0
2.3429999 -0.47 -0.075000003 39 16 0
2.359 -0.465 -0.075000003 45 16 0
2.3759999 -0.461 -0.075000003 43 16 0
2.381 -0.454 -0.074000001 36 16 0
2.3940001 -0.44800001 -0.074000001 45 16 0
2.4089999 -0.44299999 -0.072999999 47 16 0
2.4230001 -0.43799999 -0.072999999 52 16 0
2.4389999 -0.433 -0.071999997 49 16 0
2.451 -0.42699999 -0.071999997 49 16 0
2.461 -0.41999999 -0.071000002 42 16 0
2.4749999 -0.41499999 -0.071000002 45 16 0
2.4860001 -0.40799999 -0.07 44 16 0
2.4979999 -0.40200001 -0.068999998 40 16 0
2.513 -0.39700001 -0.068999998 33 16 0
2.53 -0.391 -0.068000004 39 16 0
2.5439999 -0.38499999 -0.067000002 36 16 0
2.5569999 -0.37799999 -0.067000002 33 16 0
2.5699999 -0.37200001 -0.066 33 16 0
2.5869999 -0.366 -0.064999998 32 16 0
2.599 -0.359 -0.064000003 32 16 0
2.615 -0.35299999 -0.063000001 32 16 0
2.628 -0.34599999 -0.063000001 35 16 0
2.6459999 -0.34 -0.061999999 34 16 0
2.6559999 -0.333 -0.061000001 31 16 0
2.675 -0.32699999 -0.059999999 32 16 0
2.6919999 -0.31999999 -0.059 34 16 0
2.7090001 -0.31299999 -0.057999998 34 16 0
2.72 -0.30599999 -0.057 31 16 0
2.7360001 -0.29899999 -0.056000002 31 16 0
2.7550001 -0.292 -0.055 32 16 0
2.7650001 -0.28400001 -0.054000001 31 16 0
2.783 -0.27700001 -0.052999999 31 16 0
2.8 -0.27000001 -0.050999999 30 16 0
2.8139999 -0.26199999 -0.050000001 31 16 0
2.836 -0.255 -0.048999999 26 16 0
2.8529999 -0.24699999 -0.048 27 16 0
2.8670001 -0.23899999 -0.046 27 16 0
2.8859999 -0.23199999 -0.045000002 27 16 0
2.9100001 -0.22400001 -0.044 28 16 0
2.9200001 -0.21600001 -0.041999999 26 16 0
2.9460001 -0.208 -0.041000001 26 16 0
2.9619999 -0.2 -0.039999999 25 16 0
2.98 -0.192 -0.037999999 25 16 0
3.0020001 -0.183 -0.037 25 16 0
3.013 -0.17399999 -0.035 25 16 0
3.043 -0.16599999 -0.034000002 26 19 0
3.066 -0.15800001 -0.032000002 26 16 0
3.0869999 -0.149 -0.029999999 26 16 0
3.102 -0.14 -0.028999999 25 16 0
3.1259999 -0.131 -0.027000001 27 16 0
3.1459999 -0.122 -0.025 26 16 0
3.168 -0.113 -0.023 26 16 0
3.1919999 -0.104 -0.021 26 16 0
3.2149999 -0.093999997 -0.018999999 27 16 0
3.2349999 -0.083999999 -0.017000001 28 16 0
3.2620001 -0.075000003 -0.015 35 16 0
3.266 -0.064000003 -0.013 150 16 0
3.263 -0.054000001 -0.011 130 16 0
3.257 -0.044 -0.0089999996 116 16 0
3.257 -0.033 -0.0070000002 123 16 0
3.247 -0.023 -0.0049999999 96 16 0
3.2449999 -0.012 -0.0020000001 23 16 0
3.2739999 -0.0020000001 0 17 16 0
3.299 0.0070000002 0.001 18 16 0
3.323 0.017999999 0.0040000002 21 16 0
3.336 0.028000001 0.0060000001 45 16 0
3.325 0.039000001 0.0080000004 54 16 0
3.325 0.048999999 0.011 50 16 0
3.322 0.059999999 0.013 40 16 0
3.316 0.07 0.015 57 16 0
3.3099999 0.079999998 0.017999999 58 16 0
3.3080001 0.090999998 0.02 68 16 0
3.3039999 0.101 0.023 55 16 0
3.3 0.111 0.025 53 16 0
3.2920001 0.121 0.028000001 62 16 0
3.279 0.131 0.029999999 51 16 0
3.2409999 0.14 0.032000002 31 19 0
3.2320001 0.15000001 0.035 26 16 0
3.2260001 0.16 0.037 27 16 0
3.2190001 0.169 0.039000001 27 16 0
3.211 0.17900001 0.041999999 30 16 0
3.207 0.189 0.044 32 16 0
3.2 0.199 0.046999998 33 16 0
3.198 0.20900001 0.048999999 51 16 0
3.191 0.21799999 0.052000001 86 16 0
3.1900001 0.228 0.054000001 54 16 0
3.1849999 0.23800001 0.057 47 16 0
3.178 0.24699999 0.059 43 16 0
3.171 0.257 0.061999999 51 16 0
3.168 0.266 0.064999998 61 16 0
3.1619999 0.27599999 0.067000002 76 16 0
3.161 0.28600001 0.07 88 16 0
3.1559999 0.29499999 0.071999997 95 16 0
3.152 0.30500001 0.075000003 95 16 0
3.1459999 0.31400001 0.078000002 96 16 0
3.145 0.324 0.079999998 127 16 0
3.1340001 0.33199999 0.082999997 102 16 0
3.1329999 0.34200001 0.086000003 111 16 0
3.1400001 0.35299999 0.089000002 33 16 0
3.174 0.366 0.093000002 19 19 0
3.194 0.37900001 0.096000001 84 16 0
3.1900001 0.38800001 0.098999999 102 16 0
3.187 0.398 0.102 82 16 0
3.178 0.40700001 0.104 67 16 0
3.1789999 0.417 0.107 73 16 0
3.174 0.426 0.11 66 16 0
3.1760001 0.43599999 0.113 61 16 0
3.168 0.44499999 0.116 57 16 0
3.164 0.45500001 0.119 51 16 0
3.1619999 0.46399999 0.122 51 16 0
3.161 0.47400001 0.125 51 16 0
3.1559999 0.48300001 0.12800001 50 16 0
3.148 0.49200001 0.131 50 16 0
3.1470001 0.50199997 0.134 49 16 0
3.145 0.51099998 0.13699999 58 16 0
3.1400001 0.51999998 0.14 65 16 0
3.1289999 0.528 0.142 82 16 0
3.1300001 0.53799999 0.146 98 16 0
3.1229999 0.54699999 0.148 100 16 0
3.119 0.55599999 0.15099999 111 16 0
3.1170001 0.565 0.155 103 16 0
3.1140001 0.574 0.15800001 115 16 0
3.1159999 0.58399999 0.161 120 16 0
3.1070001 0.59299999 0.164 103 16 0
3.105 0.602 0.167 105 16 0
3.099 0.61000001 0.17 136 16 0
3.099 0.62 0.17399999 150 16 0
3.095 0.62900001 0.177 150 16 0
3.0929999 0.63800001 0.18000001 150 16 0
3.0899999 0.64700001 0.183 137 16 0
3.0869999 0.65600002 0.18700001 127 16 0
3.082 0.66500002 0.19 116 16 0
3.0780001 0.67400002 0.193 80 16 0
3.0710001 0.68199998 0.19599999 49 16 0
3.0669999 0.69099998 0.199 43 16 0
3.0569999 0.69800001 0.20200001 37 16 0
3.049 0.70599997 0.205 36 16 0
3.046 0.71399999 0.20900001 35 16 0
3.029 0.72000003 0.211 32 16 0
3.027 0.72899997 0.215 33 16 0
3.0179999 0.736 0.21799999 33 16 0
3.0079999 0.74299997 0.22 33 16 0
3.0009999 0.75099999 0.223 31 16 0
2.994 0.75800002 0.227 33 16 0
2.9920001 0.76700002 0.23 33 16 0
2.984 0.77399999 0.233 33 16 0
2.974 0.78100002 0.236 33 16 0
2.964 0.78799999 0.23899999 33 16 0
2.9579999 0.79500002 0.242 34 16 0
2.948 0.80199999 0.245 38 16 0
2.937 0.80800003 0.248 39 16 0
2.937 0.81699997 0.252 46 16 0
2.928 0.824 0.255 66 16 0
2.9219999 0.83099997 0.25799999 100 16 0
2.9200001 0.83899999 0.26199999 150 16 0
2.9100001 0.84600002 0.26499999 150 16 0
2.908 0.85399997 0.26899999 150 16 0
2.905 0.86199999 0.27200001 150 16 0
2.901 0.87 0.27599999 150 16 0
2.898 0.87800002 0.28 150 16 0
2.8959999 0.88700002 0.28299999 150 16 0
2.8940001 0.89499998 0.287 150 16 0
2.891 0.903 0.29100001 150 16 0
2.888 0.91100001 0.294 150 16 0
2.885 0.91900003 0.29800001 150 16 0
2.882 0.92699999 0.30199999 150 16 0
2.8789999 0.935 0.30599999 150 16 0
2.882 0.94400001 0.31 150 16 0
2.8740001 0.95099998 0.31400001 150 16 0
2.8710001 0.95899999 0.317 150 16 0
2.8729999 0.96799999 0.322 150 16 0
2.868 0.97500002 0.32600001 150 16 0
2.868 0.98400003 0.33000001 150 16 0
2.8659999 0.99199998 0.33399999 150 16 0
2.8629999 1 0.338 150 16 0
2.859 1.007 0.34200001 150 16 0
2.859 1.016 0.34599999 150 16 0
2.8529999 1.023 0.34999999 150 16 0
2.8499999 1.03 0.354 150 16 0
2.8529999 1.04 0.359 150 16 0
2.8469999 1.046 0.36199999 150 16 0
2.842 1.053 0.366 150 16 0
2.8440001 1.062 0.37099999 150 16 0
2.8410001 1.0700001 0.375 150 16 0
2.839 1.0779999 0.37900001 150 16 0
2.836 1.085 0.384 150 16 0
2.832 1.092 0.38800001 150 16 0
2.829 1.099 0.39199999 150 16 0
2.8280001 1.107 0.396 150 16 0
2.8310001 1.117 0.40099999 150 16 0
2.8280001 1.124 0.40599999 150 16 0
2.825 1.131 0.41 150 16 0
2.8199999 1.138 0.414 150 16 0
2.8210001 1.146 0.419 150 16 0
2.819 1.154 0.42399999 150 16 0
2.819 1.1619999 0.42899999 150 16 0
2.8139999 1.168 0.43200001 150 16 0
2.8139999 1.176 0.43700001 150 16 0
2.8110001 1.183 0.442 150 16 0
2.8069999 1.1900001 0.44600001 150 16 0
2.8050001 1.197 0.45100001 150 16 0
2.8039999 1.204 0.456 150 16 0
2.8 1.211 0.46000001 150 16 0
2.799 1.219 0.465 150 16 0
2.7980001 1.226 0.47 150 16 0
2.796 1.233 0.47400001 150 16 0
2.7950001 1.2410001 0.479 150 16 0
2.79 1.2460001 0.484 150 16 0
2.7909999 1.255 0.48899999 150 16 0
2.79 1.262 0.49399999 150 16 0
2.7909999 1.27 0.49900001 150 16 0
2.79 1.277 0.50400001 150 16 0
2.7880001 1.284 0.509 150 16 0
2.7820001 1.289 0.514 150 16 0
2.7869999 1.299 0.51999998 150 16 0
2.786 1.306 0.52499998 150 16 0
2.7820001 1.312 0.52999997 150 16 0
2.7820001 1.319 0.53500003 150 16 0
2.7839999 1.3279999 0.54100001 150 16 0
2.779 1.332 0.54500002 150 16 0
2.7780001 1.339 0.55000001 150 16 0
2.773 1.344 0.55500001 150 16 0
2.7709999 1.351 0.56 150 16 0
2.7720001 1.358 0.565 150 16 0
2.7709999 1.365 0.57099998 150 16 0
2.767 1.37 0.57599998 150 16 0
2.767 1.377 0.58099997 150 16 0
2.766 1.3839999 0.58600003 150 16 0
2.7579999 1.387 0.58999997 66 16 0
2.7520001 1.39 0.59500003 42 16 0
2.743 1.392 0.59799999 39 16 0
2.7320001 1.393 0.60100001 35 16 0
2.727 1.397 0.60600001 37 16 0
2.723 1.402 0.61000001 36 16 0
2.7049999 1.399 0.61199999 34 16 0
2.697 1.401 0.616 34 16 0
2.694 1.406 0.62 35 16 0
2.681 1.405 0.62300003 36 16 0
2.6760001 1.409 0.62699997 35 16 0
2.668 1.411 0.63099998 35 16 0
2.6589999 1.4119999 0.63499999 35 16 0
2.6500001 1.413 0.63800001 34 16 0
2.6459999 1.416 0.64200002 36 16 0
2.632 1.415 0.64499998 34 16 0
2.6240001 1.416 0.648 35 16 0
2.618 1.418 0.65200001 35 16 0
2.612 1.421 0.65600002 35 16 0
2.6029999 1.421 0.65899998 35 16 0
2.5899999 1.419 0.66100001 35 16 0
2.5799999 1.419 0.66399997 34 16 0
2.5739999 1.421 0.66799998 34 16 0
2.5669999 1.421 0.67199999 34 16 0
2.5610001 1.423 0.676 35 16 0
2.556 1.425 0.68000001 34 16 0
2.546 1.424 0.68199998 34 16 0
2.5380001 1.424 0.68599999 34 16 0
2.529 1.423 0.68800002 34 16 0
2.523 1.425 0.69199997 33 16 0
2.5120001 1.423 0.69400001 34 16 0
2.5090001 1.425 0.699 33 16 0
2.5009999 1.425 0.70200002 34 16 0
2.4949999 1.426 0.70599997 33 16 0
2.4909999 1.427 0.70899999 34 16 0
2.4849999 1.427 0.713 39 16 0
2.471 1.423 0.71399999 39 16 0
2.461 1.421 0.71600002 39 16 0
2.4579999 1.423 0.72000003 41 16 0
2.4530001 1.423 0.72399998 41 16 0
2.4449999 1.4220001 0.727 39 16 0
2.437 1.42 0.72899997 41 16 0
2.4300001 1.419 0.73199999 38 16 0
2.427 1.421 0.736 39 16 0
2.418 1.418 0.73799998 40 16 0
2.4130001 1.418 0.74199998 38 16 0
2.404 1.415 0.74400002 38 16 0
2.401 1.416 0.74800003 39 16 0
2.392 1.413 0.74900001 38 16 0
2.3859999 1.4119999 0.75199997 38 16 0
2.3789999 1.41 0.755 39 16 0
2.375 1.41 0.75800002 37 16 0
2.368 1.408 0.76099998 38 16 0
2.3629999 1.406 0.764 38 16 0
2.3570001 1.404 0.76599997 38 16 0
2.3540001 1.404 0.76999998 38 16 0
2.3429999 1.399 0.76999998 37 16 0
2.3369999 1.397 0.773 37 16 0
2.335 1.397 0.77600002 37 16 0
2.3280001 1.3940001 0.778 40 16 0
2.319 1.39 0.77899998 38 16 0
2.3199999 1.391 0.78399998 38 16 0
2.313 1.388 0.78600001 39 16 0
2.3050001 1.3839999 0.787 38 16 0
2.3010001 1.382 0.79000002 38 16 0
2.3 1.382 0.79299998 39 16 0
2.2950001 1.38 0.79500002 39 16 0
2.2869999 1.375 0.79699999 39 16 0
2.283 1.373 0.79900002 39 16 0
2.2780001 1.37 0.801 38 16 0
2.273 1.367 0.80299997 39 16 0
2.2720001 1.367 0.80599999 38 16 0
2.2639999 1.3609999 0.80699998 39 16 0
2.2620001 1.36 0.80900002 43 16 0
2.2550001 1.355 0.81099999 40 16 0
2.25 1.352 0.81199998 40 16 0
2.247 1.349 0.81400001 39 16 0
2.2479999 1.349 0.81800002 43 16 0
2.2449999 1.346 0.81999999 53 16 0
2.2409999 1.3430001 0.82200003 58 16 0
2.2390001 1.341 0.824 59 16 0
2.233 1.336 0.82499999 58 16 0
2.2290001 1.332 0.82599998 47 16 0
2.2309999 1.332 0.82999998 54 16 0
2.2219999 1.326 0.829 59 19 0
2.2219999 1.324 0.83200002 54 16 0
2.221 1.321 0.83399999 57 16 0
2.2130001 1.3150001 0.83399999 57 19 0
2.21 1.311 0.83499998 56 16 0
2.21 1.309 0.83700001 64 16 0
2.2049999 1.304 0.838 64 16 0
2.2049999 1.302 0.83999997 60 16 0
2.2030001 1.298 0.84200001 59 16 0
2.197 1.2920001 0.84100002 52 16 0
2.2 1.2920001 0.84500003 53 16 0
2.194 1.285 0.84399998 64 16 0
2.188 1.279 0.84399998 60 16 0
2.1860001 1.275 0.84500003 65 16 0
2.187 1.273 0.847 65 16 0
2.1819999 1.267 0.847 61 16 0
2.1789999 1.263 0.84799999 66 16 0
2.1800001 1.26 0.84899998 72 16 0
2.181 1.257 0.85100001 71 16 0
2.177 1.252 0.85100001 58 16 0
2.178 1.249 0.85299999 75 16 0
2.1760001 1.244 0.85299999 74 16 0
2.175 1.24 0.85399997 76 16 0
2.1689999 1.233 0.85299999 76 16 0
2.1700001 1.23 0.85399997 75 16 0
2.174 1.228 0.85699999 84 16 0
2.1659999 1.22 0.85500002 81 19 0
2.164 1.215 0.85399997 78 16 0
2.1670001 1.2130001 0.85699999 81 16 0
2.1659999 1.2079999 0.85699999 81 16 0
2.165 1.2029999 0.85699999 87 16 0
2.1670001 1.2 0.85799998 90 16 0
2.1619999 1.193 0.85699999 89 16 0
2.1630001 1.189 0.85799998 87 16 0
2.1619999 1.184 0.85799998 91 16 0
2.164 1.181 0.85799998 87 16 0
2.164 1.176 0.85799998 88 16 0
2.1659999 1.1720001 0.85900003 89 16 0
2.1670001 1.168 0.86000001 88 16 0
2.164 1.1619999 0.85900003 92 16 0
2.1659999 1.158 0.85900003 90 16 0
2.1670001 1.154 0.85900003 92 16 0
2.1670001 1.149 0.85900003 97 16 0
2.1670001 1.1440001 0.85900003 87 16 0
2.1659999 1.138 0.85799998 87 16 0
2.168 1.1339999 0.85799998 90 16 0
2.1700001 1.1289999 0.85799998 90 16 0
2.1689999 1.124 0.85699999 96 16 0
2.165 1.1160001 0.85500002 76 16 0
2.171 1.114 0.85600001 91 16 0
2.1730001 1.11 0.85600001 91 16 0
2.1700001 1.103 0.85399997 86 16 0
2.175 1.1 0.85500002 96 16 0
2.178 1.096 0.85500002 98 16 0
2.175 1.089 0.85299999 103 16 0
2.177 1.084 0.85299999 99 16 0
2.1789999 1.08 0.852 99 16 0
2.178 1.073 0.85100001 99 16 0
2.184 1.071 0.85100001 102 16 0
2.184 1.0650001 0.85000002 107 16 0
2.1830001 1.058 0.84799999 94 16 0
2.187 1.054 0.84799999 96 16 0
2.1889999 1.049 0.847 93 16 0
2.1919999 1.045 0.84600002 102 16 0
2.1930001 1.039 0.84500003 101 16 0
2.1989999 1.036 0.84500003 112 16 0
2.2 1.03 0.84399998 104 16 0
2.201 1.025 0.84200001 107 16 0
2.207 1.021 0.84200001 114 16 0
2.207 1.015 0.83999997 114 16 0
2.2079999 1.01 0.838 105 16 0
2.2149999 1.007 0.83899999 110 16 0
2.2149999 1 0.83700001 123 16 0
2.2179999 0.99599999 0.83600003 116 16 0
2.223 0.991 0.83499998 120 16 0
2.2260001 0.986 0.83399999 111 16 0
2.227 0.98000002 0.83099997 112 16 0
2.2349999 0.97799999 0.83200002 123 16 0
2.2320001 0.97000003 0.82800001 100 16 0
2.24 0.96700001 0.829 116 16 0
2.243 0.96200001 0.82700002 118 16 0
2.243 0.95499998 0.824 112 16 0
2.2460001 0.94999999 0.82200003 104 16 0
2.2579999 0.949 0.824 105 16 0
2.257 0.94199997 0.81999999 106 16 0
2.2639999 0.93800002 0.81999999 99 16 0
2.2690001 0.93400002 0.81900001 116 16 0
2.2720001 0.92799997 0.81699997 112 16 0
2.2750001 0.92299998 0.815 94 16 0
2.279 0.91799998 0.81300002 96 16 0
2.2820001 0.91299999 0.81099999 94 16 0
2.289 0.90899998 0.81 99 16 0
2.2909999 0.903 0.80699998 99 16 0
2.296 0.898 0.80599999 97 16 0
2.3010001 0.89399999 0.80400002 97 16 0
2.3039999 0.88800001 0.801 101 16 0
2.3080001 0.88300002 0.79900002 105 16 0
2.3110001 0.87699997 0.79699999 107 16 0
2.3169999 0.87300003 0.79500002 107 16 0
2.3210001 0.86699998 0.79299998 105 16 0
2.3310001 0.86400002 0.792 98 16 0
2.3340001 0.85900003 0.79000002 101 16 0
2.3399999 0.85399997 0.78799999 95 16 0
2.345 0.84899998 0.78600001 99 16 0
2.348 0.84399998 0.78299999 102 16 0
2.352 0.838 0.77999997 95 16 0
2.3610001 0.83499998 0.77899998 100 16 0
2.365 0.829 0.77600002 99 16 0
2.3640001 0.82200003 0.77200001 104 16 0
2.3789999 0.81999999 0.77200001 101 16 0
2.3840001 0.815 0.76999998 99 16 0
2.3840001 0.80900002 0.76599997 97 16 0
2.391 0.80400002 0.76300001 98 16 0
2.3959999 0.79900002 0.76099998 100 16 0
2.405 0.79500002 0.759 102 16 0
2.4089999 0.79000002 0.75599998 102 16 0
2.4200001 0.78600001 0.755 106 16 0
2.421 0.77999997 0.75099999 90 16 0
2.4260001 0.77399999 0.74800003 101 16 0
2.437 0.77100003 0.74699998 103 16 0
2.4460001 0.76700002 0.745 91 16 0
2.448 0.76099998 0.741 91 16 0
2.457 0.75700003 0.73900002 94 16 0
2.4590001 0.75 0.73400003 89 16 0
2.4630001 0.745 0.73100001 96 16 0
2.47 0.74000001 0.72799999 101 16 0
2.4790001 0.736 0.72600001 98 16 0
2.4879999 0.73100001 0.72399998 98 16 0
2.4960001 0.727 0.72100002 102 16 0
2.5090001 0.72399998 0.72000003 95 16 0
2.5150001 0.71899998 0.71700001 92 16 0
2.5209999 0.713 0.713 93 16 0
2.5250001 0.70700002 0.70899999 100 16 0
2.529 0.70200002 0.70499998 97 16 0
2.539 0.69700003 0.70300001 74 16 0
2.5420001 0.69099998 0.69800001 68 16 0
2.5510001 0.68699998 0.69599998 63 16 0
2.559 0.68199998 0.69199997 71 16 0
2.5699999 0.67799997 0.69 72 16 0
2.5769999 0.67299998 0.68599999 71 16 0
2.586 0.66799998 0.68400002 70 16 0
2.592 0.66299999 0.68000001 70 16 0
2.598 0.65700001 0.676 66 16 0
2.6070001 0.653 0.67299998 62 16 0
2.6070001 0.64600003 0.667 62 16 0
2.6159999 0.64099997 0.66399997 72 16 0
2.6270001 0.63700002 0.66100001 58 16 0
2.641 0.63300002 0.65899998 64 16 0
2.6429999 0.62699997 0.65399998 56 16 0
2.652 0.62199998 0.64999998 57 16 0
2.658 0.61699998 0.64600003 55 16 0
2.6700001 0.61199999 0.64300001 58 16 0
2.6789999 0.60699999 0.639 38 16 0
2.684 0.602 0.63499999 40 16 0
2.698 0.59799999 0.63200003 40 16 0
2.707 0.59299999 0.62800002 40 16 0
2.71 0.58600003 0.62300003 40 16 0
2.72 0.58099997 0.61900002 40 16 0
2.733 0.57700002 0.616 39 16 0
2.7409999 0.57200003 0.61199999 37 16 0
2.7539999 0.56800002 0.60900003 38 16 0
2.7639999 0.56300002 0.60500002 41 16 0
2.7679999 0.55699998 0.59899998 37 16 0
2.7820001 0.55199999 0.59600002 37 16 0
2.7880001 0.54699999 0.59100002 38 16 0
2.799 0.542 0.58700001 38 16 0
2.8099999 0.537 0.583 36 16 0
2.825 0.53299999 0.57999998 38 16 0
2.8280001 0.52600002 0.574 38 16 0
2.8399999 0.52100003 0.56999999 38 16 0
2.848 0.51599997 0.565 37 16 0
2.862 0.51099998 0.56199998 36 16 0
2.8740001 0.50599998 0.55699998 36 16 0
2.885 0.50099999 0.55299997 38 16 0
2.8940001 0.49599999 0.54799998 36 16 0
2.9000001 0.49000001 0.542 35 16 0
2.9100001 0.484 0.53799999 35 16 0
2.9289999 0.47999999 0.53399998 36 16 0
2.9419999 0.47499999 0.52999997 36 16 0
2.9530001 0.47 0.52499998 34 16 0
2.9619999 0.465 0.51999998 34 16 0
2.974 0.45899999 0.51499999 33 16 0
2.9909999 0.45500001 0.51099998 35 16 0
2.9990001 0.449 0.505 33 16 0
3.0109999 0.44299999 0.5 33 16 0
3.023 0.43799999 0.495 35 16 0
3.0369999 0.433 0.49000001 34 16 0
3.046 0.42699999 0.48500001 34 16 0
3.0599999 0.42199999 0.47999999 34 16 0
3.0739999 0.417 0.47499999 33 16 0
3.086 0.41100001 0.46900001 33 16 0
3.096 0.405 0.46399999 34 16 0
3.1099999 0.40000001 0.458 34 16 0
3.1259999 0.39500001 0.45300001 34 16 0
3.1400001 0.389 0.44800001 34 16 0
3.151 0.38299999 0.442 34 16 0
3.164 0.37799999 0.43599999 36 16 0
3.1760001 0.37200001 0.43000001 36 16 0
3.1889999 0.366 0.42399999 35 16 0
3.2079999 0.361 0.419 36 16 0
3.22 0.35499999 0.41299999 43 16 0
3.2279999 0.34900001 0.40700001 114 16 0
3.2279999 0.34099999 0.39899999 150 16 0
3.23 0.33399999 0.391 150 16 0
3.227 0.32699999 0.38299999 150 16 0
3.237 0.31999999 0.377 150 16 0
3.23 0.31299999 0.368 150 16 0
3.2309999 0.30500001 0.36000001 150 16 0
3.233 0.29800001 0.35299999 148 16 0
3.234 0.29100001 0.345 150 16 0
3.233 0.28400001 0.33700001 142 16 0
3.2349999 0.27700001 0.33000001 146 16 0
3.2390001 0.27000001 0.322 150 16 0
3.234 0.26300001 0.31400001 150 16 0
3.237 0.25600001 0.30599999 150 16 0
3.2360001 0.249 0.29800001 150 16 0
3.2379999 0.242 0.28999999 144 16 0
3.2360001 0.235 0.28200001 150 16 0
3.237 0.228 0.27500001 150 16 0
3.2379999 0.221 0.26699999 150 16 0
3.2360001 0.214 0.259 150 16 0
3.2390001 0.207 0.25099999 150 16 0
3.234 0.2 0.243 150 16 0
3.1259999 0.18700001 0.227 150 17 0
3.053 0.176 0.214 35 16 0
3.0450001 0.169 0.206 19 16 0
3.1429999 0.168 0.205 41 17 0
3.234 0.16599999 0.20299999 110 19 0
3.2379999 0.15899999 0.19499999 121 16 0
3.2360001 0.152 0.18700001 123 16 0
3.2449999 0.146 0.17900001 127 16 0
3.24 0.139 0.171 114 16 0
3.2409999 0.132 0.163 114 16 0
3.2390001 0.125 0.155 125 16 0
3.237 0.118 0.147 118 16 0
3.24 0.112 0.139 88 16 0
3.244 0.105 0.131 40 16 0
3.2639999 0.098999999 0.123 28 16 0
3.2809999 0.093000002 0.116 27 16 0
3.3010001 0.086999997 0.108 28 16 0
3.3199999 0.079999998 0.101 30 16 0
3.335 0.074000001 0.093000002 26 16 0
3.326 0.067000002 0.083999999 5 16 0
3.296 0.059 0.075000003 10 19 0
3.2920001 0.052999999 0.067000002 12 16 0
3.3210001 0.046 0.059 4 16 0
3.342 0.039999999 0.050999999 29 16 0
3.346 0.033 0.041999999 64 16 0
3.352 0.027000001 0.034000002 44 16 0
3.335 0.02 0.025 22 16 0
3.3139999 0.013 0.017000001 18 16 0
3.2980001 0.0060000001 0.0080000004 17 16 0
3.2780001 0 0 17 16 0
3.26 -0.0060000001 -0.0080000004 16 16 0
3.244 -0.012 -0.016000001 20 16 0
3.2290001 -0.018999999 -0.024 37 16 0
3.23 -0.025 -0.032000002 95 16 0
3.2349999 -0.030999999 -0.041000001 110 16 0
3.233 -0.037999999 -0.048999999 116 16 0
3.2349999 -0.044 -0.057 128 16 0
3.234 -0.050000001 -0.066 129 16 0
3.2309999 -0.057 -0.074000001 124 16 0
3.2279999 -0.063000001 -0.082000002 150 16 0
3.2320001 -0.068999998 -0.090999998 114 16 0
3.2179999 -0.075000003 -0.098999999 38 16 0
3.2030001 -0.081 -0.106 26 16 0
3.1860001 -0.086999997 -0.114 25 16 0
3.168 -0.092 -0.122 26 16 0
3.154 -0.097999997 -0.12899999 26 16 0
3.1359999 -0.104 -0.13699999 26 16 0
3.119 -0.109 -0.14399999 25 16 0
3.105 -0.114 -0.152 23 16 0
3.089 -0.12 -0.15899999 23 16 0
3.0780001 -0.125 -0.167 23 16 0
3.0650001 -0.131 -0.17399999 23 16 0
3.0439999 -0.13500001 -0.18099999 24 16 0
3.0320001 -0.141 -0.18799999 23 16 0
3.0120001 -0.145 -0.19499999 24 16 0
2.997 -0.15000001 -0.20200001 23 16 0
2.983 -0.155 -0.20900001 23 16 0
2.9719999 -0.16 -0.21600001 23 16 0
2.9630001 -0.16500001 -0.223 23 16 0
2.9430001 -0.17 -0.229 23 16 0
2.934 -0.175 -0.237 23 16 0
2.918 -0.17900001 -0.243 24 16 0
2.901 -0.184 -0.249 24 16 0
2.8929999 -0.18799999 -0.257 25 16 0
2.8800001 -0.193 -0.26300001 24 16 0
2.8610001 -0.197 -0.26899999 24 16 0
2.852 -0.20200001 -0.27599999 23 16 0
2.8380001 -0.206 -0.28200001 24 16 0
2.829 -0.20999999 -0.289 22 16 0
2.812 -0.214 -0.29499999 24 16 0
2.802 -0.21799999 -0.301 24 16 0
2.793 -0.223 -0.308 23 16 0
2.7839999 -0.227 -0.315 26 16 0
2.7679999 -0.23100001 -0.31999999 26 16 0
2.7579999 -0.235 -0.32699999 27 16 0
2.75 -0.23899999 -0.333 27 16 0
2.7379999 -0.243 -0.33899999 26 16 0
2.724 -0.24699999 -0.345 25 16 0
2.7130001 -0.25099999 -0.35100001 27 16 0
2.707 -0.255 -0.35800001 27 16 0
2.701 -0.259 -0.36399999 27 16 0
2.6849999 -0.26199999 -0.37 26 16 0
2.678 -0.266 -0.37599999 28 16 0
2.6659999 -0.27000001 -0.382 26 16 0
2.6559999 -0.27399999 -0.38800001 25 16 0
2.641 -0.27700001 -0.39300001 27 16 0
2.632 -0.28 -0.39899999 26 16 0
2.6210001 -0.28400001 -0.405 27 16 0
2.6170001 -0.28799999 -0.412 26 16 0
2.599 -0.29100001 -0.41600001 26 16 0
2.596 -0.29499999 -0.42300001 27 16 0
2.5829999 -0.29800001 -0.428 27 16 0
2.5710001 -0.301 -0.433 28 16 0
2.5650001 -0.30399999 -0.44 27 16 0
2.5580001 -0.308 -0.44600001 30 16 0
2.5450001 -0.31099999 -0.45100001 29 16 0
2.5380001 -0.31400001 -0.45699999 29 16 0
2.5220001 -0.317 -0.461 30 16 0
2.5179999 -0.31999999 -0.46799999 29 16 0
2.5090001 -0.32300001 -0.47299999 30 16 0
2.5009999 -0.32699999 -0.479 31 16 0
2.49 -0.329 -0.484 30 16 0
2.4820001 -0.33199999 -0.48899999 29 16 0
2.474 -0.33500001 -0.495 31 16 0
2.4630001 -0.338 -0.5 30 16 0
2.4579999 -0.34099999 -0.50599998 30 16 0
2.4519999 -0.345 -0.51200002 30 16 0
2.441 -0.347 -0.51700002 30 16 0
2.431 -0.34999999 -0.52200001 29 16 0
2.4260001 -0.35299999 -0.528 29 16 0
2.414 -0.35499999 -0.53200001 30 16 0
2.411 -0.359 -0.53899997 31 16 0
2.4030001 -0.361 -0.54400003 31 16 0
2.392 -0.36300001 -0.54900002 30 16 0
2.3840001 -0.366 -0.55400002 30 16 0
2.3729999 -0.368 -0.55800003 32 16 0
2.3710001 -0.37200001 -0.565 33 16 0
2.3599999 -0.37400001 -0.56900001 35 16 0
2.352 -0.37599999 -0.574 30 16 0
2.346 -0.37900001 -0.57999998 30 16 0
2.335 -0.38100001 -0.58399999 32 16 0
2.325 -0.38299999 -0.588 35 16 0
2.3199999 -0.38499999 -0.59399998 26 16 0
2.3139999 -0.38800001 -0.59899998 28 16 0
2.306 -0.38999999 -0.60399997 29 16 0
2.303 -0.39300001 -0.61000001 28 16 0
2.2920001 -0.39500001 -0.61500001 33 16 0
2.289 -0.398 -0.62099999 35 16 0
2.276 -0.39899999 -0.62400001 34 16 0
2.27 -0.40099999 -0.62900001 29 16 0
2.263 -0.403 -0.634 30 16 0
2.2579999 -0.40599999 -0.63999999 29 16 0
2.2490001 -0.40700001 -0.64399999 28 16 0
2.2449999 -0.41 -0.64999998 37 16 0
2.233 -0.41100001 -0.653 33 16 0
2.2290001 -0.41299999 -0.65899998 34 16 0
2.2249999 -0.41600001 -0.66500002 34 16 0
2.214 -0.417 -0.66799998 32 16 0
2.21 -0.419 -0.67400002 34 16 0
2.204 -0.421 -0.67900002 64 16 0
2.198 -0.42300001 -0.68400002 58 16 0
2.1900001 -0.42500001 -0.68800002 63 16 0
2.1849999 -0.42699999 -0.69300002 64 16 0
2.178 -0.42899999 -0.69800001 67 16 0
2.174 -0.43099999 -0.70300001 84 16 0
2.171 -0.433 -0.70899999 85 16 0
2.1589999 -0.433 -0.71200001 80 16 0
2.155 -0.435 -0.71700001 77 16 0
2.152 -0.43799999 -0.72299999 83 16 0
2.1400001 -0.43799999 -0.72600001 75 16 0
2.138 -0.44 -0.73199999 77 16 0
2.135 -0.44299999 -0.73799998 79 16 0
2.125 -0.44299999 -0.741 78 16 0
2.128 -0.447 -0.74900001 86 16 0
2.1210001 -0.44800001 -0.75300002 86 16 0
2.112 -0.449 -0.75700003 80 16 0
2.1029999 -0.449 -0.75999999 83 16 0
2.1010001 -0.45100001 -0.76599997 81 16 0
2.0940001 -0.45199999 -0.76999998 85 16 0
2.095 -0.45500001 -0.77700001 87 16 0
2.0869999 -0.456 -0.78100002 84 16 0
2.0799999 -0.45699999 -0.78500003 86 16 0
2.076 -0.458 -0.79000002 95 16 0
2.0710001 -0.46000001 -0.79500002 86 16 0
2.066 -0.461 -0.79900002 85 16 0
2.063 -0.463 -0.80500001 88 16 0
2.0580001 -0.46399999 -0.80900002 91 16 0
2.0550001 -0.465 -0.815 90 16 0
2.053 -0.46700001 -0.81999999 95 16 0
2.0420001 -0.46700001 -0.82300001 91 16 0
2.0420001 -0.46900001 -0.829 99 16 0
2.0369999 -0.47 -0.83399999 98 16 0
2.0339999 -0.47099999 -0.83899999 102 16 0
2.0190001 -0.47 -0.83899999 97 16 0
2.0150001 -0.47099999 -0.84399998 96 16 0
2.013 -0.472 -0.85000002 100 16 0
2.006 -0.47299999 -0.85299999 97 16 0
2.003 -0.47400001 -0.85900003 91 16 0
2 -0.47499999 -0.86400002 92 16 0
1.998 -0.47600001 -0.86900002 93 16 0
1.994 -0.477 -0.87400001 97 16 0
1.992 -0.479 -0.87900001 100 16 0
1.985 -0.479 -0.88300002 95 16 0
1.982 -0.47999999 -0.88800001 98 16 0
1.98 -0.48100001 -0.89300001 95 16 0
1.977 -0.48199999 -0.898 118 16 0
1.966 -0.48100001 -0.89999998 112 16 0
1.966 -0.48199999 -0.90499997 117 16 0
1.965 -0.48300001 -0.91100001 111 16 0
1.959 -0.48300001 -0.91500002 119 16 0
1.9579999 -0.48500001 -0.921 128 16 0
1.955 -0.48500001 -0.926 109 16 0
1.949 -0.48500001 -0.92799997 112 16 0
1.949 -0.486 -0.935 116 16 0
1.943 -0.486 -0.93800002 109 16 0
1.943 -0.48699999 -0.94400001 114 16 0
1.941 -0.48800001 -0.949 113 16 0
1.938 -0.48899999 -0.954 104 16 0
1.932 -0.48800001 -0.95700002 113 16 0
1.927 -0.48800001 -0.96100003 111 16 0
1.927 -0.48899999 -0.96600002 117 16 0
1.924 -0.48899999 -0.97100002 107 16 0
1.9220001 -0.49000001 -0.97600001 118 16 0
1.92 -0.49000001 -0.98100001 107 16 0
1.9170001 -0.49000001 -0.98500001 104 16 0
1.914 -0.49000001 -0.99000001 104 16 0
1.91 -0.49000001 -0.99299997 104 16 0
1.908 -0.49000001 -0.99800003 106 16 0
1.911 -0.49200001 -1.005 107 16 0
1.906 -0.491 -1.008 107 16 0
1.903 -0.491 -1.012 102 16 0
1.897 -0.49000001 -1.015 102 16 0
1.899 -0.491 -1.021 100 16 0
1.897 -0.491 -1.026 98 16 0
1.897 -0.491 -1.031 115 16 0
1.8940001 -0.491 -1.036 127 16 0
1.89 -0.49000001 -1.038 131 16 0
1.89 -0.491 -1.044 124 16 0
1.8890001 -0.491 -1.049 122 16 0
1.886 -0.49000001 -1.052 126 16 0
1.888 -0.491 -1.059 125 16 0
1.886 -0.49000001 -1.063 138 16 0
1.8839999 -0.49000001 -1.067 121 16 0
1.882 -0.49000001 -1.071 131 16 0
1.877 -0.48800001 -1.073 120 16 0
1.883 -0.49000001 -1.082 128 16 0
1.883 -0.49000001 -1.087 132 16 0
1.8789999 -0.48800001 -1.09 131 16 0
1.88 -0.48899999 -1.095 125 16 0
1.877 -0.48699999 -1.098 121 16 0
1.881 -0.48800001 -1.105 127 16 0
1.878 -0.48699999 -1.108 126 16 0
1.877 -0.486 -1.112 124 16 0
1.875 -0.48500001 -1.1160001 118 16 0
1.875 -0.48500001 -1.1210001 122 16 0
1.873 -0.484 -1.124 114 16 0
1.8710001 -0.48300001 -1.127 119 16 0
1.87 -0.48199999 -1.131 121 16 0
1.873 -0.48199999 -1.137 114 16 0
1.8710001 -0.48100001 -1.14 121 16 0
1.8789999 -0.48199999 -1.15 113 19 0
1.878 -0.48100001 -1.153 116 16 0
1.878 -0.47999999 -1.158 110 16 0
1.877 -0.479 -1.161 119 16 0
1.877 -0.47799999 -1.165 113 16 0
1.876 -0.477 -1.168 114 16 0
1.878 -0.47600001 -1.173 117 16 0
1.883 -0.47600001 -1.1799999 107 16 0
1.882 -0.47499999 -1.183 108 16 0
1.881 -0.47299999 -1.186 105 16 0
1.882 -0.472 -1.1900001 106 16 0
1.8789999 -0.47 -1.192 104 16 0
1.8839999 -0.47 -1.199 103 16 0
1.887 -0.47 -1.204 105 16 0
1.885 -0.46799999 -1.206 109 16 0
1.888 -0.46700001 -1.211 105 16 0
1.887 -0.465 -1.2130001 101 16 0
1.89 -0.46399999 -1.2180001 95 16 0
1.886 -0.46200001 -1.219 97 16 0
1.893 -0.46200001 -1.226 101 19 0
1.8940001 -0.46000001 -1.229 95 16 0
1.893 -0.458 -1.232 96 16 0
1.895 -0.45699999 -1.2359999 96 16 0
1.897 -0.456 -1.239 101 16 0
1.901 -0.45500001 -1.244 105 16 0
1.9 -0.45199999 -1.2460001 97 16 0
1.902 -0.45100001 -1.25 98 16 0
1.902 -0.449 -1.252 94 16 0
1.906 -0.44800001 -1.256 91 16 0
1.909 -0.44600001 -1.26 95 16 0
1.9119999 -0.44499999 -1.2640001 93 16 0
1.913 -0.44299999 -1.267 99 16 0
1.918 -0.442 -1.272 101 16 0
1.919 -0.44 -1.274 93 16 0
1.924 -0.43799999 -1.279 96 16 0
1.924 -0.43599999 -1.281 87 16 0
1.927 -0.43399999 -1.283 81 16 0
1.931 -0.433 -1.288 85 16 0
1.933 -0.43099999 -1.29 81 16 0
1.937 -0.42899999 -1.293 85 16 0
1.939 -0.42699999 -1.296 81 16 0
1.941 -0.42500001 -1.298 78 16 0
1.944 -0.42300001 -1.301 81 16 0
1.949 -0.421 -1.3049999 81 16 0
1.952 -0.419 -1.307 79 16 0
1.96 -0.41800001 -1.313 79 19 0
1.96 -0.41499999 -1.313 77 16 0
1.965 -0.41299999 -1.317 92 16 0
1.965 -0.41 -1.317 87 16 0
1.974 -0.40900001 -1.323 103 19 0
1.978 -0.40700001 -1.325 88 16 0
1.978 -0.40400001 -1.325 91 16 0
1.985 -0.403 -1.33 88 16 0
1.988 -0.40000001 -1.331 89 16 0
1.992 -0.398 -1.3329999 86 16 0
1.999 -0.396 -1.337 88 16 0
2.0039999 -0.39399999 -1.34 86 16 0
2.0039999 -0.391 -1.339 84 16 0
2.0090001 -0.389 -1.341 107 16 0
2.017 -0.38699999 -1.346 99 16 0
2.02 -0.384 -1.347 102 16 0
2.0250001 -0.382 -1.349 103 16 0
2.0309999 -0.38 -1.351 97 16 0
2.0339999 -0.377 -1.352 101 16 0
2.04 -0.375 -1.354 104 16 0
2.0439999 -0.37200001 -1.355 102 16 0
2.046 -0.36899999 -1.354 98 16 0
2.053 -0.36700001 -1.357 106 16 0
2.0580001 -0.36500001 -1.359 94 16 0
2.0650001 -0.36300001 -1.3609999 100 16 0
2.069 -0.36000001 -1.362 93 16 0
2.0739999 -0.35699999 -1.362 89 16 0
2.082 -0.35499999 -1.365 97 16 0
2.085 -0.352 -1.364 101 16 0
2.0910001 -0.34999999 -1.3660001 94 16 0
2.0929999 -0.347 -1.364 91 16 0
2.0999999 -0.34400001 -1.3660001 90 16 0
2.1059999 -0.34200001 -1.367 89 16 0
2.1110001 -0.33899999 -1.367 89 16 0
2.1170001 -0.336 -1.368 91 16 0
2.1210001 -0.333 -1.367 82 16 0
2.128 -0.331 -1.368 89 16 0
2.135 -0.32800001 -1.369 90 16 0
2.141 -0.32600001 -1.37 89 16 0
2.1470001 -0.32300001 -1.37 85 16 0
2.154 -0.31999999 -1.3710001 79 16 0
2.1559999 -0.317 -1.368 84 16 0
2.1670001 -0.315 -1.3710001 83 16 0
2.1730001 -0.31200001 -1.3710001 91 16 0
2.1789999 -0.30899999 -1.37 86 16 0
2.1830001 -0.30599999 -1.368 92 16 0
2.1860001 -0.303 -1.3660001 89 16 0
2.191 -0.30000001 -1.365 82 16 0
2.204 -0.29800001 -1.368 87 16 0
2.2130001 -0.296 -1.369 95 16 0
2.2149999 -0.29300001 -1.3660001 85 16 0
2.2219999 -0.28999999 -1.3660001 87 16 0
2.23 -0.287 -1.365 79 16 0
2.237 -0.285 -1.365 80 16 0
2.244 -0.28200001 -1.364 83 16 0
2.2479999 -0.27900001 -1.362 78 16 0
2.2539999 -0.27599999 -1.359 90 16 0
2.2609999 -0.273 -1.359 89 16 0
2.2709999 -0.271 -1.359 99 16 0
2.2739999 -0.26800001 -1.3559999 87 16 0
2.286 -0.26499999 -1.357 92 16 0
2.29 -0.26300001 -1.354 93 16 0
2.299 -0.25999999 -1.353 79 16 0
2.3080001 -0.257 -1.353 90 16 0
2.312 -0.25400001 -1.35 86 16 0
2.3180001 -0.252 -1.347 92 16 0
2.323 -0.249 -1.344 90 16 0
2.3329999 -0.24600001 -1.3430001 95 16 0
2.336 -0.243 -1.339 87 16 0
2.3440001 -0.23999999 -1.337 83 16 0
2.355 -0.23800001 -1.337 84 16 0
2.3640001 -0.235 -1.336 88 16 0
2.3670001 -0.23199999 -1.331 84 16 0
2.3740001 -0.23 -1.329 62 16 0
2.3829999 -0.227 -1.327 67 16 0
2.3900001 -0.22400001 -1.324 58 16 0
2.3970001 -0.221 -1.322 62 16 0
2.4000001 -0.21799999 -1.316 49 16 0
2.4070001 -0.21600001 -1.313 54 16 0
2.414 -0.213 -1.3099999 63 16 0
2.4159999 -0.20999999 -1.304 55 16 0
2.4330001 -0.208 -1.306 58 16 0
2.438 -0.205 -1.302 59 16 0
2.441 -0.20200001 -1.296 46 16 0
2.4519999 -0.2 -1.295 52 16 0
2.4560001 -0.197 -1.29 48 16 0
2.4630001 -0.19400001 -1.286 52 16 0
2.473 -0.192 -1.284 45 16 0
2.483 -0.189 -1.281 52 16 0
2.487 -0.18700001 -1.276 44 16 0
2.4920001 -0.184 -1.271 48 16 0
2.4990001 -0.18099999 -1.267 41 16 0
2.506 -0.17900001 -1.263 45 16 0
2.513 -0.176 -1.2589999 48 16 0
2.5220001 -0.17399999 -1.255 46 16 0
2.5280001 -0.171 -1.25 47 16 0
2.5320001 -0.169 -1.244 46 16 0
2.5420001 -0.16599999 -1.2410001 45 16 0
2.5469999 -0.164 -1.2359999 41 16 0
2.5610001 -0.162 -1.234 42 16 0
2.5680001 -0.15899999 -1.23 41 16 0
2.573 -0.15700001 -1.224 43 16 0
2.5799999 -0.154 -1.219 45 16 0
2.589 -0.152 -1.215 45 16 0
2.5940001 -0.149 -1.209 41 16 0
2.602 -0.147 -1.205 40 16 0
2.6099999 -0.145 -1.2 45 16 0
2.6170001 -0.142 -1.1950001 44 16 0
2.6259999 -0.14 -1.1900001 42 16 0
2.6340001 -0.138 -1.186 42 16 0
2.641 -0.13600001 -1.1799999 44 16 0
2.6440001 -0.133 -1.173 41 16 0
2.658 -0.131 -1.17 45 16 0
2.661 -0.12899999 -1.163 44 16 0
2.6700001 -0.127 -1.158 46 16 0
2.6719999 -0.124 -1.15 43 16 0
2.681 -0.122 -1.146 44 16 0
2.6930001 -0.12 -1.142 45 16 0
2.6960001 -0.118 -1.1339999 44 16 0
2.7019999 -0.116 -1.128 41 16 0
2.7049999 -0.113 -1.12 41 16 0
2.7219999 -0.112 -1.119 43 16 0
2.724 -0.109 -1.11 42 16 0
2.7360001 -0.107 -1.1059999 41 16 0
2.7409999 -0.105 -1.099 42 16 0
2.7479999 -0.103 -1.0930001 42 16 0
2.757 -0.101 -1.087 43 16 0
2.7620001 -0.098999999 -1.08 43 16 0
2.7690001 -0.097000003 -1.074 43 16 0
2.776 -0.094999999 -1.067 37 16 0
2.7839999 -0.093000002 -1.061 39 16 0
2.7880001 -0.090999998 -1.053 42 16 0
2.799 -0.090000004 -1.048 71 16 0
2.799 -0.088 -1.039 112 16 0
2.813 -0.086000003 -1.035 150 16 0
2.8199999 -0.083999999 -1.028 150 16 0
2.8210001 -0.082000002 -1.0190001 150 16 0
2.8239999 -0.079999998 -1.011 150 16 0
2.8239999 -0.078000002 -1.001 150 16 0
2.8329999 -0.075999998 -0.995 150 16 0
2.836 -0.075000003 -0.986 150 16 0
2.836 -0.072999999 -0.977 150 16 0
2.8440001 -0.071000002 -0.97000003 150 16 0
2.8469999 -0.068999998 -0.96200001 150 16 0
2.845 -0.067000002 -0.95099998 150 16 0
2.848 -0.066 -0.94300002 150 16 0
2.8510001 -0.064000003 -0.935 150 16 0
2.8540001 -0.061999999 -0.926 150 16 0
2.8559999 -0.061000001 -0.917 150 16 0
2.8599999 -0.059 -0.90899998 150 16 0
2.8629999 -0.057 -0.89999998 150 16 0
2.8659999 -0.056000002 -0.89200002 150 16 0
2.872 -0.054000001 -0.884 150 16 0
2.875 -0.052999999 -0.875 150 16 0
2.8770001 -0.050999999 -0.866 150 16 0
2.8759999 -0.050000001 -0.85600001 150 16 0
2.8829999 -0.048 -0.84899998 150 16 0
2.881 -0.046999998 -0.83899999 150 16 0
2.888 -0.046 -0.83099997 150 16 0
2.888 -0.044 -0.82200003 150 16 0
2.8929999 -0.043000001 -0.81300002 150 16 0
2.895 -0.041000001 -0.80400002 150 16 0
2.898 -0.039999999 -0.79500002 150 16 0
2.905 -0.039000001 -0.78799999 150 16 0
2.908 -0.037999999 -0.77899998 150 16 0
2.9100001 -0.035999998 -0.76999998 150 16 0
2.9130001 -0.035 -0.75999999 150 16 0
2.9130001 -0.034000002 -0.75099999 150 16 0
2.9200001 -0.033 -0.74299997 150 16 0
2.9219999 -0.032000002 -0.73400003 150 16 0
2.9260001 -0.029999999 -0.72500002 116 16 0
2.927 -0.028999999 -0.71600002 93 16 0
2.9349999 -0.028000001 -0.708 64 16 0
2.9389999 -0.027000001 -0.699 45 16 0
2.9449999 -0.026000001 -0.69099998 35 16 0
2.948 -0.025 -0.68199998 32 16 0
2.9519999 -0.024 -0.67299998 30 16 0
2.9560001 -0.023 -0.66399997 28 16 0
2.9630001 -0.022 -0.65600002 26 16 0
2.97 -0.021 -0.64700001 24 16 0
2.9619999 -0.02 -0.63599998 22 16 0
2.9809999 -0.018999999 -0.63 22 16 0
2.987 -0.018999999 -0.62199998 21 16 0
2.9879999 -0.017999999 -0.61199999 21 16 0
2.9979999 -0.017000001 -0.60399997 19 16 0
3.0050001 -0.016000001 -0.59500003 19 16 0
3.013 -0.015 -0.58700001 19 16 0
3.0150001 -0.014 -0.57800001 19 16 0
3.017 -0.014 -0.56800002 20 16 0
3.0239999 -0.013 -0.55900002 20 16 0
3.0339999 -0.012 -0.551 20 16 0
3.0350001 -0.011 -0.54100001 20 16 0
3.0369999 -0.011 -0.53200001 20 16 0
3.0450001 -0.0099999998 -0.523 20 16 0
3.05 -0.0089999996 -0.514 20 16 0
3.0539999 -0.0089999996 -0.505 19 16 0
3.063 -0.0080000004 -0.49599999 20 16 0
3.0669999 -0.0070000002 -0.48699999 20 16 0
3.072 -0.0070000002 -0.477 20 16 0
3.0769999 -0.0060000001 -0.46799999 20 16 0
3.0799999 -0.0060000001 -0.45899999 20 16 0
3.085 -0.0049999999 -0.449 20 16 0
3.0910001 -0.0049999999 -0.44 20 16 0
3.095 -0.0040000002 -0.43000001 20 16 0
3.102 -0.0040000002 -0.421 20 16 0
3.1070001 -0.003 -0.412 21 16 0
3.109 -0.003 -0.40200001 20 16 0
3.115 -0.0020000001 -0.39199999 20 16 0
3.1210001 -0.0020000001 -0.38299999 20 16 0
3.1300001 -0.001 -0.37400001 21 16 0
3.1270001 -0.001 -0.36300001 20 16 0
3.135 -0.001 -0.354 20 16 0
3.1359999 0 -0.34400001 20 16 0
3.142 0 -0.33399999 20 16 0
3.148 0 -0.32499999 20 16 0
3.1530001 0 -0.315 20 16 0
3.1500001 0 -0.30399999 18 16 0
3.1600001 0 -0.29499999 18 16 0
3.164 0 -0.285 18 16 0
3.168 0 -0.27500001 18 16 0
3.174 0.001 -0.26499999 18 16 0
3.178 0.001 -0.255 18 16 0
3.181 0.001 -0.245 18 16 0
3.1819999 0.001 -0.235 18 16 0
3.188 0.001 -0.22499999 18 16 0
3.191 0.001 -0.215 18 16 0
3.197 0.0020000001 -0.205 18 16 0
3.2030001 0.0020000001 -0.19499999 18 16 0
3.2060001 0.0020000001 -0.185 18 16 0
3.211 0.0020000001 -0.175 18 16 0
3.214 0.0020000001 -0.164 18 16 0
3.2219999 0.0020000001 -0.154 18 16 0
3.2219999 0.0020000001 -0.14399999 18 16 0
3.227 0.0020000001 -0.134 18 16 0
3.2320001 0.0020000001 -0.123 19 16 0
3.23 0.001 -0.113 18 16 0
3.233 0.001 -0.102 18 16 0
3.2379999 0.001 -0.092 19 16 0
3.247 0.001 -0.082000002 19 16 0
3.2490001 0.001 -0.071000002 19 16 0
3.2509999 0.001 -0.061000001 18 16 0
3.2550001 0.001 -0.050000001 19 16 0
3.2609999 0 -0.039999999 18 16 0
3.2609999 0 -0.028999999 18 16 0
3.2650001 0 -0.018999999 18 16 0
3.2709999 0 -0.0080000004 19 16 0
3.277 0 0.001 19 16 0
3.283 0 0.012 19 16 0
3.2820001 0 0.022 18 16 0
3.2920001 -0.001 0.033 19 16 0
3.2920001 -0.001 0.044 19 16 0
3.296 -0.001 0.055 19 16 0
3.2969999 -0.0020000001 0.064999998 19 16 0
3.3039999 -0.0020000001 0.075999998 19 16 0
3.2980001 -0.0020000001 0.086999997 20 16 0
3.302 -0.003 0.097999997 29 16 0
3.2969999 -0.003 0.108 61 16 0
3.2909999 -0.0040000002 0.118 150 16 0
3.2950001 -0.0040000002 0.12899999 150 16 0
3.303 -0.0049999999 0.14 150 16 0
3.3080001 -0.0049999999 0.15099999 150 16 0
3.313 -0.0060000001 0.162 150 16 0
3.3169999 -0.0070000002 0.17299999 150 16 0
3.3210001 -0.0070000002 0.184 150 16 0
3.329 -0.0080000004 0.19499999 150 16 0
3.3340001 -0.0089999996 0.206 150 16 0
3.3369999 -0.0089999996 0.21699999 142 16 0
3.3429999 -0.0099999998 0.229 150 16 0
3.3510001 -0.011 0.23999999 150 16 0
3.358 -0.011 0.25099999 150 16 0
3.3599999 -0.012 0.26300001 150 16 0
3.365 -0.013 0.27399999 150 16 0
3.3699999 -0.014 0.285 150 16 0
3.375 -0.015 0.29699999 150 16 0
3.378 -0.015 0.308 139 16 0
3.381 -0.016000001 0.31900001 130 16 0
3.3870001 -0.017000001 0.331 150 16 0
3.3859999 -0.017999999 0.34099999 67 16 0
3.3699999 -0.018999999 0.35100001 37 16 0
3.3469999 -0.02 0.359 36 16 0
3.323 -0.02 0.368 35 16 0
3.306 -0.021 0.37599999 35 16 0
3.2839999 -0.022 0.38499999 36 16 0
3.273 -0.023 0.39399999 37 16 0
3.247 -0.024 0.40099999 35 16 0
3.2320001 -0.025 0.41 36 16 0
3.2179999 -0.026000001 0.419 37 16 0
3.1919999 -0.026000001 0.426 36 16 0
3.1760001 -0.027000001 0.43399999 41 16 0
3.1589999 -0.028000001 0.442 43 16 0
3.1400001 -0.028999999 0.449 42 16 0
3.1210001 -0.029999999 0.45699999 40 16 0
3.1040001 -0.030999999 0.46399999 42 16 0
3.082 -0.032000002 0.47099999 40 16 0
3.072 -0.033 0.47999999 38 16 0
3.056 -0.034000002 0.48699999 41 16 0
3.0339999 -0.035 0.49399999 42 16 0
3.0209999 -0.035999998 0.50099999 39 16 0
3.007 -0.037 0.509 41 16 0
2.9890001 -0.037999999 0.51599997 38 16 0
2.9790001 -0.039000001 0.52399999 39 16 0
2.9619999 -0.039999999 0.52999997 40 16 0
2.9419999 -0.041000001 0.53600001 40 16 0
2.9300001 -0.041999999 0.54400003 40 16 0
2.914 -0.043000001 0.55000001 41 16 0
2.895 -0.044 0.55599999 41 16 0
2.885 -0.045000002 0.56400001 39 16 0
2.8659999 -0.046 0.56900001 35 16 0
2.849 -0.046999998 0.57599998 34 16 0
2.839 -0.048 0.583 38 16 0
2.825 -0.050000001 0.58899999 47 16 0
2.8110001 -0.050999999 0.59500003 55 16 0
2.802 -0.052000001 0.60299999 65 16 0
2.7820001 -0.052999999 0.60799998 69 16 0
2.7709999 -0.054000001 0.61400002 72 16 0
2.76 -0.055 0.62099999 70 16 0
2.7460001 -0.057 0.62699997 85 16 0
2.7320001 -0.057999998 0.63200003 80 16 0
2.72 -0.059 0.639 79 16 0
2.698 -0.059999999 0.64200002 79 16 0
2.688 -0.061000001 0.64899999 79 16 0
2.681 -0.063000001 0.65600002 84 16 0
2.6689999 -0.064000003 0.662 84 16 0
2.654 -0.064999998 0.667 89 16 0
2.6400001 -0.066 0.67199999 77 16 0
2.6300001 -0.067000002 0.67799997 98 16 0
2.6240001 -0.068999998 0.685 91 16 0
2.605 -0.07 0.68900001 102 16 0
2.589 -0.071000002 0.69300002 124 16 0
2.576 -0.071999997 0.69800001 116 16 0
2.566 -0.074000001 0.704 115 16 0
2.552 -0.075000003 0.708 111 16 0
2.5409999 -0.075999998 0.71399999 126 16 0
2.5320001 -0.078000002 0.72000003 108 16 0
2.5179999 -0.079000004 0.72399998 119 16 0
2.5079999 -0.081 0.72899997 118 16 0
2.4960001 -0.082000002 0.73400003 117 16 0
2.4849999 -0.082999997 0.73900002 125 16 0
2.4749999 -0.085000001 0.74400002 115 16 0
2.4660001 -0.086000003 0.75 121 16 0
2.4489999 -0.086999997 0.75300002 122 16 0
2.4389999 -0.089000002 0.75800002 137 16 0
2.434 -0.090000004 0.764 132 16 0
2.4230001 -0.092 0.76800001 107 16 0
2.4159999 -0.093999997 0.77399999 118 16 0
2.404 -0.094999999 0.778 129 16 0
2.3940001 -0.096000001 0.78299999 127 16 0
2.3840001 -0.097999997 0.78799999 122 16 0
2.3770001 -0.1 0.79299998 127 16 0
2.3670001 -0.101 0.79799998 127 16 0
2.3570001 -0.103 0.80199999 122 16 0
2.348 -0.104 0.80699998 110 16 0
2.339 -0.106 0.81099999 110 16 0
2.329 -0.107 0.81599998 127 16 0
2.3199999 -0.109 0.81999999 118 16 0
2.309 -0.11 0.824 120 16 0
2.296 -0.112 0.82700002 122 16 0
2.286 -0.113 0.83099997 142 16 0
2.2809999 -0.115 0.83600003 140 16 0
2.2690001 -0.117 0.83899999 150 16 0
2.2590001 -0.118 0.84299999 150 16 0
2.2509999 -0.12 0.847 150 16 0
2.2420001 -0.122 0.85100001 150 16 0
2.2309999 -0.123 0.85399997 150 16 0
2.23 -0.125 0.861 150 16 0
2.2160001 -0.127 0.86299998 150 16 0
2.211 -0.12899999 0.86900002 150 16 0
2.2 -0.13 0.87099999 150 16 0
2.188 -0.132 0.87400001 150 16 0
2.1789999 -0.133 0.87699997 150 16 0
2.1719999 -0.13500001 0.88200003 150 16 0
2.161 -0.13699999 0.884 150 16 0
2.158 -0.139 0.88999999 150 16 0
2.1459999 -0.14 0.89200002 150 16 0
2.142 -0.142 0.89700001 150 16 0
2.1329999 -0.14399999 0.89999998 150 16 0
2.1259999 -0.146 0.90399998 150 16 0
2.118 -0.148 0.90799999 150 16 0
2.1059999 -0.149 0.90899998 150 16 0
2.0999999 -0.15099999 0.91299999 150 16 0
2.0929999 -0.153 0.917 150 16 0
2.0880001 -0.155 0.921 150 16 0
2.075 -0.15700001 0.92199999 150 16 0
2.072 -0.15899999 0.92699999 150 16 0
2.0669999 -0.161 0.93199998 150 16 0
2.0569999 -0.163 0.93300003 150 16 0
2.049 -0.16500001 0.93699998 150 16 0
2.0439999 -0.167 0.94099998 150 16 0
2.0309999 -0.168 0.94099998 150 16 0
2.029 -0.171 0.94599998 150 16 0
2.0190001 -0.17200001 0.94800001 150 16 0
2.013 -0.17399999 0.95200002 150 16 0
2.0020001 -0.176 0.95300001 150 16 0
2 -0.178 0.958 150 16 0
1.9859999 -0.18000001 0.95700002 150 16 0
1.979 -0.182 0.95999998 150 16 0
1.974 -0.184 0.963 150 16 0
1.967 -0.186 0.96600002 150 16 0
1.9630001 -0.18799999 0.97000003 150 16 0
1.957 -0.19 0.97299999 150 16 0
1.95 -0.192 0.97500002 150 16 0
1.946 -0.19499999 0.97899997 150 16 0
1.936 -0.19599999 0.98000002 150 16 0
1.928 -0.198 0.98199999 150 16 0
1.923 -0.2 0.98500001 150 16 0
1.919 -0.20299999 0.98799998 150 16 0
1.91 -0.205 0.98900002 150 16 0
1.904 -0.207 0.99199998 150 16 0
1.896 -0.20900001 0.99299997 150 16 0
1.895 -0.211 0.99800003 150 16 0
1.881 -0.213 0.99599999 150 16 0
1.886 -0.21600001 1.0039999 150 16 0
1.876 -0.21799999 1.0039999 150 16 0
1.872 -0.22 1.007 150 16 0
1.868 -0.222 1.01 150 16 0
1.858 -0.22400001 1.01 150 16 0
1.853 -0.226 1.012 150 16 0
1.846 -0.228 1.0140001 150 16 0
1.84 -0.23100001 1.015 150 16 0
1.8380001 -0.233 1.0190001 150 16 0
1.834 -0.236 1.022 150 16 0
1.831 -0.23800001 1.025 150 16 0
1.824 -0.23999999 1.026 150 16 0
1.822 -0.243 1.029 150 16 0
1.817 -0.245 1.031 150 16 0
1.813 -0.248 1.033 150 16 0
1.804 -0.249 1.033 150 16 0
1.802 -0.252 1.0369999 150 16 0
1.8 -0.255 1.04 150 16 0
1.793 -0.257 1.04 150 16 0
1.789 -0.259 1.0420001 150 16 0
1.784 -0.26100001 1.043 150 16 0
1.78 -0.264 1.045 150 16 0
1.776 -0.266 1.0470001 150 16 0
1.773 -0.26899999 1.05 150 16 0
1.771 -0.27200001 1.052 150 16 0
1.766 -0.27399999 1.053 150 16 0
1.762 -0.27599999 1.0549999 150 16 0
1.747 -0.27700001 1.049 150 19 0
1.742 -0.27900001 1.05 150 16 0
1.738 -0.28099999 1.052 150 16 0
1.7359999 -0.28400001 1.054 150 16 0
1.734 -0.287 1.056 150 16 0
1.7309999 -0.289 1.058 150 16 0
1.729 -0.292 1.0599999 150 16 0
1.738 -0.29699999 1.069 150 19 0
1.735 -0.29899999 1.071 150 16 0
1.724 -0.30000001 1.067 150 16 0
1.719 -0.30199999 1.067 150 16 0
1.715 -0.30500001 1.068 150 16 0
1.716 -0.308 1.071 150 16 0
1.709 -0.31 1.0700001 150 16 0
1.7079999 -0.31200001 1.072 150 16 0
1.704 -0.315 1.073 150 16 0
1.7029999 -0.31799999 1.074 150 16 0
1.701 -0.31999999 1.076 150 16 0
1.7 -0.32300001 1.0779999 150 16 0
1.697 -0.32600001 1.079 150 16 0
1.696 -0.32800001 1.08 150 16 0
1.6950001 -0.331 1.082 150 16 0
1.6900001 -0.333 1.081 150 16 0
1.692 -0.336 1.084 150 16 0
1.687 -0.338 1.084 150 16 0
1.686 -0.34099999 1.085 150 16 0
1.684 -0.34400001 1.086 150 16 0
1.683 -0.34599999 1.087 150 16 0
1.6799999 -0.34900001 1.087 150 16 0
1.681 -0.352 1.089 150 16 0
1.678 -0.354 1.089 150 16 0
1.678 -0.35699999 1.091 150 16 0
1.676 -0.359 1.09 150 16 0
1.676 -0.36199999 1.092 150 16 0
1.674 -0.36500001 1.092 150 16 0
1.673 -0.36700001 1.092 150 16 0
1.6720001 -0.37 1.0930001 150 16 0
1.671 -0.37200001 1.0930001 150 16 0
1.669 -0.375 1.0930001 150 16 0
1.6720001 -0.37799999 1.096 150 16 0
1.669 -0.38 1.095 150 16 0
1.666 -0.382 1.094 150 16 0
1.669 -0.38499999 1.097 150 16 0
1.666 -0.38699999 1.095 150 16 0
1.6670001 -0.38999999 1.096 135 16 0
1.6799999 -0.396 1.105 126 17 0
1.679 -0.398 1.105 100 16 0
1.6849999 -0.40200001 1.109 89 19 0
1.687 -0.405 1.11 79 16 0
1.6900001 -0.40900001 1.112 80 16 0
1.693 -0.412 1.114 75 16 0
1.694 -0.41499999 1.115 79 16 0
1.6950001 -0.417 1.115 72 16 0
1.697 -0.41999999 1.1160001 69 16 0
1.699 -0.42300001 1.117 71 16 0
1.701 -0.426 1.118 69 16 0
1.701 -0.428 1.117 65 16 0
1.704 -0.43099999 1.118 65 16 0
1.709 -0.435 1.1210001 63 16 0
1.709 -0.43700001 1.12 62 16 0
1.714 -0.44100001 1.122 65 16 0
1.715 -0.44299999 1.122 66 16 0
1.7180001 -0.44600001 1.123 59 16 0
1.712 -0.447 1.117 60 16 0
1.714 -0.449 1.118 66 16 0
1.72 -0.45300001 1.12 62 16 0
1.72 -0.45500001 1.119 62 16 0
1.723 -0.458 1.119 63 16 0
1.719 -0.45899999 1.115 64 16 0
1.717 -0.46000001 1.112 69 16 0
1.72 -0.463 1.112 63 16 0
1.721 -0.465 1.1109999 65 16 0
1.725 -0.46799999 1.112 68 16 0
1.719 -0.46799999 1.105 70 16 0
1.719 -0.47 1.103 65 16 0
1.72 -0.47099999 1.102 68 16 0
1.716 -0.472 1.097 73 16 0
1.721 -0.47499999 1.097 80 16 0
1.719 -0.47600001 1.094 89 16 0
1.716 -0.47600001 1.089 109 16 0
1.716 -0.47799999 1.087 130 16 0
1.717 -0.479 1.084 150 16 0
1.715 -0.47999999 1.081 150 16 0
1.7180001 -0.48199999 1.08 150 16 0
1.719 -0.484 1.0779999 150 16 0
1.725 -0.48699999 1.0779999 150 16 0
1.721 -0.48699999 1.072 150 16 0
1.728 -0.49000001 1.074 150 16 0
1.73 -0.49200001 1.072 150 16 0
1.732 -0.493 1.0700001 150 16 0
1.733 -0.49399999 1.067 150 16 0
1.738 -0.49700001 1.067 150 16 0
1.744 -0.49900001 1.067 150 16 0
1.747 -0.50099999 1.0650001 150 16 0
1.751 -0.50300002 1.064 150 16 0
1.7539999 -0.50400001 1.062 150 16 0
1.758 -0.50599998 1.0599999 150 16 0
1.758 -0.50700003 1.057 150 16 0
1.761 -0.50800002 1.054 150 16 0
1.766 -0.50999999 1.053 150 16 0
