# .PCD v0.7 - Point Cloud Data file format
VERSION 0.7
FIELDS x y z intensity tag line
SIZE 4 4 4 4 1 1
TYPE F F F F U U
COUNT 1 1 1 1 1 1
WIDTH 1347
HEIGHT 1
VIEWPOINT 0 0 0 1 0 0 0
POINTS 1347
DATA ascii
2.073 -0.366 -1.3200001 67 16 0
2.0710001 -0.36399999 -1.323 72 16 0
2.072 -0.36300001 -1.329 66 16 0
2.075 -0.361 -1.335 74 16 0
2.076 -0.36000001 -1.34 74 16 0
2.0769999 -0.359 -1.345 77 16 0
2.079 -0.35699999 -1.35 70 16 0
2.0799999 -0.35600001 -1.355 78 16 0
2.0799999 -0.354 -1.359 75 16 0
2.0829999 -0.35299999 -1.365 64 16 0
2.082 -0.35100001 -1.368 73 16 0
2.085 -0.34900001 -1.374 71 16 0
2.0869999 -0.34799999 -1.3789999 67 16 0
2.086 -0.34599999 -1.382 64 16 0
2.089 -0.34400001 -1.387 71 16 0
2.092 -0.34299999 -1.393 68 16 0
2.0969999 -0.34200001 -1.4 68 16 0
2.096 -0.33899999 -1.402 63 16 0
2.098 -0.33700001 -1.4069999 60 16 0
2.0969999 -0.33500001 -1.409 65 16 0
2.1029999 -0.33399999 -1.416 70 16 0
2.1029999 -0.331 -1.419 60 16 0
2.1059999 -0.329 -1.424 57 16 0
2.108 -0.32699999 -1.428 57 16 0
2.1159999 -0.32600001 -1.4349999 55 19 0
2.115 -0.32300001 -1.437 56 16 0
2.118 -0.322 -1.442 54 16 0
2.122 -0.31999999 -1.447 56 16 0
2.122 -0.317 -1.449 52 16 0
2.1270001 -0.315 -1.455 52 16 0
2.1289999 -0.31299999 -1.4579999 49 16 0
2.132 -0.31099999 -1.461 48 16 0
2.1329999 -0.308 -1.464 43 16 0
2.1429999 -0.30700001 -1.472 45 18 0
2.1440001 -0.30399999 -1.475 44 16 0
2.148 -0.30199999 -1.479 46 16 0
2.1530001 -0.30000001 -1.483 44 16 0
2.155 -0.29699999 -1.4859999 48 16 0
2.1559999 -0.294 -1.487 45 16 0
2.1630001 -0.292 -1.493 47 19 0
2.1670001 -0.28999999 -1.497 40 16 0
2.1670001 -0.287 -1.498 38 16 0
2.1719999 -0.285 -1.502 42 16 0
2.1789999 -0.28299999 -1.507 44 16 0
2.1860001 -0.28 -1.512 41 16 0
2.1889999 -0.278 -1.5140001 38 16 0
2.191 -0.27500001 -1.516 41 16 0
2.1989999 -0.273 -1.521 37 19 0
2.201 -0.27000001 -1.522 41 16 0
2.2049999 -0.26699999 -1.525 37 16 0
2.21 -0.264 -1.528 36 16 0
2.22 -0.26199999 -1.534 39 16 0
2.22 -0.259 -1.534 42 16 0
2.2249999 -0.25600001 -1.5369999 37 16 0
2.2290001 -0.25299999 -1.538 37 16 0
2.2379999 -0.25099999 -1.544 38 16 0
2.2390001 -0.248 -1.543 37 16 0
2.2449999 -0.245 -1.546 35 16 0
2.2520001 -0.243 -1.55 38 16 0
2.253 -0.23899999 -1.549 36 16 0
2.2650001 -0.237 -1.5549999 36 19 0
2.266 -0.234 -1.5549999 37 16 0
2.2709999 -0.23100001 -1.556 37 16 0
2.2780001 -0.228 -1.559 37 16 0
2.2809999 -0.22499999 -1.558 38 16 0
2.2869999 -0.222 -1.5599999 35 16 0
2.2939999 -0.219 -1.563 37 16 0
2.302 -0.21600001 -1.566 37 16 0
2.306 -0.214 -1.566 36 16 0
0 0 0 0 16 0
2.3139999 -0.207 -1.566 38 16 0
2.322 -0.204 -1.568 37 16 0
2.3310001 -0.20200001 -1.571 36 16 0
2.3329999 -0.198 -1.5700001 37 16 0
2.3429999 -0.19599999 -1.573 36 16 0
2.349 -0.193 -1.574 39 16 0
2.3540001 -0.19 -1.574 38 16 0
2.3599999 -0.18700001 -1.574 40 16 0
2.368 -0.184 -1.575 39 16 0
2.3729999 -0.18099999 -1.575 38 16 0
2.3789999 -0.177 -1.575 36 16 0
2.388 -0.175 -1.576 41 16 0
2.395 -0.17200001 -1.577 40 16 0
2.402 -0.169 -1.577 38 16 0
2.405 -0.16500001 -1.575 40 16 0
2.4130001 -0.162 -1.575 41 16 0
2.4200001 -0.15899999 -1.576 41 16 0
2.431 -0.15700001 -1.5779999 39 16 0
2.438 -0.154 -1.577 39 16 0
2.438 -0.15000001 -1.573 39 16 0
2.451 -0.147 -1.576 40 16 0
2.457 -0.14399999 -1.575 41 16 0
2.4630001 -0.141 -1.573 41 16 0
2.4719999 -0.138 -1.573 39 16 0
2.4749999 -0.13500001 -1.5700001 40 16 0
2.4860001 -0.132 -1.571 41 16 0
2.493 -0.12899999 -1.5700001 40 16 0
2.5050001 -0.127 -1.572 42 16 0
2.5039999 -0.123 -1.5650001 42 16 0
2.517 -0.121 -1.567 42 16 0
2.5220001 -0.118 -1.564 42 16 0
2.529 -0.115 -1.562 41 16 0
2.5350001 -0.111 -1.559 42 16 0
2.5450001 -0.109 -1.559 42 16 0
2.5510001 -0.106 -1.556 45 16 0
2.5569999 -0.103 -1.553 44 16 0
2.5680001 -0.1 -1.554 51 16 0
2.575 -0.097000003 -1.551 78 16 0
2.585 -0.093999997 -1.55 150 16 0
2.5899999 -0.090999998 -1.546 150 16 0
2.589 -0.088 -1.539 150 16 0
2.596 -0.085000001 -1.535 150 16 0
2.5940001 -0.082000002 -1.527 150 16 0
2.6010001 -0.079999998 -1.524 150 16 0
2.6010001 -0.077 -1.517 150 16 0
2.599 -0.074000001 -1.508 150 16 0
2.5999999 -0.071000002 -1.501 150 16 0
2.6059999 -0.068000004 -1.497 150 16 0
2.602 -0.064999998 -1.487 150 16 0
2.6070001 -0.061999999 -1.483 150 16 0
2.605 -0.059999999 -1.474 150 16 0
2.608 -0.057 -1.4680001 150 16 0
2.6099999 -0.054000001 -1.461 150 16 0
2.608 -0.052000001 -1.452 150 16 0
2.612 -0.048999999 -1.447 150 16 0
2.608 -0.046 -1.437 150 16 0
2.6110001 -0.044 -1.4299999 150 16 0
2.6170001 -0.041000001 -1.426 133 16 0
2.618 -0.039000001 -1.418 79 16 0
2.6240001 -0.035999998 -1.413 41 16 0
2.628 -0.034000002 -1.4069999 33 16 0
2.635 -0.032000002 -1.403 30 16 0
2.6440001 -0.028999999 -1.399 27 16 0
2.651 -0.027000001 -1.395 28 16 0
2.6559999 -0.025 -1.3890001 28 16 0
2.6630001 -0.022 -1.3839999 28 16 0
2.674 -0.02 -1.382 29 16 0
2.6760001 -0.017999999 -1.374 28 16 0
2.6830001 -0.016000001 -1.369 29 16 0
2.6889999 -0.014 -1.364 29 16 0
2.6930001 -0.012 -1.357 29 16 0
2.7019999 -0.0099999998 -1.353 29 16 0
2.7149999 -0.0080000004 -1.35 31 16 0
2.7179999 -0.0049999999 -1.3430001 31 16 0
2.7219999 -0.003 -1.336 35 16 0
2.7260001 -0.0020000001 -1.329 38 16 0
2.7390001 0 -1.327 35 16 0
2.7509999 0.001 -1.323 51 16 0
2.7539999 0.003 -1.316 90 16 0
2.7579999 0.0049999999 -1.308 124 16 0
2.76 0.0070000002 -1.301 150 16 0
2.7650001 0.0089999996 -1.293 150 16 0
2.7690001 0.011 -1.286 150 16 0
2.766 0.012 -1.276 150 16 0
2.7720001 0.014 -1.2690001 150 16 0
2.767 0.016000001 -1.258 150 16 0
2.7750001 0.017999999 -1.252 150 16 0
2.7780001 0.018999999 -1.244 150 16 0
2.7780001 0.021 -1.235 150 16 0
2.7820001 0.022 -1.228 150 16 0
2.7809999 0.024 -1.2180001 150 16 0
2.7850001 0.025 -1.21 150 16 0
2.786 0.027000001 -1.201 150 16 0
2.79 0.028000001 -1.193 150 16 0
2.7950001 0.029999999 -1.186 150 16 0
2.796 0.030999999 -1.177 144 16 0
2.803 0.032000002 -1.171 144 16 0
2.803 0.034000002 -1.161 121 16 0
2.809 0.035 -1.154 106 16 0
2.813 0.035999998 -1.146 105 16 0
2.819 0.037 -1.1390001 99 16 0
2.819 0.039000001 -1.13 98 16 0
2.825 0.039999999 -1.122 98 16 0
2.826 0.041000001 -1.113 97 16 0
2.829 0.041999999 -1.105 104 16 0
2.832 0.043000001 -1.096 104 16 0
2.835 0.044 -1.0880001 109 16 0
2.839 0.045000002 -1.08 114 16 0
2.846 0.046 -1.073 130 16 0
2.849 0.046999998 -1.064 140 16 0
2.8499999 0.048 -1.0549999 133 16 0
2.8529999 0.048999999 -1.046 150 16 0
2.8599999 0.050000001 -1.039 150 16 0
2.8610001 0.050999999 -1.03 150 16 0
2.858 0.050999999 -1.0190001 150 16 0
2.865 0.052000001 -1.012 150 16 0
2.868 0.052999999 -1.003 150 16 0
2.8710001 0.054000001 -0.995 150 16 0
2.8740001 0.054000001 -0.986 150 16 0
2.8770001 0.055 -0.977 150 16 0
2.8829999 0.056000002 -0.96899998 150 16 0
2.8870001 0.056000002 -0.96100003 150 16 0
2.8859999 0.057 -0.95099998 150 16 0
2.8889999 0.057999998 -0.94199997 150 16 0
2.892 0.057999998 -0.93300003 150 16 0
2.902 0.059 -0.92699999 150 16 0
2.905 0.059 -0.91799998 150 16 0
2.9059999 0.059999999 -0.90799999 150 16 0
2.9130001 0.059999999 -0.89999998 150 16 0
2.9159999 0.059999999 -0.89099997 150 16 0
2.918 0.061000001 -0.88200003 150 16 0
2.9219999 0.061000001 -0.87400001 150 16 0
2.925 0.061999999 -0.86400002 150 16 0
2.928 0.061999999 -0.85600001 150 16 0
2.931 0.061999999 -0.847 150 16 0
2.937 0.061999999 -0.83899999 150 16 0
2.9430001 0.063000001 -0.82999998 150 16 0
2.934 0.063000001 -0.81800002 119 16 0
2.9289999 0.063000001 -0.80599999 150 16 0
2.9360001 0.063000001 -0.79900002 118 16 0
2.934 0.063000001 -0.78799999 136 16 0
2.938 0.063000001 -0.77899998 150 16 0
2.9419999 0.063000001 -0.77100003 150 16 0
2.9449999 0.063000001 -0.76099998 150 16 0
2.9560001 0.063000001 -0.755 150 16 0
2.9719999 0.064000003 -0.74900001 150 16 0
2.9809999 0.064000003 -0.741 150 16 0
2.983 0.064000003 -0.73100001 150 16 0
2.9860001 0.064000003 -0.722 150 16 0
2.9949999 0.064000003 -0.71399999 146 16 0
2.997 0.064000003 -0.70499998 150 16 0
2.9990001 0.064000003 -0.69499999 150 16 0
3.0020001 0.063000001 -0.68599999 150 16 0
3.0079999 0.063000001 -0.67699999 150 16 0
3.0109999 0.063000001 -0.66799998 148 16 0
3.0109999 0.063000001 -0.65799999 150 16 0
3.0209999 0.063000001 -0.64999998 150 16 0
3.0220001 0.061999999 -0.63999999 150 16 0
3.027 0.061999999 -0.63099998 150 16 0
3.033 0.061999999 -0.62300003 150 16 0
3.0350001 0.061999999 -0.61299998 150 16 0
3.036 0.061000001 -0.60299999 150 16 0
3.0439999 0.061000001 -0.59500003 150 16 0
3.046 0.059999999 -0.58499998 150 16 0
3.0569999 0.059999999 -0.57700002 150 16 0
3.0599999 0.059999999 -0.56699997 150 16 0
3.0650001 0.059 -0.55800003 150 16 0
3.0710001 0.059 -0.54900002 150 16 0
3.073 0.057999998 -0.53899997 150 16 0
3.076 0.057999998 -0.52999997 135 16 0
3.0829999 0.057 -0.52100003 126 16 0
3.0869999 0.057 -0.51099998 110 16 0
3.089 0.056000002 -0.50199997 107 16 0
3.095 0.056000002 -0.49200001 95 16 0
3.0969999 0.055 -0.48300001 94 16 0
3.0999999 0.054000001 -0.47299999 92 16 0
3.108 0.054000001 -0.46399999 80 16 0
3.115 0.052999999 -0.45500001 74 16 0
3.1199999 0.052000001 -0.44499999 69 16 0
3.1240001 0.052000001 -0.43599999 50 16 0
3.128 0.050999999 -0.426 48 16 0
3.135 0.050000001 -0.417 49 16 0
3.1370001 0.048999999 -0.40700001 56 16 0
3.1429999 0.048 -0.39700001 72 16 0
3.1470001 0.048 -0.38800001 80 16 0
3.1500001 0.046999998 -0.37799999 79 16 0
3.158 0.046 -0.368 103 16 0
3.161 0.045000002 -0.35800001 103 16 0
3.1630001 0.044 -0.34799999 142 16 0
3.168 0.043000001 -0.33899999 150 16 0
3.1730001 0.041999999 -0.329 135 16 0
3.1760001 0.041000001 -0.31900001 150 16 0
3.1830001 0.039999999 -0.30899999 144 16 0
3.1849999 0.039000001 -0.29899999 115 16 0
3.197 0.037999999 -0.28999999 127 16 0
3.2019999 0.037 -0.28 129 16 0
3.2090001 0.035999998 -0.27000001 122 16 0
3.214 0.035 -0.25999999 138 16 0
3.221 0.034000002 -0.25 146 16 0
3.221 0.033 -0.23999999 107 16 0
3.233 0.030999999 -0.23100001 108 16 0
3.2379999 0.029999999 -0.221 116 16 0
3.243 0.028999999 -0.20999999 105 16 0
3.247 0.028000001 -0.2 69 16 0
3.2509999 0.027000001 -0.19 62 16 0
3.2539999 0.025 -0.18000001 47 16 0
3.26 0.024 -0.17 40 16 0
3.2620001 0.023 -0.15899999 34 16 0
3.2620001 0.021 -0.149 28 16 0
3.2609999 0.02 -0.138 25 16 0
3.2650001 0.017999999 -0.12800001 23 16 0
3.2620001 0.017000001 -0.117 23 16 0
3.266 0.016000001 -0.107 22 16 0
3.2609999 0.014 -0.096000001 21 16 0
3.266 0.013 -0.086000003 20 16 0
3.2690001 0.011 -0.075999998 21 16 0
3.2690001 0.0099999998 -0.064999998 20 16 0
3.2690001 0.0080000004 -0.054000001 20 16 0
3.2690001 0.0060000001 -0.044 20 16 0
3.2690001 0.0049999999 -0.034000002 19 16 0
3.2720001 0.003 -0.023 19 16 0
3.276 0.0020000001 -0.013 19 16 0
3.2690001 0 -0.0020000001 19 16 0
3.2709999 -0.001 0.0070000002 19 16 0
3.277 -0.0020000001 0.017999999 19 16 0
3.277 -0.0040000002 0.028000001 19 16 0
3.2720001 -0.0060000001 0.039000001 21 16 0
3.277 -0.0080000004 0.048999999 25 16 0
3.2709999 -0.0089999996 0.059 29 16 0
3.279 -0.011 0.07 36 16 0
3.28 -0.013 0.081 45 16 0
3.2869999 -0.015 0.090999998 79 16 0
3.2880001 -0.017000001 0.102 117 16 0
3.299 -0.017999999 0.113 150 16 0
3.302 -0.02 0.123 150 16 0
3.3050001 -0.022 0.134 150 16 0
3.312 -0.024 0.145 150 16 0
3.3210001 -0.026000001 0.156 150 16 0
3.3280001 -0.028000001 0.167 150 16 0
3.3310001 -0.029999999 0.178 150 16 0
3.3340001 -0.032000002 0.18799999 150 16 0
3.3429999 -0.034000002 0.199 150 16 0
3.349 -0.037 0.20999999 150 16 0
3.358 -0.039000001 0.222 150 16 0
3.365 -0.041000001 0.233 150 16 0
3.3670001 -0.043000001 0.244 150 16 0
3.372 -0.045000002 0.255 141 16 0
3.378 -0.046999998 0.266 150 16 0
3.388 -0.050000001 0.278 150 16 0
3.392 -0.052000001 0.289 150 16 0
3.398 -0.054000001 0.30000001 150 16 0
3.4030001 -0.057 0.31200001 150 16 0
3.4119999 -0.059 0.32300001 150 16 0
3.4059999 -0.061000001 0.333 92 16 0
3.3889999 -0.063000001 0.34299999 42 16 0
3.372 -0.064999998 0.352 37 16 0
3.349 -0.067000002 0.36000001 36 16 0
3.323 -0.068999998 0.368 34 16 0
3.3110001 -0.071000002 0.377 35 16 0
3.2939999 -0.072999999 0.38600001 35 16 0
3.2750001 -0.075000003 0.39399999 35 16 0
3.2539999 -0.077 0.40099999 35 16 0
3.2379999 -0.079000004 0.41 37 16 0
3.22 -0.081 0.41800001 35 16 0
3.2 -0.082999997 0.426 35 16 0
3.1860001 -0.085000001 0.43399999 36 16 0
3.164 -0.086999997 0.44100001 35 16 0
3.1459999 -0.089000002 0.44800001 34 16 0
3.1300001 -0.090999998 0.456 34 16 0
3.1129999 -0.093000002 0.46399999 32 16 0
3.0940001 -0.093999997 0.47099999 34 16 0
3.0739999 -0.096000001 0.477 37 16 0
3.0599999 -0.097999997 0.48500001 38 16 0
3.043 -0.1 0.49200001 38 16 0
3.027 -0.102 0.49900001 37 16 0
3.016 -0.104 0.50700003 38 16 0
2.9949999 -0.106 0.51300001 39 16 0
2.98 -0.108 0.51999998 37 16 0
2.967 -0.11 0.52700001 38 16 0
2.9530001 -0.112 0.53399998 38 16 0
2.9389999 -0.114 0.54100001 37 16 0
2.9260001 -0.116 0.54799998 37 16 0
2.914 -0.118 0.55500001 39 16 0
2.892 -0.12 0.56 39 16 0
2.881 -0.122 0.56699997 39 16 0
2.865 -0.124 0.57300001 37 16 0
2.848 -0.125 0.57800001 39 16 0
2.836 -0.127 0.58499998 38 16 0
2.8210001 -0.12899999 0.59100002 40 16 0
2.8099999 -0.131 0.597 39 16 0
2.7969999 -0.133 0.60399997 41 16 0
2.78 -0.13500001 0.60900003 68 16 0
2.77 -0.13699999 0.616 69 16 0
2.757 -0.139 0.62099999 72 16 0
2.7449999 -0.141 0.62800002 75 16 0
2.7309999 -0.14300001 0.63300002 77 16 0
2.72 -0.145 0.639 72 16 0
2.707 -0.147 0.64499998 76 16 0
2.6889999 -0.149 0.64899999 78 16 0
2.6789999 -0.15099999 0.65499997 59 16 0
2.6659999 -0.153 0.66000003 43 16 0
2.651 -0.155 0.66500002 41 16 0
2.6400001 -0.15700001 0.671 45 16 0
2.6259999 -0.15899999 0.676 94 16 0
2.612 -0.161 0.68099999 108 16 0
2.5969999 -0.163 0.685 120 16 0
2.5880001 -0.16500001 0.69099998 121 16 0
2.5769999 -0.167 0.69599998 132 16 0
2.569 -0.169 0.70200002 117 16 0
2.5599999 -0.171 0.708 123 16 0
2.546 -0.17299999 0.71200001 114 16 0
2.5350001 -0.175 0.71700001 113 16 0
2.526 -0.177 0.722 125 16 0
2.5179999 -0.18000001 0.72799999 120 16 0
2.5090001 -0.182 0.73299998 108 16 0
2.4990001 -0.184 0.73799998 108 16 0
2.4779999 -0.185 0.74000001 122 16 0
2.474 -0.18799999 0.74699998 123 16 0
2.4679999 -0.19 0.75300002 134 16 0
2.4560001 -0.192 0.75700003 130 16 0
2.447 -0.19400001 0.76200002 126 16 0
2.4330001 -0.19599999 0.76499999 133 16 0
2.4289999 -0.199 0.77200001 135 16 0
2.4189999 -0.20100001 0.77600002 130 16 0
2.408 -0.20299999 0.77999997 137 16 0
2.398 -0.205 0.78500003 141 16 0
2.3929999 -0.207 0.79000002 133 16 0
2.3789999 -0.20900001 0.79299998 135 16 0
2.3710001 -0.211 0.79799998 148 16 0
2.3640001 -0.214 0.80400002 140 16 0
2.355 -0.21600001 0.80800003 136 16 0
2.345 -0.21799999 0.81199998 132 16 0
2.3369999 -0.221 0.81599998 136 16 0
2.3239999 -0.222 0.81900001 138 16 0
2.3150001 -0.22499999 0.82300001 136 16 0
2.3050001 -0.227 0.82700002 128 16 0
2.2980001 -0.229 0.83200002 148 16 0
2.2850001 -0.23100001 0.83399999 142 16 0
2.279 -0.233 0.83899999 137 16 0
2.27 -0.236 0.84299999 145 16 0
2.26 -0.23800001 0.84600002 140 16 0
2.253 -0.23999999 0.85100001 146 16 0
2.2449999 -0.242 0.85399997 150 16 0
2.23 -0.244 0.85600001 137 16 0
2.224 -0.24600001 0.86000001 150 16 0
2.2190001 -0.249 0.86500001 150 16 0
2.21 -0.25099999 0.86900002 143 16 0
2.201 -0.25299999 0.87199998 150 16 0
2.194 -0.25600001 0.87599999 150 16 0
2.1849999 -0.25799999 0.87900001 150 16 0
2.1730001 -0.25999999 0.88099998 150 16 0
2.165 -0.26199999 0.884 150 16 0
2.158 -0.264 0.88800001 150 16 0
2.1530001 -0.26699999 0.89200002 150 16 0
2.145 -0.26899999 0.89600003 150 16 0
2.138 -0.27200001 0.89899999 150 16 0
2.1270001 -0.27399999 0.90100002 150 16 0
2.1170001 -0.27599999 0.903 150 16 0
2.1110001 -0.278 0.90700001 150 16 0
2.108 -0.28099999 0.912 150 16 0
2.102 -0.28400001 0.91600001 150 16 0
2.0940001 -0.28600001 0.91799998 150 16 0
2.086 -0.28799999 0.921 150 16 0
2.0769999 -0.28999999 0.92299998 150 16 0
2.0680001 -0.29300001 0.92500001 150 16 0
2.0650001 -0.29499999 0.93000001 150 16 0
2.0610001 -0.29800001 0.93400002 150 16 0
2.052 -0.30000001 0.93599999 150 16 0
2.0420001 -0.30199999 0.93800002 150 16 0
2.0380001 -0.30500001 0.94099998 150 16 0
2.03 -0.30700001 0.94400001 150 16 0
2.0239999 -0.31 0.94700003 150 16 0
2.02 -0.31299999 0.95099998 150 16 0
2.0139999 -0.315 0.95300001 150 16 0
2.007 -0.31799999 0.95599997 150 16 0
1.998 -0.31999999 0.95700002 150 16 0
1.989 -0.322 0.95899999 150 16 0
1.9859999 -0.32499999 0.963 150 16 0
1.978 -0.32699999 0.96399999 150 16 0
1.974 -0.33000001 0.96799999 150 16 0
1.967 -0.33199999 0.97000003 150 16 0
1.9630001 -0.33500001 0.97299999 150 16 0
1.95 -0.33700001 0.972 150 16 0
1.944 -0.33899999 0.97399998 150 16 0
1.9400001 -0.34200001 0.97799999 150 16 0
1.936 -0.345 0.98100001 150 16 0
1.9299999 -0.347 0.98299998 150 16 0
1.926 -0.34999999 0.986 150 16 0
1.923 -0.35299999 0.98900002 150 16 0
1.918 -0.35600001 0.99199998 150 16 0
1.91 -0.35800001 0.99299997 150 16 0
1.903 -0.36000001 0.99400002 150 16 0
1.902 -0.36300001 0.99800003 150 16 0
1.896 -0.366 1 150 16 0
1.8890001 -0.368 1.001 150 16 0
1.885 -0.37099999 1.003 150 16 0
1.881 -0.37400001 1.006 150 16 0
1.877 -0.377 1.008 150 16 0
1.869 -0.37900001 1.008 150 16 0
1.865 -0.38100001 1.011 150 16 0
1.86 -0.384 1.012 150 16 0
1.858 -0.38699999 1.015 150 16 0
1.855 -0.38999999 1.018 150 16 0
1.849 -0.39300001 1.0190001 150 16 0
1.841 -0.39399999 1.0190001 150 16 0
1.8430001 -0.39899999 1.024 150 16 0
1.835 -0.40099999 1.024 150 16 0
1.8329999 -0.40400001 1.026 150 16 0
1.831 -0.40700001 1.029 150 16 0
1.822 -0.40799999 1.028 150 16 0
1.825 -0.41299999 1.033 150 16 0
1.817 -0.41499999 1.033 150 16 0
1.811 -0.417 1.033 150 16 0
1.809 -0.41999999 1.035 150 16 0
1.807 -0.42300001 1.038 150 16 0
1.802 -0.426 1.039 150 16 0
1.799 -0.428 1.04 150 16 0
1.794 -0.43099999 1.041 150 16 0
1.7970001 -0.435 1.046 142 16 0
1.794 -0.43799999 1.0470001 150 16 0
1.784 -0.43900001 1.044 150 16 0
1.781 -0.442 1.046 150 16 0
1.777 -0.44400001 1.046 150 16 0
1.775 -0.447 1.048 150 16 0
1.773 -0.45100001 1.05 150 16 0
1.771 -0.454 1.051 150 16 0
1.767 -0.456 1.052 150 16 0
1.765 -0.45899999 1.053 150 16 0
1.766 -0.463 1.056 150 16 0
1.7640001 -0.46599999 1.058 150 16 0
1.7589999 -0.46799999 1.057 150 16 0
1.7589999 -0.47099999 1.0599999 150 16 0
1.757 -0.47400001 1.0599999 150 16 0
1.752 -0.47600001 1.0599999 150 16 0
1.751 -0.479 1.061 150 16 0
1.752 -0.48300001 1.064 150 16 0
1.748 -0.48500001 1.063 150 16 0
1.748 -0.48800001 1.0650001 150 16 0
1.743 -0.49000001 1.064 150 16 0
1.743 -0.49399999 1.0650001 150 16 0
1.742 -0.49700001 1.067 150 16 0
1.737 -0.498 1.0650001 150 16 0
1.735 -0.50099999 1.066 150 16 0
1.738 -0.505 1.069 150 16 0
1.734 -0.50700003 1.068 150 16 0
1.732 -0.50999999 1.068 150 16 0
1.733 -0.51300001 1.0700001 150 16 0
1.734 -0.51700002 1.072 150 16 0
1.735 -0.51999998 1.073 150 16 0
1.732 -0.52200001 1.072 150 16 0
1.734 -0.52600002 1.074 150 16 0
1.735 -0.52899998 1.076 135 16 0
1.7410001 -0.53399998 1.08 117 16 0
1.743 -0.53799999 1.082 91 16 0
1.748 -0.542 1.085 74 16 0
1.7539999 -0.54699999 1.09 67 16 0
1.753 -0.55000001 1.089 62 16 0
1.7589999 -0.55400002 1.0930001 66 19 0
1.7589999 -0.55699998 1.0930001 63 16 0
1.763 -0.56099999 1.096 58 16 0
1.766 -0.565 1.097 59 16 0
1.77 -0.56900001 1.1 59 16 0
1.772 -0.57200003 1.101 60 16 0
1.773 -0.57499999 1.102 55 16 0
1.777 -0.579 1.103 52 16 0
1.78 -0.583 1.105 53 16 0
1.783 -0.58600003 1.1059999 52 16 0
1.783 -0.58899999 1.1059999 51 16 0
1.788 -0.59299999 1.108 46 16 0
1.7869999 -0.59500003 1.107 52 16 0
1.7920001 -0.59899998 1.109 48 19 0
1.795 -0.602 1.11 48 16 0
1.7920001 -0.60399997 1.107 47 16 0
1.795 -0.60699999 1.108 49 16 0
1.795 -0.60900003 1.1059999 49 16 0
1.795 -0.611 1.105 48 16 0
1.802 -0.616 1.108 53 19 0
1.802 -0.61799997 1.1059999 47 16 0
1.802 -0.62 1.105 47 16 0
1.803 -0.62199998 1.104 45 16 0
1.804 -0.62400001 1.102 47 16 0
1.802 -0.62599999 1.099 46 16 0
1.804 -0.62800002 1.099 48 16 0
1.804 -0.63 1.097 46 16 0
1.8049999 -0.63200003 1.095 48 16 0
1.798 -0.63099998 1.089 49 19 0
1.803 -0.63499999 1.089 47 16 0
1.8 -0.63499999 1.085 45 16 0
1.8 -0.63700002 1.0829999 49 16 0
1.798 -0.63700002 1.079 45 16 0
1.7970001 -0.63800001 1.076 51 16 0
1.794 -0.639 1.072 50 16 0
1.79 -0.63800001 1.066 58 16 0
1.793 -0.63999999 1.0650001 69 16 0
1.793 -0.64200002 1.062 79 16 0
1.7920001 -0.64200002 1.059 105 16 0
1.79 -0.64300001 1.0549999 141 16 0
1.791 -0.64399999 1.052 150 16 0
1.795 -0.64600003 1.051 150 16 0
1.793 -0.64700001 1.0470001 150 16 0
1.799 -0.64999998 1.0470001 150 16 0
1.803 -0.65200001 1.046 150 16 0
1.807 -0.65399998 1.045 150 16 0
1.8099999 -0.65600002 1.043 150 16 0
1.809 -0.65600002 1.039 150 16 0
1.816 -0.65899998 1.04 150 16 0
1.816 -0.65899998 1.036 150 16 0
1.822 -0.662 1.035 150 16 0
1.829 -0.66500002 1.035 150 16 0
1.832 -0.66600001 1.033 150 16 0
1.8329999 -0.667 1.03 150 16 0
1.837 -0.66799998 1.028 150 16 0
1.8380001 -0.66900003 1.024 150 16 0
1.85 -0.67299998 1.027 150 19 0
1.853 -0.67400002 1.024 150 16 0
1.859 -0.67699999 1.023 150 16 0
1.865 -0.67900002 1.022 150 16 0
1.868 -0.68000001 1.0190001 150 16 0
1.875 -0.68199998 1.0190001 150 16 0
1.877 -0.68199998 1.015 150 16 0
1.885 -0.685 1.015 150 16 0
1.887 -0.685 1.011 150 16 0
1.8940001 -0.68699998 1.01 150 16 0
1.899 -0.68800002 1.008 150 16 0
1.905 -0.69 1.006 150 16 0
1.9170001 -0.69400001 1.008 115 19 0
1.9170001 -0.69300002 1.003 87 16 0
1.932 -0.69800001 1.006 102 19 0
1.928 -0.69599998 0.99800003 143 16 0
1.933 -0.69599998 0.99599999 150 16 0
1.939 -0.69700003 0.99299997 150 16 0
1.942 -0.69800001 0.99000001 150 16 0
1.9450001 -0.69800001 0.986 150 16 0
1.955 -0.69999999 0.986 150 16 0
1.959 -0.70099998 0.98299998 150 16 0
1.964 -0.70099998 0.98000002 150 16 0
1.972 -0.70300001 0.97799999 150 16 0
1.9809999 -0.704 0.977 150 16 0
1.982 -0.70300001 0.972 150 16 0
1.99 -0.70499998 0.97000003 150 16 0
1.995 -0.70499998 0.96700001 150 16 0
2.0020001 -0.70599997 0.96499997 150 16 0
2.007 -0.70599997 0.96100003 150 16 0
2.0139999 -0.70700002 0.95899999 150 16 0
2.016 -0.70599997 0.954 150 16 0
2.026 -0.70700002 0.95300001 136 16 0
2.0369999 -0.70999998 0.95300001 143 16 0
2.0420001 -0.70899999 0.949 129 16 0
2.0469999 -0.70899999 0.94499999 128 16 0
2.0569999 -0.71100003 0.94400001 127 16 0
2.063 -0.71100003 0.94099998 137 16 0
2.0710001 -0.71100003 0.93800002 141 16 0
2.0780001 -0.71100003 0.935 142 16 0
2.082 -0.71100003 0.93099999 132 16 0
2.086 -0.70999998 0.926 130 16 0
2.0969999 -0.71100003 0.92500001 124 16 0
2.1059999 -0.71200001 0.92299998 127 16 0
2.115 -0.71200001 0.921 145 16 0
2.122 -0.71200001 0.917 148 16 0
2.128 -0.71100003 0.91299999 130 16 0
2.1340001 -0.71100003 0.91000003 129 16 0
2.142 -0.71100003 0.90700001 134 16 0
2.151 -0.71100003 0.90399998 136 16 0
2.152 -0.70899999 0.898 147 16 0
2.165 -0.70999998 0.89700001 150 16 0
2.1760001 -0.71100003 0.89499998 150 16 0
2.1789999 -0.70899999 0.88999999 150 16 0
2.184 -0.708 0.88599998 150 16 0
2.188 -0.70599997 0.88099998 134 16 0
2.188 -0.70300001 0.87400001 109 16 0
2.1949999 -0.70200002 0.87 102 16 0
2.194 -0.699 0.86299998 102 16 0
2.1989999 -0.69700003 0.85799998 100 16 0
2.2030001 -0.69499999 0.85299999 96 16 0
2.2049999 -0.69300002 0.84799999 100 16 0
2.2079999 -0.69 0.84200001 96 16 0
2.211 -0.68800002 0.83700001 67 16 0
2.214 -0.68599999 0.83099997 69 16 0
2.217 -0.68300003 0.82599998 67 16 0
2.2219999 -0.68099999 0.82099998 66 16 0
2.2249999 -0.67900002 0.81599998 70 16 0
2.2279999 -0.676 0.81 67 16 0
2.2360001 -0.67500001 0.80599999 75 16 0
2.2349999 -0.671 0.79900002 69 16 0
2.2390001 -0.66900003 0.79400003 73 16 0
2.243 -0.66600001 0.78899997 73 16 0
2.2479999 -0.66399997 0.78399998 75 16 0
2.25 -0.66100001 0.778 73 16 0
2.256 -0.65899998 0.77399999 68 16 0
2.2590001 -0.65600002 0.76800001 61 16 0
2.2620001 -0.653 0.76200002 65 16 0
2.2709999 -0.65100002 0.759 44 16 0
2.273 -0.648 0.75300002 47 16 0
2.276 -0.64499998 0.74699998 39 16 0
2.279 -0.64200002 0.741 41 16 0
2.2880001 -0.63999999 0.73799998 43 16 0
2.2869999 -0.63599998 0.73000002 41 16 0
2.296 -0.634 0.727 38 16 0
2.299 -0.63099998 0.72100002 38 16 0
2.302 -0.62800002 0.71499997 38 16 0
2.3110001 -0.62599999 0.71100003 38 16 0
2.3099999 -0.62199998 0.70499998 34 16 0
2.3150001 -0.61900002 0.699 33 16 0
2.319 -0.61500001 0.69400001 37 16 0
2.3210001 -0.61199999 0.68800002 36 16 0
2.3329999 -0.611 0.685 39 16 0
2.3380001 -0.60699999 0.68000001 40 16 0
2.3410001 -0.60399997 0.67400002 38 16 0
2.3429999 -0.60000002 0.66799998 35 16 0
2.3499999 -0.597 0.66299999 39 16 0
2.3540001 -0.59399998 0.65799999 37 16 0
2.3599999 -0.59100002 0.65200001 37 16 0
2.3629999 -0.58700001 0.64700001 38 16 0
2.3710001 -0.58399999 0.64200002 32 16 0
2.3800001 -0.58200002 0.63800001 35 16 0
2.3829999 -0.57800001 0.63200003 35 16 0
2.385 -0.574 0.62599999 36 16 0
2.391 -0.56999999 0.62099999 32 16 0
2.395 -0.56699997 0.61500001 31 16 0
2.402 -0.56300002 0.61000001 31 16 0
2.4100001 -0.56099999 0.60600001 31 16 0
2.4119999 -0.55599999 0.60000002 32 16 0
2.415 -0.55199999 0.59399998 31 16 0
2.4260001 -0.55000001 0.58999997 32 16 0
2.4289999 -0.546 0.58399999 33 16 0
2.4400001 -0.54299998 0.57999998 31 16 0
2.4430001 -0.53899997 0.574 32 16 0
2.448 -0.53500003 0.56900001 32 16 0
2.457 -0.53200001 0.56400001 32 16 0
2.464 -0.528 0.55900002 30 16 0
2.471 -0.52499998 0.55400002 31 16 0
2.473 -0.51999998 0.54799998 30 16 0
2.4809999 -0.51599997 0.54299998 31 16 0
2.49 -0.51300001 0.53799999 30 16 0
2.4979999 -0.50999999 0.53299999 31 16 0
2.5039999 -0.50599998 0.528 31 16 0
2.5090001 -0.50099999 0.52200001 28 16 0
2.5109999 -0.49700001 0.51599997 27 16 0
2.5209999 -0.493 0.51200002 27 16 0
2.533 -0.49000001 0.50800002 27 16 0
2.5350001 -0.48500001 0.50099999 27 16 0
2.546 -0.48199999 0.49700001 27 16 0
2.549 -0.477 0.491 27 16 0
2.5569999 -0.47299999 0.486 28 16 0
2.5650001 -0.46900001 0.48100001 28 16 0
2.576 -0.46599999 0.47600001 28 16 0
2.5780001 -0.46000001 0.47 27 16 0
2.5829999 -0.456 0.46399999 27 16 0
2.5929999 -0.45199999 0.45899999 23 16 0
2.609 -0.449 0.45500001 23 16 0
2.612 -0.44400001 0.449 24 16 0
2.6229999 -0.44 0.44400001 25 16 0
2.6240001 -0.435 0.43799999 24 16 0
2.6340001 -0.43099999 0.433 24 16 0
2.6370001 -0.42500001 0.42699999 24 16 0
2.651 -0.42199999 0.42199999 24 16 0
2.661 -0.41800001 0.417 26 16 0
2.6730001 -0.414 0.41299999 25 16 0
2.6760001 -0.40799999 0.40599999 25 16 0
2.6819999 -0.403 0.40099999 25 16 0
2.688 -0.398 0.39500001 23 16 0
2.691 -0.39300001 0.389 23 16 0
2.7060001 -0.389 0.384 23 16 0
2.7160001 -0.38499999 0.37900001 23 16 0
2.723 -0.37900001 0.373 24 16 0
2.7320001 -0.375 0.368 25 16 0
2.74 -0.37 0.36199999 24 16 0
2.7449999 -0.36399999 0.35600001 23 16 0
2.7579999 -0.36000001 0.35100001 23 16 0
2.7679999 -0.35499999 0.34599999 24 16 0
2.7739999 -0.34900001 0.34 24 16 0
2.7850001 -0.34400001 0.33399999 24 16 0
2.793 -0.33899999 0.32800001 23 16 0
2.8010001 -0.33399999 0.32300001 24 16 0
2.8139999 -0.329 0.31799999 24 16 0
2.822 -0.324 0.31200001 24 16 0
2.8299999 -0.31799999 0.30599999 24 16 0
2.8369999 -0.31200001 0.30000001 24 16 0
2.846 -0.30700001 0.294 24 16 0
2.8570001 -0.30199999 0.28799999 23 16 0
2.8670001 -0.296 0.28299999 24 16 0
2.878 -0.29100001 0.27700001 24 16 0
2.8870001 -0.285 0.271 23 16 0
2.8989999 -0.28 0.26499999 24 16 0
2.9089999 -0.27399999 0.259 24 16 0
2.9170001 -0.26800001 0.25299999 23 16 0
2.931 -0.26199999 0.248 23 16 0
2.9400001 -0.257 0.242 24 16 0
2.9489999 -0.25099999 0.236 23 16 0
2.9619999 -0.245 0.23 23 16 0
2.973 -0.23899999 0.22400001 23 16 0
2.987 -0.233 0.21799999 23 16 0
2.994 -0.227 0.212 23 16 0
3.0020001 -0.22 0.205 23 16 0
3.0239999 -0.215 0.2 23 16 0
3.0339999 -0.20900001 0.19400001 23 16 0
3.0469999 -0.20200001 0.18799999 24 16 0
3.0580001 -0.19599999 0.18099999 24 16 0
3.0699999 -0.19 0.175 23 16 0
3.085 -0.183 0.169 23 16 0
3.0940001 -0.177 0.162 22 16 0
3.1129999 -0.17 0.156 23 16 0
3.1210001 -0.163 0.15000001 24 16 0
3.1329999 -0.15700001 0.14300001 24 16 0
3.1500001 -0.15000001 0.13699999 24 16 0
3.164 -0.14300001 0.131 24 16 0
3.1789999 -0.13699999 0.124 24 16 0
3.1930001 -0.13 0.118 24 16 0
3.207 -0.122 0.111 25 16 0
3.21 -0.115 0.104 24 16 0
3.224 -0.108 0.097000003 23 16 0
3.24 -0.101 0.090999998 24 16 0
3.25 -0.093000002 0.083999999 24 16 0
3.2709999 -0.086000003 0.077 25 16 0
3.279 -0.078000002 0.07 25 16 0
3.2909999 -0.071000002 0.063000001 42 16 0
3.2920001 -0.063000001 0.056000002 123 16 0
3.2909999 -0.055 0.048999999 109 16 0
3.2780001 -0.046999998 0.041999999 80 16 0
3.273 -0.039000001 0.035 58 16 0
3.263 -0.030999999 0.027000001 63 16 0
3.256 -0.023 0.02 50 16 0
3.2490001 -0.015 0.013 23 16 0
3.2720001 -0.0070000002 0.0060000001 15 16 0
3.283 0 0 15 16 0
3.2939999 0.0080000004 -0.0070000002 15 16 0
3.313 0.016000001 -0.014 17 16 0
3.329 0.024 -0.021 29 16 0
3.312 0.032000002 -0.028000001 49 16 0
3.3010001 0.039999999 -0.035 48 16 0
3.296 0.048 -0.041999999 41 16 0
3.2950001 0.056000002 -0.048999999 36 16 0
3.2880001 0.064000003 -0.056000002 49 16 0
3.28 0.071999997 -0.061999999 47 16 0
3.2739999 0.079999998 -0.068999998 51 16 0
3.266 0.088 -0.075999998 51 16 0
3.2590001 0.094999999 -0.082000002 51 16 0
3.25 0.103 -0.089000002 50 16 0
3.2490001 0.111 -0.096000001 52 16 0
3.237 0.119 -0.102 52 16 0
3.2320001 0.127 -0.109 52 16 0
3.2309999 0.13500001 -0.115 53 16 0
3.221 0.142 -0.122 58 16 0
3.21 0.15000001 -0.12800001 53 16 0
3.2030001 0.15800001 -0.134 62 16 0
3.198 0.16500001 -0.141 61 16 0
3.1860001 0.17299999 -0.147 53 16 0
3.181 0.18099999 -0.153 49 16 0
3.174 0.18799999 -0.15899999 58 16 0
3.164 0.19599999 -0.16500001 45 16 0
3.1600001 0.20299999 -0.17200001 55 16 0
3.152 0.211 -0.178 50 16 0
3.148 0.219 -0.184 49 16 0
3.1440001 0.226 -0.19 58 16 0
3.1340001 0.234 -0.19599999 62 16 0
3.1270001 0.241 -0.20100001 55 16 0
3.119 0.248 -0.207 62 16 0
3.1159999 0.25600001 -0.213 68 16 0
3.109 0.264 -0.219 65 16 0
3.1010001 0.271 -0.22499999 71 16 0
3.095 0.278 -0.23100001 64 16 0
3.086 0.28600001 -0.236 67 16 0
3.0810001 0.29300001 -0.242 66 16 0
3.0769999 0.301 -0.248 74 16 0
3.0680001 0.308 -0.25299999 76 16 0
3.0580001 0.315 -0.25799999 73 16 0
3.053 0.322 -0.264 62 16 0
3.0510001 0.33000001 -0.27000001 79 16 0
3.0420001 0.33700001 -0.27500001 66 16 0
3.0339999 0.34400001 -0.28 59 16 0
3.027 0.35100001 -0.285 62 16 0
3.02 0.35800001 -0.29100001 69 16 0
3.013 0.36500001 -0.296 65 16 0
3.0139999 0.373 -0.30199999 74 16 0
3.006 0.38 -0.30700001 83 16 0
2.9949999 0.38699999 -0.31200001 80 16 0
2.9879999 0.39399999 -0.317 74 16 0
2.9890001 0.40200001 -0.32300001 92 16 0
2.9820001 0.40900001 -0.32800001 83 16 0
2.973 0.41600001 -0.33199999 70 16 0
2.9649999 0.42300001 -0.33700001 94 16 0
2.961 0.43000001 -0.34200001 87 16 0
2.9560001 0.43700001 -0.347 85 16 0
2.9489999 0.44400001 -0.352 106 16 0
2.9449999 0.45100001 -0.35699999 91 16 0
2.941 0.45899999 -0.36199999 111 16 0
2.9330001 0.46599999 -0.36700001 104 16 0
2.9170001 0.47099999 -0.37099999 117 16 0
2.9130001 0.47799999 -0.375 110 16 0
2.9089999 0.486 -0.38 109 16 0
2.9030001 0.493 -0.38499999 97 16 0
2.8989999 0.5 -0.38999999 124 16 0
2.892 0.50700003 -0.39399999 123 16 0
2.8859999 0.514 -0.39899999 117 16 0
2.885 0.52100003 -0.40400001 135 16 0
2.882 0.52899998 -0.40900001 146 16 0
2.8699999 0.53500003 -0.41299999 134 16 0
2.865 0.542 -0.417 127 16 0
2.855 0.54799998 -0.421 140 16 0
2.852 0.55500001 -0.426 121 16 0
2.8499999 0.56300002 -0.43099999 136 16 0
2.842 0.56900001 -0.435 135 16 0
2.835 0.57599998 -0.43900001 146 16 0
2.8310001 0.583 -0.44299999 127 16 0
2.8239999 0.58899999 -0.447 139 16 0
2.822 0.597 -0.45199999 133 16 0
2.816 0.60399997 -0.456 137 16 0
2.8110001 0.611 -0.46000001 143 16 0
2.8069999 0.61799997 -0.465 131 16 0
2.802 0.62400001 -0.46900001 127 16 0
2.7969999 0.63099998 -0.47299999 150 16 0
2.7839999 0.63599998 -0.47600001 150 16 0
2.779 0.64300001 -0.47999999 148 16 0
2.7739999 0.64999998 -0.484 145 16 0
2.7679999 0.65700001 -0.48699999 144 16 0
2.7650001 0.66399997 -0.49200001 134 16 0
2.7620001 0.671 -0.49599999 150 16 0
2.753 0.67699999 -0.49900001 150 16 0
2.7460001 0.68300003 -0.50300002 150 16 0
2.7420001 0.69 -0.50599998 150 16 0
2.7320001 0.69599998 -0.509 150 16 0
2.7320001 0.704 -0.514 150 16 0
2.7279999 0.71100003 -0.51800001 150 16 0
2.723 0.71700001 -0.52100003 150 16 0
2.72 0.72500002 -0.52499998 150 16 0
2.71 0.73000002 -0.528 150 16 0
2.7079999 0.73799998 -0.53200001 150 16 0
2.7049999 0.745 -0.53600001 150 16 0
2.6989999 0.75099999 -0.53899997 150 16 0
2.694 0.75800002 -0.54299998 150 16 0
2.688 0.764 -0.546 150 16 0
2.6800001 0.76999998 -0.54900002 150 16 0
2.6760001 0.77700001 -0.55199999 150 16 0
2.675 0.78500003 -0.55599999 150 16 0
2.665 0.79000002 -0.55800003 150 16 0
2.6659999 0.79799998 -0.56300002 150 16 0
2.6589999 0.80400002 -0.565 150 16 0
2.654 0.81 -0.56800002 150 16 0
2.645 0.81599998 -0.57099998 150 16 0
2.6389999 0.82200003 -0.574 150 16 0
2.638 0.82999998 -0.57700002 150 16 0
2.6329999 0.83600003 -0.57999998 150 16 0
2.6259999 0.84200001 -0.583 150 16 0
2.625 0.84899998 -0.58600003 150 16 0
2.6210001 0.85600001 -0.58899999 150 16 0
2.615 0.86199999 -0.59200001 150 16 0
2.609 0.86799997 -0.59399998 150 16 0
2.6059999 0.875 -0.59799999 150 16 0
2.6029999 0.88200003 -0.60100001 150 16 0
2.5999999 0.889 -0.60399997 150 16 0
2.5929999 0.89499998 -0.60600001 150 16 0
2.5899999 0.90200001 -0.60900003 150 16 0
2.5869999 0.90899998 -0.61199999 150 16 0
2.579 0.91399997 -0.61400002 150 16 0
2.5799999 0.92199999 -0.61699998 150 16 0
2.573 0.92799997 -0.61900002 150 16 0
2.5650001 0.93300003 -0.62099999 150 16 0
2.5550001 0.93800002 -0.62199998 150 16 0
2.552 0.94499999 -0.625 150 16 0
2.562 0.95599997 -0.63 140 16 0
2.572 0.96799999 -0.63599998 150 16 0
2.553 0.96899998 -0.63499999 150 16 0
2.5380001 0.97100002 -0.634 150 16 0
2.533 0.977 -0.63599998 150 16 0
2.53 0.98400003 -0.639 150 16 0
2.5250001 0.99000001 -0.64099997 150 16 0
2.523 0.99699998 -0.64300001 150 16 0
2.5190001 1.003 -0.64499998 150 16 0
2.513 1.0089999 -0.64700001 150 16 0
2.51 1.016 -0.64899999 150 16 0
2.5050001 1.021 -0.65100002 150 16 0
2.5020001 1.028 -0.653 150 16 0
2.4979999 1.034 -0.65499997 150 16 0
2.4949999 1.041 -0.65700001 150 16 0
2.4920001 1.0470001 -0.65899998 150 16 0
2.4849999 1.052 -0.65899998 150 16 0
2.4820001 1.059 -0.66100001 150 16 0
2.4760001 1.064 -0.662 150 16 0
2.474 1.071 -0.66399997 150 16 0
2.471 1.077 -0.66600001 150 16 0
2.4679999 1.084 -0.66799998 150 16 0
2.4649999 1.09 -0.66900003 150 16 0
2.4630001 1.097 -0.671 150 16 0
2.4549999 1.101 -0.671 150 16 0
2.4530001 1.108 -0.67299998 150 16 0
2.45 1.115 -0.67500001 150 16 0
2.4460001 1.12 -0.676 150 16 0
2.4400001 1.125 -0.676 150 16 0
2.4400001 1.133 -0.67799997 150 16 0
2.4360001 1.138 -0.67900002 150 16 0
2.4300001 1.143 -0.68000001 150 16 0
2.427 1.149 -0.68099999 150 16 0
2.4260001 1.156 -0.68199998 150 16 0
2.4189999 1.16 -0.68199998 150 16 0
2.4159999 1.166 -0.68300003 150 16 0
2.411 1.171 -0.68300003 72 16 0
2.411 1.179 -0.685 22 16 0
2.408 1.1849999 -0.68599999 25 16 0
2.402 1.189 -0.68599999 38 16 0
2.3989999 1.194 -0.68599999 39 16 0
2.395 1.2 -0.68699998 51 16 0
2.3929999 1.206 -0.68800002 93 16 0
2.391 1.212 -0.68800002 150 16 0
2.3900001 1.219 -0.69 150 16 0
2.385 1.223 -0.68900001 150 16 0
2.3829999 1.229 -0.69 150 16 0
2.3800001 1.235 -0.69 150 16 0
2.3770001 1.24 -0.69 150 16 0
2.3740001 1.245 -0.69 150 16 0
2.3699999 1.25 -0.69 150 16 0
2.368 1.256 -0.69099998 150 16 0
2.3629999 1.26 -0.69 150 16 0
2.3610001 1.266 -0.69 150 16 0
2.3570001 1.271 -0.69 150 16 0
2.355 1.276 -0.69 150 16 0
2.3529999 1.281 -0.69 150 16 0
2.352 1.2869999 -0.69 150 16 0
2.349 1.2920001 -0.69 150 16 0
2.342 1.295 -0.68800002 109 16 0
2.342 1.301 -0.68800002 28 16 0
2.3429999 1.308 -0.68900001 28 16 0
2.3329999 1.309 -0.68599999 104 16 0
2.3369999 1.317 -0.68800002 150 16 0
2.3310001 1.3200001 -0.68599999 118 16 0
2.3299999 1.326 -0.68599999 29 16 0
2.329 1.331 -0.685 26 16 0
2.322 1.3329999 -0.68300003 77 16 0
2.322 1.339 -0.68300003 150 16 0
2.3199999 1.3430001 -0.68199998 150 16 0
2.3180001 1.348 -0.68099999 150 16 0
2.3169999 1.353 -0.68099999 150 16 0
2.3169999 1.358 -0.68000001 150 16 0
2.3139999 1.362 -0.67900002 150 16 0
2.312 1.367 -0.67799997 150 16 0
2.3099999 1.3710001 -0.67699999 150 16 0
2.312 1.377 -0.67699999 150 16 0
2.309 1.38 -0.67500001 150 16 0
2.3039999 1.383 -0.67299998 150 16 0
2.303 1.387 -0.67199999 150 16 0
2.3 1.39 -0.67000002 147 16 0
2.2950001 1.392 -0.66799998 79 16 0
2.303 1.401 -0.66900003 46 16 0
2.3010001 1.405 -0.667 41 16 0
2.299 1.409 -0.66600001 51 16 0
2.2969999 1.4119999 -0.66399997 76 16 0
2.293 1.414 -0.66100001 125 16 0
2.289 1.416 -0.65899998 150 16 0
2.2909999 1.421 -0.65799999 150 16 0
2.29 1.425 -0.65600002 150 16 0
2.2880001 1.428 -0.65399998 150 16 0
2.2869999 1.431 -0.65200001 150 16 0
2.2850001 1.434 -0.64999998 150 16 0
2.283 1.436 -0.648 150 16 0
2.283 1.4400001 -0.64600003 150 16 0
2.2850001 1.4450001 -0.64499998 150 16 0
2.2809999 1.4450001 -0.64200002 150 16 0
2.283 1.45 -0.63999999 150 16 0
2.2820001 1.4529999 -0.63800001 150 16 0
2.279 1.454 -0.63499999 150 16 0
2.2780001 1.457 -0.63300002 150 16 0
2.2750001 1.457 -0.63 134 16 0
2.28 1.4630001 -0.62900001 126 16 0
2.279 1.466 -0.62599999 124 16 0
2.283 1.47 -0.625 119 16 0
2.283 1.473 -0.62300003 83 16 0
2.279 1.473 -0.61900002 44 16 0
2.2850001 1.479 -0.61799997 30 16 0
2.28 1.478 -0.61400002 24 16 0
2.2820001 1.482 -0.61199999 27 16 0
2.2809999 1.483 -0.60900003 33 16 0
2.2809999 1.484 -0.60600001 33 16 0
2.2809999 1.4859999 -0.60399997 34 16 0
2.2809999 1.487 -0.60100001 34 16 0
2.2820001 1.49 -0.59799999 30 16 0
2.2850001 1.493 -0.59600002 27 16 0
2.2839999 1.494 -0.59299999 28 16 0
2.2839999 1.495 -0.58999997 28 16 0
2.286 1.497 -0.58700001 31 16 0
2.286 1.498 -0.58399999 35 16 0
2.2850001 1.498 -0.58099997 36 16 0
2.2880001 1.501 -0.57800001 38 16 0
2.289 1.502 -0.57499999 49 16 0
2.2869999 1.501 -0.57099998 45 16 0
2.29 1.503 -0.56800002 60 16 0
2.2939999 1.506 -0.56599998 58 16 0
2.29 1.503 -0.56199998 45 16 0
2.29 1.5039999 -0.55800003 51 16 0
2.2920001 1.505 -0.55500001 79 16 0
2.2920001 1.5039999 -0.55199999 99 16 0
2.2939999 1.505 -0.54900002 117 16 0
2.2969999 1.506 -0.546 125 16 0
2.2969999 1.506 -0.542 135 16 0
2.2980001 1.506 -0.53899997 130 16 0
2.299 1.506 -0.53500003 123 16 0
2.3010001 1.506 -0.53200001 141 16 0
2.3010001 1.505 -0.528 149 16 0
2.306 1.507 -0.52600002 149 16 0
2.3050001 1.5039999 -0.52100003 124 16 0
2.3099999 1.506 -0.51899999 56 16 0
2.3110001 1.506 -0.51499999 26 16 0
2.3139999 1.505 -0.51200002 19 16 0
2.3139999 1.5039999 -0.50800002 25 16 0
2.316 1.503 -0.505 47 16 0
2.3199999 1.503 -0.50099999 96 16 0
2.3239999 1.5039999 -0.498 79 16 0
2.3239999 1.502 -0.49399999 30 16 0
2.323 1.499 -0.49000001 23 16 0
2.3239999 1.497 -0.486 27 16 0
2.3269999 1.4960001 -0.48300001 35 16 0
2.3329999 1.497 -0.47999999 35 16 0
2.335 1.4960001 -0.47600001 35 16 0
2.336 1.493 -0.472 42 16 0
2.3399999 1.493 -0.46900001 91 16 0
2.3429999 1.492 -0.465 150 16 0
2.3429999 1.489 -0.461 150 16 0
2.348 1.488 -0.458 150 16 0
2.3469999 1.484 -0.454 150 16 0
2.349 1.482 -0.44999999 150 16 0
2.3540001 1.4809999 -0.447 150 16 0
2.3540001 1.477 -0.44299999 150 16 0
2.355 1.474 -0.43900001 150 16 0
2.362 1.475 -0.43599999 150 16 0
2.3659999 1.473 -0.43200001 150 16 0
2.3670001 1.47 -0.428 150 16 0
2.3699999 1.467 -0.42399999 150 16 0
2.372 1.464 -0.421 150 16 0
2.3800001 1.464 -0.41800001 150 16 0
2.3829999 1.462 -0.414 150 16 0
2.3859999 1.459 -0.41 150 16 0
2.388 1.455 -0.40700001 150 16 0
2.391 1.452 -0.403 150 16 0
2.3889999 1.446 -0.398 150 16 0
2.392 1.443 -0.39500001 150 16 0
2.3940001 1.439 -0.391 150 16 0
2.404 1.4400001 -0.38800001 150 16 0
2.408 1.437 -0.38499999 150 16 0
2.4070001 1.431 -0.38 150 16 0
2.4130001 1.4299999 -0.377 150 16 0
2.4119999 1.423 -0.373 150 16 0
2.4219999 1.423 -0.37 150 16 0
2.424 1.419 -0.366 150 16 0
2.427 1.415 -0.36300001 150 16 0
2.4300001 1.411 -0.359 150 16 0
2.4330001 1.4069999 -0.35499999 150 16 0
2.438 1.404 -0.352 150 16 0
2.441 1.399 -0.34799999 150 16 0
2.448 1.397 -0.345 150 16 0
2.451 1.393 -0.34200001 150 16 0
2.448 1.385 -0.33700001 150 16 0
2.4549999 1.383 -0.33399999 150 16 0
2.461 1.3789999 -0.331 150 16 0
2.4660001 1.376 -0.32800001 150 16 0
2.467 1.37 -0.324 150 16 0
2.47 1.365 -0.31999999 150 16 0
2.473 1.36 -0.317 150 16 0
2.4779999 1.3559999 -0.31299999 150 16 0
2.4849999 1.353 -0.31 150 16 0
2.4849999 1.346 -0.30599999 150 16 0
2.4949999 1.345 -0.30399999 150 16 0
2.4949999 1.3380001 -0.30000001 150 16 0
2.5 1.334 -0.29699999 150 16 0
2.5039999 1.3279999 -0.29300001 150 16 0
2.5079999 1.323 -0.28999999 150 16 0
2.5109999 1.318 -0.287 150 16 0
2.516 1.313 -0.28299999 150 16 0
2.523 1.309 -0.28 150 16 0
2.5239999 1.302 -0.27700001 150 16 0
2.53 1.298 -0.27399999 150 16 0
2.533 1.2920001 -0.27000001 150 16 0
2.536 1.2869999 -0.26699999 150 16 0
2.539 1.281 -0.264 150 16 0
2.543 1.275 -0.25999999 150 16 0
2.549 1.27 -0.25799999 150 16 0
2.549 1.263 -0.25400001 150 16 0
2.5550001 1.258 -0.25099999 150 16 0
2.559 1.252 -0.248 150 16 0
2.566 1.248 -0.245 150 16 0
2.5699999 1.242 -0.242 150 16 0
2.575 1.2359999 -0.23899999 150 16 0
2.579 1.23 -0.236 150 16 0
2.582 1.224 -0.233 150 16 0
2.586 1.2180001 -0.23 150 16 0
2.589 1.211 -0.227 150 16 0
2.5999999 1.2079999 -0.22499999 150 16 0
2.596 1.198 -0.221 150 16 0
2.608 1.1950001 -0.219 150 16 0
2.612 1.189 -0.21600001 150 16 0
2.6159999 1.182 -0.213 150 16 0
2.619 1.176 -0.20999999 150 16 0
2.622 1.169 -0.207 150 16 0
2.625 1.1619999 -0.204 150 16 0
2.635 1.158 -0.20200001 150 16 0
2.638 1.151 -0.199 150 16 0
2.642 1.1440001 -0.19599999 150 16 0
2.648 1.138 -0.193 150 16 0
2.6530001 1.132 -0.191 150 16 0
2.6570001 1.125 -0.18799999 150 16 0
2.6589999 1.117 -0.185 150 16 0
2.671 1.114 -0.183 150 16 0
2.674 1.1059999 -0.18000001 150 16 0
2.677 1.099 -0.178 150 16 0
2.6819999 1.092 -0.175 150 16 0
2.6849999 1.085 -0.17200001 150 16 0
2.6889999 1.0779999 -0.17 150 16 0
2.6930001 1.0700001 -0.167 150 16 0
2.7 1.0650001 -0.16500001 150 16 0
2.7030001 1.057 -0.162 150 16 0
2.707 1.05 -0.16 150 16 0
2.7119999 1.043 -0.15700001 150 16 0
2.721 1.0369999 -0.155 150 16 0
2.72 1.028 -0.152 150 16 0
2.7279999 1.022 -0.15000001 150 16 0
2.73 1.0140001 -0.148 150 16 0
2.7379999 1.008 -0.146 150 16 0
2.7390001 1 -0.14300001 150 16 0
2.744 0.99199998 -0.141 150 16 0
2.7509999 0.986 -0.139 150 16 0
2.7590001 0.98000002 -0.13699999 150 16 0
2.776 0.977 -0.13500001 39 16 0
2.77 0.96499997 -0.132 68 16 0
2.7679999 0.95599997 -0.13 150 16 0
2.7720001 0.94800001 -0.12800001 150 16 0
2.779 0.94099998 -0.125 150 16 0
2.7869999 0.935 -0.123 150 16 0
2.7909999 0.92699999 -0.121 150 16 0
2.803 0.921 -0.119 150 16 0
2.8 0.91100001 -0.117 150 16 0
2.8050001 0.90399998 -0.115 150 16 0
2.8099999 0.89600003 -0.113 150 16 0
2.816 0.889 -0.111 150 16 0
2.8169999 0.88 -0.109 150 16 0
2.8269999 0.87300003 -0.107 150 16 0
2.8310001 0.86500001 -0.105 150 16 0
2.8340001 0.85699999 -0.103 150 16 0
2.835 0.84799999 -0.101 150 16 0
2.8440001 0.84100002 -0.098999999 150 16 0
2.8469999 0.83200002 -0.097000003 150 16 0
2.859 0.82700002 -0.096000001 150 16 0
2.8640001 0.81900001 -0.093999997 150 16 0
2.8659999 0.81 -0.092 150 16 0
2.8729999 0.80199999 -0.090000004 150 16 0
2.875 0.79299998 -0.088 150 16 0
2.8840001 0.78600001 -0.086999997 150 16 0
2.882 0.77600002 -0.085000001 150 16 0
2.8940001 0.76999998 -0.082999997 150 16 0
2.898 0.76099998 -0.082000002 150 16 0
2.9000001 0.75199997 -0.079999998 150 16 0
2.9059999 0.74400002 -0.078000002 150 16 0
2.915 0.73699999 -0.077 150 16 0
2.918 0.72799999 -0.075000003 150 16 0
2.9200001 0.71899998 -0.072999999 142 16 0
2.927 0.71100003 -0.071999997 150 16 0
2.9330001 0.70300001 -0.07 126 16 0
2.9360001 0.69400001 -0.068000004 139 16 0
2.944 0.68599999 -0.067000002 132 16 0
2.95 0.67799997 -0.064999998 143 16 0
2.9530001 0.66900003 -0.064000003 133 16 0
2.9579999 0.66000003 -0.061999999 145 16 0
2.964 0.65200001 -0.061000001 144 16 0
2.967 0.64300001 -0.059 130 16 0
2.9719999 0.634 -0.057999998 130 16 0
2.977 0.62599999 -0.057 142 16 0
2.9849999 0.61699998 -0.055 136 16 0
2.9890001 0.60799998 -0.054000001 140 16 0
2.993 0.60000002 -0.052000001 136 16 0
2.993 0.58999997 -0.050999999 130 16 0
3.0039999 0.58200002 -0.050000001 114 16 0
3.0090001 0.57300001 -0.048 122 16 0
3.0150001 0.56400001 -0.046999998 120 16 0
3.0209999 0.55599999 -0.046 115 16 0
3.03 0.54699999 -0.045000002 142 16 0
3.0339999 0.53799999 -0.043000001 119 16 0
3.036 0.52899998 -0.041999999 147 16 0
3.0409999 0.51999998 -0.041000001 120 16 0
3.0480001 0.51099998 -0.039999999 129 16 0
3.0510001 0.50099999 -0.037999999 127 16 0
3.056 0.49200001 -0.037 129 16 0
3.0610001 0.48300001 -0.035999998 129 16 0
3.073 0.47499999 -0.035 119 16 0
3.0739999 0.465 -0.034000002 114 16 0
3.085 0.45699999 -0.033 112 16 0
3.089 0.447 -0.032000002 115 16 0
3.092 0.43799999 -0.030999999 132 16 0
3.098 0.428 -0.029999999 111 16 0
3.1029999 0.419 -0.028000001 109 16 0
3.1110001 0.41 -0.027000001 103 16 0
3.1129999 0.40000001 -0.026000001 98 16 0
3.1199999 0.391 -0.025 95 16 0
3.1210001 0.38100001 -0.024 87 16 0
3.128 0.37099999 -0.024 82 16 0
3.141 0.36300001 -0.023 108 16 0
3.1459999 0.35299999 -0.022 108 16 0
3.1500001 0.34299999 -0.021 111 16 0
3.1570001 0.33399999 -0.02 94 16 0
3.1630001 0.324 -0.018999999 96 16 0
3.168 0.31400001 -0.017999999 92 16 0
3.1730001 0.30500001 -0.017000001 88 16 0
3.181 0.29499999 -0.016000001 87 16 0
3.181 0.285 -0.016000001 85 16 0
3.1900001 0.27500001 -0.015 84 16 0
3.198 0.266 -0.014 83 16 0
3.201 0.255 -0.013 79 16 0
3.211 0.24600001 -0.013 88 16 0
3.2179999 0.236 -0.012 95 16 0
3.221 0.226 -0.011 103 16 0
3.2290001 0.21600001 -0.0099999998 97 16 0
3.2309999 0.205 -0.0099999998 92 16 0
3.2379999 0.19499999 -0.0089999996 88 16 0
3.2449999 0.185 -0.0080000004 80 16 0
3.2509999 0.175 -0.0080000004 88 16 0
3.2490001 0.16500001 -0.0070000002 84 16 0
3.2539999 0.154 -0.0060000001 76 16 0
3.2650001 0.14399999 -0.0060000001 77 16 0
3.27 0.134 -0.0049999999 76 16 0
3.277 0.123 -0.0049999999 81 16 0
3.286 0.113 -0.0040000002 77 16 0
3.2850001 0.102 -0.0040000002 67 16 0
3.2920001 0.092 -0.003 74 16 0
3.2980001 0.081 -0.003 72 16 0
3.3 0.071000002 -0.0020000001 62 16 0
3.3110001 0.059999999 -0.0020000001 47 16 0
3.3110001 0.050000001 -0.001 58 16 0
3.3180001 0.039000001 -0.001 74 16 0
3.3299999 0.028000001 -0.001 48 16 0
3.313 0.017000001 0 22 16 0
3.2869999 0.0070000002 0 19 16 0
3.27 -0.003 0 18 16 0
3.247 -0.013 0 32 16 0
3.2449999 -0.024 0 149 16 0
3.253 -0.034000002 0.001 150 16 0
3.2609999 -0.045000002 0.001 150 16 0
3.266 -0.056000002 0.001 150 16 0
3.266 -0.066 0.001 143 16 0
3.2539999 -0.077 0.0020000001 32 16 0
3.23 -0.086999997 0.0020000001 30 16 0
3.2079999 -0.096000001 0.0020000001 29 16 0
3.1919999 -0.106 0.0020000001 29 16 0
3.1689999 -0.116 0.0020000001 29 16 0
3.145 -0.125 0.0020000001 29 16 0
3.1240001 -0.134 0.0020000001 27 16 0
3.1029999 -0.14300001 0.0020000001 27 16 0
3.089 -0.153 0.0020000001 27 16 0
3.063 -0.161 0.0020000001 27 16 0
3.0409999 -0.17 0.0020000001 28 16 0
3.0239999 -0.17900001 0.0020000001 28 16 0
3.0020001 -0.18700001 0.0020000001 28 16 0
2.9809999 -0.19599999 0.0020000001 27 16 0
2.964 -0.204 0.0020000001 28 16 0
2.9449999 -0.212 0.0020000001 28 16 0
2.9189999 -0.22 0.0020000001 28 16 0
2.905 -0.228 0.0020000001 30 16 0
2.891 -0.237 0.0020000001 29 16 0
2.8699999 -0.244 0.0020000001 28 16 0
2.849 -0.252 0.0020000001 29 16 0
2.8340001 -0.25999999 0.0020000001 29 16 0
2.816 -0.26699999 0.001 29 16 0
2.803 -0.27500001 0.001 29 16 0
2.789 -0.28299999 0.001 31 16 0
2.763 -0.289 0.001 30 16 0
2.7460001 -0.296 0.001 30 16 0
2.7360001 -0.30399999 0 31 16 0
2.723 -0.31200001 0 32 16 0
2.7090001 -0.31900001 0 31 16 0
2.6949999 -0.32600001 0 34 16 0
2.6760001 -0.333 0 33 16 0
2.6600001 -0.33899999 0 33 16 0
2.6429999 -0.34599999 0 33 16 0
2.6289999 -0.352 -0.001 33 16 0
2.6159999 -0.359 -0.001 32 16 0
2.602 -0.366 -0.0020000001 33 16 0
2.5840001 -0.37200001 -0.0020000001 32 16 0
2.575 -0.37900001 -0.0020000001 33 16 0
2.5510001 -0.384 -0.003 33 19 0
2.5409999 -0.38999999 -0.003 34 16 0
2.526 -0.39700001 -0.0040000002 42 16 0
2.5120001 -0.403 -0.0040000002 48 16 0
2.5 -0.40900001 -0.0040000002 61 16 0
