# .PCD v0.7 - Point Cloud Data file format
VERSION 0.7
FIELDS x y z intensity tag line
SIZE 4 4 4 4 1 1
TYPE F F F F U U
COUNT 1 1 1 1 1 1
WIDTH 1357
HEIGHT 1
VIEWPOINT 0 0 0 1 0 0 0
POINTS 1357
DATA ascii
2.4430001 1.711 0.016000001 39 16 0
2.4460001 1.712 0.02 39 16 0
2.448 1.712 0.023 41 16 0
2.4449999 1.7079999 0.026000001 40 16 0
2.45 1.709 0.029999999 42 16 0
2.4549999 1.711 0.033 46 16 0
2.457 1.71 0.037 53 16 0
2.4590001 1.71 0.039999999 67 16 0
2.4560001 1.705 0.043000001 91 16 0
2.457 1.7029999 0.046999998 117 16 0
2.4660001 1.707 0.050000001 145 16 0
2.47 1.707 0.054000001 150 16 0
2.464 1.7 0.057 150 16 0
2.4719999 1.702 0.059999999 150 16 0
2.4749999 1.701 0.064000003 150 16 0
2.4760001 1.698 0.067000002 146 16 0
2.4779999 1.696 0.07 150 16 0
2.48 1.694 0.072999999 140 16 0
2.4820001 1.691 0.075999998 150 16 0
2.483 1.689 0.079999998 149 16 0
2.4879999 1.688 0.082999997 150 16 0
2.49 1.686 0.086000003 150 16 0
2.4909999 1.682 0.089000002 150 16 0
2.497 1.682 0.092 150 16 0
2.4979999 1.678 0.094999999 139 16 0
2.5020001 1.676 0.098999999 143 16 0
2.503 1.6720001 0.102 139 16 0
2.506 1.67 0.105 143 16 0
2.5079999 1.666 0.108 150 16 0
2.5109999 1.663 0.111 150 16 0
2.516 1.661 0.114 146 16 0
2.5179999 1.6569999 0.117 146 16 0
2.5209999 1.654 0.12 147 16 0
2.5209999 1.649 0.122 150 16 0
2.5250001 1.646 0.125 150 16 0
2.53 1.643 0.12800001 139 16 0
2.5320001 1.6390001 0.131 150 16 0
2.5380001 1.637 0.134 150 16 0
2.5380001 1.632 0.13600001 150 16 0
2.5420001 1.628 0.139 144 16 0
2.546 1.625 0.142 150 16 0
2.55 1.6210001 0.145 150 16 0
2.556 1.619 0.147 150 16 0
2.559 1.614 0.15000001 150 16 0
2.5580001 1.607 0.152 150 16 0
2.5650001 1.605 0.155 150 16 0
2.5639999 1.598 0.15700001 150 16 0
2.5669999 1.5930001 0.16 150 16 0
2.573 1.59 0.162 150 16 0
2.5739999 1.5829999 0.164 150 16 0
2.579 1.58 0.167 150 16 0
2.5829999 1.575 0.169 150 16 0
2.586 1.5700001 0.17200001 150 16 0
2.5929999 1.567 0.17399999 150 16 0
2.596 1.561 0.176 150 16 0
2.598 1.5549999 0.178 150 16 0
2.602 1.55 0.18099999 150 16 0
2.605 1.545 0.183 150 16 0
2.605 1.5369999 0.184 150 16 0
2.6170001 1.5369999 0.18700001 150 16 0
2.618 1.53 0.189 150 16 0
2.622 1.525 0.191 150 16 0
2.6289999 1.521 0.193 150 16 0
2.6259999 1.511 0.19400001 150 16 0
2.6370001 1.51 0.197 150 16 0
2.641 1.5039999 0.198 150 16 0
2.642 1.4960001 0.2 150 16 0
2.6429999 1.489 0.20200001 150 16 0
2.652 1.4859999 0.204 150 16 0
2.652 1.478 0.205 150 16 0
2.6589999 1.473 0.207 150 16 0
2.661 1.466 0.208 150 16 0
2.665 1.46 0.20999999 150 16 0
2.671 1.454 0.212 136 16 0
2.675 1.448 0.213 150 16 0
2.6760001 1.4400001 0.214 150 16 0
2.6789999 1.433 0.21600001 150 16 0
2.688 1.4299999 0.21699999 150 16 0
2.6889999 1.421 0.21799999 150 16 0
2.6919999 1.415 0.22 150 16 0
2.6960001 1.408 0.221 150 16 0
2.7019999 1.402 0.222 150 16 0
2.7060001 1.395 0.223 150 16 0
2.7060001 1.387 0.22400001 150 16 0
2.7130001 1.381 0.226 150 16 0
2.7160001 1.374 0.227 150 16 0
2.721 1.367 0.228 150 16 0
2.723 1.359 0.228 150 16 0
2.727 1.352 0.229 150 16 0
2.734 1.347 0.23 150 16 0
2.7349999 1.3380001 0.23100001 150 16 0
2.74 1.331 0.23199999 150 16 0
2.743 1.323 0.233 150 16 0
2.7449999 1.316 0.233 150 16 0
2.7520001 1.309 0.234 127 16 0
2.7539999 1.301 0.235 125 16 0
2.7590001 1.294 0.235 139 16 0
2.7690001 1.289 0.236 142 16 0
2.773 1.2819999 0.237 138 16 0
2.773 1.273 0.237 150 16 0
2.773 1.263 0.237 126 16 0
2.78 1.257 0.23800001 148 16 0
2.78 1.248 0.23800001 142 16 0
2.7880001 1.242 0.23899999 123 16 0
2.793 1.235 0.23899999 143 16 0
2.7980001 1.227 0.23899999 131 16 0
2.802 1.22 0.23999999 137 16 0
2.8050001 1.212 0.23999999 138 16 0
2.809 1.204 0.23999999 131 16 0
2.813 1.196 0.23999999 136 16 0
2.8199999 1.189 0.23999999 139 16 0
2.8199999 1.1799999 0.23999999 134 16 0
2.8310001 1.174 0.241 141 16 0
2.8329999 1.166 0.241 132 16 0
2.8340001 1.156 0.23999999 133 16 0
2.842 1.15 0.23999999 130 16 0
2.848 1.143 0.23999999 130 16 0
2.845 1.132 0.23999999 109 16 0
2.8529999 1.125 0.23999999 118 16 0
2.8559999 1.117 0.23999999 109 16 0
2.8629999 1.11 0.23999999 105 16 0
2.8629999 1.1 0.23899999 86 16 0
2.8699999 1.0930001 0.23899999 97 16 0
2.8699999 1.0829999 0.23800001 76 16 0
2.8770001 1.076 0.23800001 77 16 0
2.8829999 1.068 0.23800001 78 16 0
2.881 1.058 0.237 68 16 0
2.8889999 1.051 0.237 86 16 0
2.8940001 1.043 0.236 87 16 0
2.8940001 1.033 0.235 78 16 0
2.9000001 1.026 0.235 97 16 0
2.902 1.016 0.234 111 16 0
2.905 1.008 0.233 108 16 0
2.9059999 0.99800003 0.23199999 116 16 0
2.9130001 0.991 0.23199999 129 16 0
2.9159999 0.98199999 0.23100001 134 16 0
2.9189999 0.97299999 0.23 138 16 0
2.9219999 0.96399999 0.229 150 16 0
2.928 0.95599997 0.229 145 16 0
2.9300001 0.94700003 0.228 146 16 0
2.934 0.93800002 0.227 149 16 0
2.9400001 0.93099999 0.226 150 16 0
2.9430001 0.92199999 0.22499999 145 16 0
2.9519999 0.91399997 0.22400001 150 16 0
2.9560001 0.90600002 0.223 150 16 0
2.96 0.89700001 0.222 150 16 0
2.961 0.88700002 0.221 147 16 0
2.9660001 0.87900001 0.22 146 16 0
2.9719999 0.87099999 0.219 141 16 0
2.9760001 0.86199999 0.21799999 140 16 0
2.98 0.85299999 0.21600001 141 16 0
2.9849999 0.84500003 0.215 138 16 0
2.987 0.83499998 0.214 132 16 0
2.9920001 0.82700002 0.213 127 16 0
2.993 0.81699997 0.211 120 16 0
3.0050001 0.81 0.20999999 118 16 0
3.007 0.801 0.20900001 120 16 0
3.0109999 0.792 0.207 104 16 0
3.016 0.78299999 0.206 132 16 0
3.017 0.77399999 0.204 118 16 0
3.0209999 0.764 0.20299999 125 16 0
3.029 0.75599998 0.20100001 135 16 0
3.03 0.74699998 0.2 126 16 0
3.0339999 0.73799998 0.198 136 16 0
3.0439999 0.73000002 0.197 126 16 0
3.04 0.71899998 0.19499999 122 16 0
3.05 0.71200001 0.193 115 16 0
3.053 0.70200002 0.192 109 16 0
3.0550001 0.69300002 0.19 105 16 0
3.063 0.685 0.18799999 103 16 0
3.062 0.67500001 0.186 104 16 0
3.0669999 0.66500002 0.184 97 16 0
3.0699999 0.65600002 0.183 110 16 0
3.072 0.64700001 0.18099999 102 16 0
3.0739999 0.63700002 0.17900001 92 16 0
3.0840001 0.62900001 0.177 92 16 0
3.0899999 0.62 0.175 103 16 0
3.095 0.611 0.17299999 97 16 0
3.096 0.60100001 0.171 97 16 0
3.102 0.59299999 0.169 122 16 0
3.105 0.583 0.167 107 16 0
3.112 0.574 0.16500001 112 16 0
3.1129999 0.565 0.163 112 16 0
3.1170001 0.55500001 0.161 108 16 0
3.1199999 0.546 0.15899999 101 16 0
3.125 0.53600001 0.15700001 105 16 0
3.1270001 0.52700001 0.154 106 16 0
3.1289999 0.51700002 0.152 93 16 0
3.138 0.509 0.15000001 110 16 0
3.142 0.49900001 0.148 100 16 0
3.148 0.49000001 0.146 83 16 0
3.151 0.48100001 0.14300001 89 16 0
3.152 0.47099999 0.141 85 16 0
3.1619999 0.46200001 0.139 75 16 0
3.1630001 0.45199999 0.13600001 91 16 0
3.1630001 0.442 0.133 64 16 0
3.164 0.43200001 0.131 62 16 0
3.175 0.42399999 0.12899999 61 16 0
3.178 0.414 0.126 52 16 0
3.1830001 0.405 0.124 51 16 0
3.188 0.39500001 0.121 48 16 0
3.1949999 0.38600001 0.119 49 16 0
3.198 0.37599999 0.116 45 16 0
3.181 0.36399999 0.113 20 16 0
3.138 0.34900001 0.109 33 16 0
3.1370001 0.33899999 0.106 112 16 0
3.1429999 0.33000001 0.103 106 16 0
3.145 0.31999999 0.1 106 16 0
3.152 0.31099999 0.097999997 100 16 0
3.1589999 0.30199999 0.094999999 91 16 0
3.158 0.292 0.092 100 16 0
3.1630001 0.28299999 0.090000004 108 16 0
3.168 0.273 0.086999997 77 16 0
3.168 0.26300001 0.083999999 88 16 0
3.1719999 0.25400001 0.081 96 16 0
3.174 0.244 0.078000002 84 16 0
3.1800001 0.235 0.075000003 90 16 0
3.1849999 0.22499999 0.072999999 91 16 0
3.1889999 0.215 0.07 93 16 0
3.1919999 0.206 0.067000002 86 16 0
3.2 0.19599999 0.064000003 73 16 0
3.2 0.186 0.061000001 85 16 0
3.204 0.177 0.057999998 73 16 0
3.2090001 0.167 0.055 74 16 0
3.217 0.15800001 0.052000001 71 16 0
3.223 0.148 0.048999999 52 16 0
3.22 0.138 0.046 50 16 0
3.2590001 0.12899999 0.043000001 62 19 0
3.2950001 0.121 0.039999999 74 16 0
3.2969999 0.111 0.037 67 16 0
3.3039999 0.101 0.034000002 67 16 0
3.3050001 0.090000004 0.029999999 63 16 0
3.312 0.079999998 0.027000001 54 16 0
3.313 0.07 0.024 58 16 0
3.3169999 0.059999999 0.02 42 16 0
3.323 0.050000001 0.017000001 47 16 0
3.322 0.039999999 0.013 56 16 0
3.3329999 0.029999999 0.0099999998 54 16 0
3.325 0.018999999 0.0060000001 23 16 0
3.302 0.0089999996 0.003 19 16 0
3.277 0 0 18 16 0
3.2490001 -0.0099999998 -0.003 21 16 0
3.243 -0.02 -0.0070000002 59 16 0
3.247 -0.029999999 -0.0099999998 150 16 0
3.2479999 -0.039999999 -0.014 143 16 0
3.253 -0.050000001 -0.017000001 143 16 0
3.2579999 -0.059999999 -0.021 150 16 0
3.2550001 -0.068999998 -0.024 74 16 0
3.24 -0.079000004 -0.028000001 29 16 0
3.2130001 -0.088 -0.030999999 27 16 0
3.1949999 -0.097000003 -0.034000002 27 16 0
3.1719999 -0.106 -0.037999999 28 16 0
3.151 -0.115 -0.041000001 27 16 0
3.1289999 -0.124 -0.044 26 16 0
3.1070001 -0.132 -0.046999998 27 16 0
3.0910001 -0.141 -0.050999999 25 16 0
3.0650001 -0.149 -0.054000001 26 16 0
3.0409999 -0.15700001 -0.057 26 16 0
3.0320001 -0.16599999 -0.059999999 26 16 0
3.0009999 -0.17299999 -0.063000001 26 19 0
2.984 -0.18099999 -0.066 27 16 0
2.9630001 -0.189 -0.068999998 26 16 0
2.9460001 -0.197 -0.071999997 27 16 0
2.927 -0.205 -0.075000003 28 16 0
2.9059999 -0.212 -0.078000002 27 16 0
2.8859999 -0.219 -0.081 27 16 0
2.8759999 -0.227 -0.083999999 28 16 0
2.8499999 -0.234 -0.086999997 26 19 0
2.8340001 -0.241 -0.090000004 28 16 0
2.8199999 -0.248 -0.093000002 28 16 0
2.802 -0.255 -0.096000001 29 16 0
2.7880001 -0.26199999 -0.098999999 27 16 0
2.773 -0.26899999 -0.101 29 16 0
2.757 -0.27599999 -0.104 28 16 0
2.737 -0.28200001 -0.107 30 16 0
2.727 -0.289 -0.11 29 16 0
2.7149999 -0.296 -0.113 29 16 0
2.6960001 -0.30199999 -0.116 31 16 0
2.6849999 -0.30899999 -0.118 29 16 0
2.6630001 -0.315 -0.121 30 16 0
2.6489999 -0.32100001 -0.124 29 16 0
2.632 -0.32699999 -0.126 31 16 0
2.622 -0.333 -0.12899999 31 16 0
2.605 -0.33899999 -0.132 30 16 0
2.5940001 -0.34599999 -0.13500001 29 16 0
2.5769999 -0.35100001 -0.13699999 30 16 0
2.569 -0.35699999 -0.14 31 16 0
2.549 -0.36199999 -0.142 33 16 0
2.5369999 -0.368 -0.145 31 16 0
2.5250001 -0.37400001 -0.148 33 16 0
2.5090001 -0.37900001 -0.15000001 32 16 0
2.497 -0.38499999 -0.153 32 16 0
2.4820001 -0.38999999 -0.155 32 16 0
2.4679999 -0.39500001 -0.15800001 35 16 0
2.457 -0.40099999 -0.16 36 16 0
2.448 -0.40700001 -0.163 37 16 0
2.4360001 -0.412 -0.16599999 40 16 0
2.421 -0.417 -0.168 38 16 0
2.405 -0.421 -0.17 45 16 0
2.395 -0.426 -0.17299999 36 16 0
2.3800001 -0.43099999 -0.175 38 16 0
2.372 -0.43700001 -0.178 29 16 0
2.3629999 -0.442 -0.18099999 35 16 0
2.348 -0.44600001 -0.183 39 16 0
2.335 -0.45100001 -0.186 36 16 0
2.326 -0.456 -0.18799999 43 16 0
2.312 -0.46000001 -0.191 34 16 0
2.299 -0.46399999 -0.193 38 16 0
2.2880001 -0.46900001 -0.19499999 44 16 0
2.2739999 -0.47299999 -0.197 64 16 0
2.266 -0.47799999 -0.2 60 16 0
2.2539999 -0.48199999 -0.20200001 62 16 0
2.243 -0.486 -0.205 57 16 0
2.237 -0.49200001 -0.208 64 16 0
2.2260001 -0.49599999 -0.20999999 62 16 0
2.2149999 -0.5 -0.212 62 16 0
2.2019999 -0.50400001 -0.215 69 16 0
2.191 -0.50800002 -0.21699999 70 16 0
2.187 -0.51300001 -0.22 70 16 0
2.178 -0.51700002 -0.222 76 16 0
2.1600001 -0.51899999 -0.22400001 75 16 0
2.1500001 -0.52399999 -0.226 74 16 0
2.1429999 -0.528 -0.229 76 16 0
2.1270001 -0.53100002 -0.23100001 70 16 0
2.118 -0.53399998 -0.233 74 16 0
2.112 -0.53899997 -0.236 79 16 0
2.0969999 -0.54100001 -0.23800001 77 16 0
2.0929999 -0.54699999 -0.241 71 16 0
2.085 -0.551 -0.243 65 16 0
2.075 -0.55400002 -0.245 83 16 0
2.0639999 -0.55699998 -0.24699999 80 16 0
2.056 -0.56099999 -0.25 85 16 0
2.0450001 -0.56400001 -0.252 86 16 0
2.0369999 -0.56800002 -0.25400001 88 16 0
2.026 -0.57099998 -0.25600001 80 16 0
2.013 -0.57300001 -0.25799999 90 16 0
2.0090001 -0.57800001 -0.26100001 99 16 0
2.006 -0.583 -0.264 95 16 0
1.995 -0.58499998 -0.266 93 16 0
1.987 -0.58899999 -0.26899999 86 16 0
1.976 -0.59100002 -0.271 89 16 0
1.964 -0.59299999 -0.27200001 90 16 0
1.961 -0.59799999 -0.27500001 91 16 0
1.954 -0.602 -0.278 90 16 0
1.9450001 -0.60500002 -0.28 87 16 0
1.926 -0.60399997 -0.28099999 97 19 0
1.9220001 -0.60900003 -0.28400001 93 16 0
1.918 -0.61299998 -0.28600001 98 16 0
1.913 -0.616 -0.289 97 16 0
1.902 -0.61900002 -0.29100001 94 16 0
1.8940001 -0.62199998 -0.29300001 97 16 0
1.89 -0.625 -0.296 111 16 0
1.88 -0.62800002 -0.29800001 97 16 0
1.867 -0.62800002 -0.30000001 101 16 0
1.863 -0.63200003 -0.30199999 100 16 0
1.854 -0.63499999 -0.30399999 112 16 0
1.857 -0.64099997 -0.308 109 16 0
1.845 -0.64200002 -0.31 105 16 0
1.841 -0.64600003 -0.31299999 106 16 0
1.829 -0.64700001 -0.31400001 109 16 0
1.821 -0.64899999 -0.31600001 111 16 0
1.8150001 -0.65200001 -0.31900001 113 16 0
1.8099999 -0.65499997 -0.32100001 117 16 0
1.8 -0.65700001 -0.32300001 116 16 0
1.798 -0.66100001 -0.32600001 112 16 0
1.791 -0.66299999 -0.329 113 16 0
1.786 -0.667 -0.331 115 16 0
1.781 -0.67000002 -0.33399999 117 16 0
1.771 -0.671 -0.336 123 16 0
1.7640001 -0.67299998 -0.338 110 16 0
1.757 -0.67500001 -0.34 117 16 0
1.752 -0.67799997 -0.34299999 132 16 0
1.744 -0.67900002 -0.345 126 16 0
1.74 -0.68300003 -0.34799999 146 16 0
1.732 -0.68400002 -0.34900001 124 16 0
1.726 -0.68599999 -0.352 136 16 0
1.72 -0.68900001 -0.354 121 16 0
1.716 -0.69199997 -0.35699999 125 16 0
1.707 -0.69300002 -0.359 1 0 0
1.705 -0.69599998 -0.36199999 131 16 0
1.697 -0.69700003 -0.36399999 150 16 0
1.688 -0.69800001 -0.36500001 150 16 0
1.6849999 -0.70200002 -0.368 150 16 0
1.681 -0.704 -0.37099999 1 0 0
1.673 -0.70499998 -0.373 150 16 0
1.669 -0.708 -0.37599999 150 16 0
1.664 -0.70999998 -0.37799999 150 16 0
1.658 -0.71200001 -0.38 150 16 0
1.656 -0.71499997 -0.38299999 150 16 0
1.647 -0.71499997 -0.38499999 150 16 0
1.638 -0.71499997 -0.38600001 1 0 0
1.636 -0.71899998 -0.38999999 150 16 0
1.6339999 -0.722 -0.39300001 150 16 0
1.627 -0.72299999 -0.39500001 150 16 0
1.622 -0.72399998 -0.39700001 150 16 0
1.617 -0.72600001 -0.39899999 150 16 0
1.612 -0.72799999 -0.40200001 53 0 0
1.607 -0.72899997 -0.40400001 2 0 0
1.604 -0.73199999 -0.40700001 56 0 0
1.596 -0.73199999 -0.40900001 86 0 0
1.591 -0.73299998 -0.41100001 150 16 0
1.589 -0.736 -0.414 150 16 0
1.586 -0.73799998 -0.417 150 16 0
1.579 -0.73900002 -0.419 150 16 0
1.569 -0.73799998 -0.41999999 150 16 0
1.569 -0.741 -0.42300001 73 0 0
1.564 -0.74299997 -0.42500001 1 0 0
1.561 -0.74400002 -0.428 1 0 0
1.558 -0.74599999 -0.43099999 80 0 0
1.556 -0.74900001 -0.43399999 75 0 0
1.549 -0.74900001 -0.435 150 16 0
1.545 -0.75 -0.43799999 56 0 0
1.545 -0.75300002 -0.44100001 87 0 0
1.536 -0.75199997 -0.442 70 0 0
1.538 -0.75599998 -0.447 80 0 0
1.5319999 -0.75700003 -0.44800001 121 0 0
1.53 -0.759 -0.45100001 98 0 0
1.523 -0.75800002 -0.45300001 61 0 0
1.517 -0.75800002 -0.45500001 102 0 0
1.515 -0.75999999 -0.458 73 0 0
1.518 -0.76499999 -0.46200001 106 0 0
1.5089999 -0.76300001 -0.463 68 0 0
1.5039999 -0.76300001 -0.465 83 0 0
1.505 -0.76700002 -0.46900001 116 0 0
1.499 -0.76599997 -0.47 84 0 0
1.497 -0.76800001 -0.47299999 94 0 0
1.494 -0.76899999 -0.47600001 116 0 0
1.4910001 -0.76999998 -0.47799999 121 0 0
1.488 -0.77100003 -0.48100001 103 0 0
1.484 -0.77100003 -0.48300001 98 0 0
1.482 -0.773 -0.486 105 0 0
1.48 -0.77399999 -0.48800001 100 0 0
1.478 -0.77499998 -0.491 120 0 0
1.471 -0.77399999 -0.49200001 150 0 0
1.474 -0.778 -0.49700001 139 0 0
1.462 -0.77399999 -0.49599999 121 0 0
1.4630001 -0.77600002 -0.49900001 98 0 0
1.459 -0.77600002 -0.50199997 110 0 0
1.4579999 -0.77700001 -0.50400001 126 0 0
1.456 -0.778 -0.50700003 92 0 0
1.451 -0.778 -0.509 102 0 0
1.45 -0.77899998 -0.51099998 148 0 0
1.449 -0.77999997 -0.514 115 0 0
1.447 -0.78100002 -0.51700002 150 0 0
1.448 -0.78299999 -0.51999998 131 0 0
1.441 -0.78100002 -0.52100003 110 0 0
1.437 -0.77999997 -0.523 134 0 0
1.439 -0.78299999 -0.52600002 141 0 0
1.436 -0.78200001 -0.528 150 0 0
1.434 -0.78299999 -0.53100002 140 0 0
1.4349999 -0.78399998 -0.53399998 126 0 0
1.431 -0.78399998 -0.53600001 141 0 0
1.428 -0.78299999 -0.53799999 141 0 0
1.426 -0.78299999 -0.54000002 150 0 0
1.423 -0.78299999 -0.542 150 0 0
1.419 -0.78100002 -0.54299998 150 0 0
1.4170001 -0.78200001 -0.546 149 0 0
1.4170001 -0.78200001 -0.54900002 136 0 0
1.419 -0.78399998 -0.55199999 150 0 0
1.4170001 -0.78399998 -0.55400002 150 0 0
1.416 -0.78399998 -0.55699998 150 0 0
1.4170001 -0.78500003 -0.56 150 0 0
1.414 -0.78399998 -0.56099999 147 0 0
1.409 -0.78200001 -0.56199998 150 0 0
1.4119999 -0.78399998 -0.56599998 141 0 0
1.413 -0.78500003 -0.56900001 150 0 0
1.41 -0.78399998 -0.56999999 150 0 0
1.409 -0.78399998 -0.57300001 146 0 0
1.409 -0.78399998 -0.57499999 135 0 0
1.41 -0.78500003 -0.57800001 150 0 0
1.4069999 -0.78299999 -0.579 150 0 0
1.409 -0.78399998 -0.58200002 150 0 0
1.408 -0.78399998 -0.58399999 150 0 0
1.408 -0.78299999 -0.58600003 150 0 0
1.409 -0.78399998 -0.58999997 150 0 0
1.406 -0.78200001 -0.59100002 150 0 0
1.406 -0.78200001 -0.59299999 150 0 0
1.405 -0.78100002 -0.59500003 150 0 0
1.405 -0.77999997 -0.597 150 0 0
1.409 -0.78200001 -0.60100001 150 0 0
1.404 -0.77899998 -0.60000002 150 0 0
1.406 -0.77899998 -0.60299999 150 0 0
1.406 -0.77899998 -0.60500002 127 0 0
1.409 -0.77899998 -0.60799998 150 0 0
1.409 -0.778 -0.61000001 150 0 0
1.41 -0.778 -0.61299998 150 0 0
1.406 -0.77499998 -0.61299998 150 0 0
1.41 -0.77600002 -0.616 150 0 0
1.41 -0.77600002 -0.61799997 150 0 0
1.41 -0.77399999 -0.62 150 0 0
1.41 -0.773 -0.62099999 150 0 0
1.41 -0.77200001 -0.62300003 150 0 0
1.416 -0.77399999 -0.62699997 150 3 0
1.41 -0.76899999 -0.62599999 150 0 0
1.419 -0.773 -0.63099998 150 0 0
1.419 -0.77100003 -0.63300002 150 0 0
1.42 -0.77100003 -0.63499999 150 0 0
1.421 -0.76899999 -0.63599998 150 0 0
1.421 -0.76800001 -0.63700002 150 0 0
1.424 -0.76800001 -0.63999999 150 0 0
1.426 -0.76700002 -0.64200002 150 0 0
1.427 -0.76499999 -0.64300001 131 0 0
1.4299999 -0.76499999 -0.64600003 150 0 0
1.4299999 -0.76300001 -0.64700001 150 0 0
1.4299999 -0.76099998 -0.648 150 0 0
1.433 -0.76099998 -0.64999998 150 0 0
1.434 -0.759 -0.65100002 150 0 0
1.438 -0.759 -0.65399998 150 0 0
1.442 -0.759 -0.65600002 150 0 0
1.4400001 -0.755 -0.65600002 150 0 0
1.443 -0.755 -0.65799999 150 0 0
1.446 -0.75400001 -0.66000003 150 0 0
1.449 -0.75300002 -0.662 150 0 0
1.454 -0.75300002 -0.66500002 150 0 0
1.4579999 -0.75300002 -0.667 150 0 0
1.456 -0.74900001 -0.66600001 150 0 0
1.456 -0.74699998 -0.667 150 0 0
1.461 -0.74599999 -0.66900003 128 0 0
1.465 -0.745 -0.671 150 0 0
1.467 -0.74400002 -0.67199999 150 0 0
1.469 -0.74199998 -0.67299998 150 0 0
1.474 -0.74199998 -0.67500001 150 0 0
1.475 -0.73900002 -0.676 150 0 0
1.476 -0.73699999 -0.676 150 0 0
1.48 -0.73500001 -0.67799997 145 0 0
1.4809999 -0.73299998 -0.67799997 135 0 0
1.483 -0.73100001 -0.67799997 114 0 0
1.488 -0.73000002 -0.68000001 141 0 0
1.4910001 -0.72799999 -0.68099999 150 0 0
1.493 -0.72600001 -0.68199998 150 0 0
1.4960001 -0.72399998 -0.68199998 150 0 0
1.497 -0.72100002 -0.68199998 150 0 0
1.499 -0.71799999 -0.68300003 150 0 0
1.511 -0.72100002 -0.68699998 148 2 0
1.512 -0.71799999 -0.68699998 127 0 0
1.517 -0.71600002 -0.68900001 150 0 0
1.522 -0.71499997 -0.69 150 0 0
1.525 -0.713 -0.69 145 0 0
1.53 -0.71200001 -0.69199997 150 0 0
1.534 -0.70999998 -0.69300002 138 0 0
1.538 -0.708 -0.69400001 150 0 0
1.538 -0.704 -0.69199997 146 0 0
1.545 -0.704 -0.69400001 141 0 0
1.552 -0.70300001 -0.69599998 150 0 0
1.556 -0.70099998 -0.69700003 134 0 0
1.558 -0.69800001 -0.69599998 150 0 0
1.5650001 -0.69700003 -0.69800001 129 0 0
1.568 -0.69400001 -0.69800001 137 0 0
1.5700001 -0.69099998 -0.69700003 135 0 0
1.5779999 -0.69099998 -0.699 131 0 0
1.582 -0.68900001 -0.69999999 3 0 0
1.584 -0.685 -0.699 2 0 0
1.59 -0.68400002 -0.69999999 150 16 0
1.5930001 -0.68099999 -0.699 2 0 0
1.603 -0.68099999 -0.70099998 150 16 0
1.603 -0.67699999 -0.69999999 150 16 0
1.612 -0.676 -0.70200002 150 16 0
1.62 -0.67500001 -0.70300001 150 16 0
1.624 -0.67299998 -0.70300001 150 16 0
1.6289999 -0.67000002 -0.70300001 150 16 0
1.631 -0.667 -0.70200002 150 16 0
1.6339999 -0.66399997 -0.70099998 150 16 0
1.642 -0.66299999 -0.70200002 150 16 0
1.648 -0.66100001 -0.70200002 150 16 0
1.651 -0.65700001 -0.70099998 150 16 0
1.661 -0.65700001 -0.70300001 150 16 0
1.664 -0.653 -0.70200002 150 16 0
1.67 -0.65100002 -0.70200002 150 16 0
1.675 -0.64899999 -0.70200002 150 16 0
1.678 -0.64499998 -0.69999999 82 0 0
1.688 -0.64499998 -0.70200002 150 16 0
1.692 -0.64099997 -0.70099998 150 16 0
1.698 -0.639 -0.70099998 2 0 0
1.702 -0.63599998 -0.69999999 150 16 0
1.7079999 -0.634 -0.699 2 0 0
1.71 -0.63 -0.69700003 82 0 0
1.723 -0.63 -0.69999999 2 0 0
1.725 -0.62599999 -0.69700003 2 0 0
1.7359999 -0.625 -0.699 2 0 0
1.742 -0.62300003 -0.69800001 2 0 0
1.745 -0.61900002 -0.69599998 2 0 0
1.747 -0.61500001 -0.69400001 2 0 0
1.758 -0.61400002 -0.69499999 2 0 0
1.7640001 -0.611 -0.69400001 2 0 0
1.77 -0.60900003 -0.69400001 150 16 0
1.774 -0.60500002 -0.69199997 150 16 0
1.785 -0.60399997 -0.69199997 150 16 0
1.789 -0.60100001 -0.69099998 150 16 0
1.799 -0.59899998 -0.69099998 150 16 0
1.802 -0.59500003 -0.68900001 150 16 0
1.809 -0.59299999 -0.68800002 150 16 0
1.814 -0.58999997 -0.68599999 150 16 0
1.822 -0.58700001 -0.68599999 150 16 0
1.827 -0.58399999 -0.68400002 150 16 0
1.834 -0.58099997 -0.68300003 150 16 0
1.839 -0.57800001 -0.68099999 150 16 0
1.841 -0.574 -0.67799997 150 16 0
1.848 -0.57099998 -0.67699999 150 16 0
1.864 -0.57099998 -0.67900002 150 16 0
1.8660001 -0.56699997 -0.676 150 16 0
1.875 -0.56400001 -0.67500001 150 16 0
1.881 -0.56099999 -0.67299998 150 16 0
1.892 -0.56 -0.67299998 150 16 0
1.899 -0.55699998 -0.671 150 16 0
1.9069999 -0.55400002 -0.67000002 150 16 0
1.911 -0.55000001 -0.66799998 150 16 0
1.92 -0.54799998 -0.667 150 16 0
1.924 -0.54400003 -0.66399997 150 16 0
1.932 -0.54100001 -0.662 143 16 0
1.939 -0.53799999 -0.66000003 139 16 0
1.949 -0.53600001 -0.65899998 137 16 0
1.954 -0.53200001 -0.65700001 128 16 0
1.965 -0.52999997 -0.65600002 128 16 0
1.971 -0.52700001 -0.65399998 136 16 0
1.982 -0.52499998 -0.653 121 16 0
1.99 -0.52200001 -0.65100002 118 16 0
1.9960001 -0.51800001 -0.648 125 16 0
2.0039999 -0.51499999 -0.64600003 123 16 0
2.01 -0.51200002 -0.64399999 124 16 0
2.017 -0.50800002 -0.64099997 121 16 0
2.027 -0.50599998 -0.63999999 126 16 0
2.0320001 -0.50199997 -0.63700002 113 16 0
2.0409999 -0.49900001 -0.63499999 128 16 0
2.05 -0.49599999 -0.63300002 116 16 0
2.0599999 -0.49399999 -0.63099998 111 16 0
2.0680001 -0.49000001 -0.62900001 113 16 0
2.073 -0.48699999 -0.625 111 16 0
2.0769999 -0.48199999 -0.62199998 109 16 0
2.099 -0.48199999 -0.62300003 105 19 0
2.1059999 -0.479 -0.62 106 16 0
2.112 -0.47499999 -0.61699998 107 16 0
2.1210001 -0.472 -0.61400002 105 16 0
2.1329999 -0.47 -0.61299998 106 16 0
2.1400001 -0.46599999 -0.60900003 95 16 0
2.1470001 -0.46200001 -0.60600001 90 16 0
2.1559999 -0.45899999 -0.60399997 90 16 0
2.1659999 -0.456 -0.60100001 97 16 0
2.1719999 -0.45199999 -0.597 93 16 0
2.1819999 -0.449 -0.59500003 92 16 0
2.1860001 -0.44499999 -0.59100002 81 16 0
2.1989999 -0.442 -0.58899999 86 16 0
2.2090001 -0.43900001 -0.58600003 91 16 0
2.2130001 -0.435 -0.58200002 81 16 0
2.224 -0.43200001 -0.579 89 16 0
2.23 -0.428 -0.57499999 83 16 0
2.2409999 -0.42500001 -0.57200003 91 16 0
2.2520001 -0.42199999 -0.56999999 86 16 0
2.2650001 -0.419 -0.56699997 80 16 0
2.2709999 -0.41499999 -0.56300002 76 16 0
2.2809999 -0.41100001 -0.56 82 16 0
2.2909999 -0.40799999 -0.55599999 79 16 0
2.3010001 -0.405 -0.55299997 78 16 0
2.309 -0.40099999 -0.54900002 70 16 0
2.3199999 -0.398 -0.546 68 16 0
2.329 -0.39399999 -0.542 54 16 0
2.336 -0.38999999 -0.53799999 48 16 0
2.3499999 -0.38699999 -0.53500003 51 16 0
2.3610001 -0.384 -0.53200001 46 16 0
2.372 -0.38 -0.528 54 16 0
2.382 -0.377 -0.52399999 48 16 0
2.391 -0.373 -0.51999998 48 16 0
2.402 -0.36899999 -0.51599997 53 16 0
2.4089999 -0.36500001 -0.51200002 51 16 0
2.4189999 -0.36199999 -0.50800002 49 16 0
2.427 -0.35699999 -0.50300002 44 16 0
2.438 -0.354 -0.49900001 40 16 0
2.4489999 -0.34999999 -0.495 40 16 0
2.457 -0.34599999 -0.49000001 46 16 0
2.4690001 -0.34200001 -0.486 40 16 0
2.4760001 -0.338 -0.48100001 36 16 0
2.4890001 -0.33500001 -0.477 35 16 0
2.5009999 -0.331 -0.47299999 33 16 0
2.5079999 -0.32699999 -0.46799999 34 16 0
2.516 -0.32300001 -0.463 36 16 0
2.5280001 -0.31900001 -0.45899999 33 16 0
2.543 -0.31600001 -0.45500001 35 16 0
2.552 -0.31099999 -0.44999999 34 16 0
2.562 -0.30700001 -0.44499999 34 16 0
2.5710001 -0.303 -0.44 32 16 0
2.582 -0.29899999 -0.435 35 16 0
2.5969999 -0.296 -0.43099999 34 16 0
2.605 -0.29100001 -0.42500001 33 16 0
2.6129999 -0.287 -0.41999999 32 16 0
2.6259999 -0.28299999 -0.41499999 33 16 0
2.638 -0.27900001 -0.41 32 16 0
2.652 -0.27500001 -0.405 31 16 0
2.6659999 -0.271 -0.40000001 33 16 0
2.6760001 -0.26699999 -0.39500001 33 16 0
2.687 -0.26300001 -0.389 32 16 0
2.698 -0.25799999 -0.384 32 16 0
2.7090001 -0.25400001 -0.37799999 32 16 0
2.714 -0.249 -0.37200001 31 16 0
2.724 -0.245 -0.366 32 16 0
2.743 -0.241 -0.361 30 16 0
2.7520001 -0.237 -0.35499999 30 16 0
2.76 -0.23199999 -0.34900001 30 16 0
2.776 -0.228 -0.34299999 30 16 0
2.786 -0.223 -0.33700001 31 16 0
2.7980001 -0.219 -0.331 31 16 0
2.809 -0.214 -0.32499999 28 16 0
2.829 -0.211 -0.31999999 27 16 0
2.8329999 -0.206 -0.31299999 28 16 0
2.849 -0.20100001 -0.30700001 27 16 0
2.8629999 -0.197 -0.301 28 16 0
2.8770001 -0.192 -0.29499999 28 16 0
2.882 -0.18700001 -0.287 28 16 0
2.898 -0.183 -0.28099999 28 16 0
2.914 -0.17900001 -0.27500001 29 16 0
2.9189999 -0.17299999 -0.26699999 27 16 0
2.9400001 -0.169 -0.26199999 27 16 0
2.9519999 -0.164 -0.255 27 16 0
2.9630001 -0.16 -0.248 27 16 0
2.977 -0.155 -0.241 27 16 0
2.994 -0.15000001 -0.234 28 16 0
3 -0.145 -0.227 28 16 0
3.0220001 -0.141 -0.22 26 16 0
3.0369999 -0.13600001 -0.213 28 16 0
3.05 -0.131 -0.206 27 16 0
3.0680001 -0.126 -0.199 28 16 0
3.082 -0.121 -0.191 28 16 0
3.096 -0.116 -0.184 29 16 0
3.109 -0.111 -0.176 28 16 0
3.1240001 -0.106 -0.168 28 16 0
3.1340001 -0.101 -0.16 28 16 0
3.155 -0.096000001 -0.153 29 16 0
3.1659999 -0.090999998 -0.145 29 16 0
3.1800001 -0.086000003 -0.13699999 29 16 0
3.1960001 -0.079999998 -0.12899999 29 16 0
3.21 -0.075000003 -0.121 38 16 0
3.227 -0.07 -0.112 112 16 0
3.2279999 -0.064000003 -0.104 150 16 0
3.2290001 -0.059 -0.094999999 150 16 0
3.2309999 -0.052999999 -0.086000003 150 16 0
3.2309999 -0.048 -0.077 150 16 0
3.234 -0.041999999 -0.068000004 150 16 0
3.2349999 -0.035999998 -0.059999999 150 16 0
3.2349999 -0.030999999 -0.050999999 150 16 0
3.2379999 -0.025 -0.041999999 150 16 0
3.234 -0.02 -0.033 106 16 0
3.233 -0.014 -0.024 38 16 0
3.2460001 -0.0089999996 -0.015 23 16 0
3.2639999 -0.003 -0.0060000001 19 16 0
3.2850001 0.001 0.0020000001 20 16 0
3.296 0.0070000002 0.011 20 16 0
3.3110001 0.012 0.02 20 16 0
3.325 0.017999999 0.029999999 22 16 0
3.346 0.023 0.039000001 31 16 0
3.3559999 0.028999999 0.048999999 63 16 0
3.3640001 0.035 0.057999998 122 16 0
3.3629999 0.039999999 0.067000002 37 16 0
3.3559999 0.046 0.077 14 16 0
3.3340001 0.050999999 0.085000001 16 16 0
3.329 0.056000002 0.094999999 37 16 0
3.306 0.061000001 0.103 35 16 0
3.2869999 0.066 0.112 36 16 0
3.2650001 0.071000002 0.12 54 16 0
3.2550001 0.075999998 0.12899999 150 16 0
3.2620001 0.081 0.138 150 16 0
3.266 0.086999997 0.148 150 16 0
3.2579999 0.092 0.15700001 150 16 0
3.2650001 0.097000003 0.16599999 150 16 0
3.2639999 0.102 0.176 150 16 0
3.263 0.108 0.185 150 16 0
3.263 0.113 0.19400001 150 16 0
3.273 0.118 0.204 150 16 0
3.2650001 0.123 0.213 150 16 0
3.2709999 0.12899999 0.222 150 16 0
3.2720001 0.134 0.23199999 150 16 0
3.2739999 0.139 0.241 150 16 0
3.279 0.14399999 0.25099999 150 16 0
3.279 0.149 0.25999999 150 16 0
3.277 0.154 0.26899999 150 16 0
3.2780001 0.15899999 0.27900001 150 16 0
3.28 0.16500001 0.289 150 16 0
3.286 0.17 0.29800001 150 16 0
3.2839999 0.175 0.308 150 16 0
3.2839999 0.18000001 0.317 150 16 0
3.286 0.185 0.32699999 150 16 0
3.2850001 0.19 0.336 150 16 0
3.289 0.19499999 0.34599999 150 16 0
3.29 0.2 0.35600001 150 16 0
3.2920001 0.205 0.366 150 16 0
3.29 0.20999999 0.375 150 16 0
3.2820001 0.214 0.384 54 16 0
3.2679999 0.21799999 0.39199999 40 16 0
3.2479999 0.222 0.39899999 40 16 0
3.2349999 0.226 0.40599999 40 16 0
3.2149999 0.229 0.41299999 40 16 0
3.2019999 0.233 0.421 41 16 0
3.1889999 0.237 0.42899999 42 16 0
3.1719999 0.23999999 0.43599999 42 16 0
3.152 0.243 0.442 40 16 0
3.138 0.24600001 0.44999999 42 16 0
3.1199999 0.25 0.456 39 16 0
3.1029999 0.25299999 0.463 40 16 0
3.085 0.255 0.46900001 40 16 0
3.066 0.25799999 0.47600001 39 16 0
3.053 0.26199999 0.48300001 42 16 0
3.0320001 0.264 0.48800001 43 16 0
3.0190001 0.26699999 0.495 44 16 0
3.006 0.27000001 0.50199997 43 16 0
2.9860001 0.273 0.50800002 44 16 0
2.9749999 0.27599999 0.51499999 42 16 0
2.961 0.27900001 0.52100003 44 16 0
2.951 0.28200001 0.52899998 43 16 0
2.9319999 0.28400001 0.53399998 43 16 0
2.9230001 0.287 0.54100001 45 16 0
2.9059999 0.289 0.54699999 43 16 0
2.8940001 0.292 0.55299997 44 16 0
2.8800001 0.29499999 0.55900002 72 16 0
2.8659999 0.29699999 0.565 66 16 0
2.855 0.30000001 0.57200003 66 16 0
2.8399999 0.30199999 0.57700002 77 16 0
2.826 0.30399999 0.583 78 16 0
2.809 0.30599999 0.588 69 16 0
2.7939999 0.308 0.59399998 83 16 0
2.7850001 0.31099999 0.60000002 80 16 0
2.7720001 0.31299999 0.60600001 81 16 0
2.757 0.315 0.611 89 16 0
2.7460001 0.317 0.61699998 89 16 0
2.7309999 0.31900001 0.62199998 100 16 0
2.7190001 0.32100001 0.62800002 138 16 0
2.7090001 0.32300001 0.634 104 16 0
2.697 0.32499999 0.63999999 90 16 0
2.6789999 0.32699999 0.64399999 96 16 0
2.6689999 0.329 0.64999998 89 16 0
2.661 0.331 0.65600002 105 16 0
2.6489999 0.333 0.66100001 80 16 0
2.641 0.33500001 0.66799998 38 16 0
2.6259999 0.336 0.67199999 79 16 0
2.6159999 0.338 0.67799997 97 16 0
2.6059999 0.34 0.68300003 103 16 0
2.5969999 0.34200001 0.68900001 109 16 0
2.579 0.34299999 0.69300002 110 16 0
2.566 0.34400001 0.69700003 114 16 0
2.5550001 0.34599999 0.70200002 104 16 0
2.5480001 0.34799999 0.708 112 16 0
2.533 0.34900001 0.71200001 148 16 0
2.5190001 0.34999999 0.71600002 150 16 0
2.5090001 0.35100001 0.72100002 150 16 0
2.5009999 0.35299999 0.727 150 16 0
2.4890001 0.354 0.73199999 150 16 0
2.484 0.35600001 0.73799998 150 16 0
2.467 0.35600001 0.741 145 16 0
2.457 0.35800001 0.74599999 150 16 0
2.45 0.359 0.75099999 150 16 0
2.438 0.36000001 0.75599998 150 16 0
2.424 0.361 0.759 150 16 0
2.415 0.36199999 0.764 150 16 0
2.4070001 0.36300001 0.76999998 150 16 0
2.3959999 0.36399999 0.77399999 150 16 0
2.3829999 0.36500001 0.77700001 150 16 0
2.3740001 0.366 0.78200001 150 16 0
2.362 0.366 0.78600001 149 16 0
2.3570001 0.368 0.792 150 16 0
2.3510001 0.36899999 0.79699999 150 16 0
2.336 0.36899999 0.80000001 150 16 0
2.3310001 0.37099999 0.80599999 150 16 0
2.319 0.37099999 0.80900002 150 16 0
2.3139999 0.373 0.815 150 16 0
2.3010001 0.373 0.81800002 150 16 0
2.29 0.373 0.82099998 150 16 0
2.2809999 0.37400001 0.82599998 150 16 0
2.2709999 0.37400001 0.829 150 16 0
2.2609999 0.375 0.833 150 16 0
2.2509999 0.375 0.83700001 150 16 0
2.2479999 0.37599999 0.84299999 150 16 0
2.233 0.37599999 0.84500003 150 16 0
2.223 0.37599999 0.84899998 150 16 0
2.2179999 0.377 0.85399997 150 16 0
2.2030001 0.377 0.85600001 143 16 0
2.1989999 0.37799999 0.861 150 16 0
2.1900001 0.37799999 0.86500001 150 16 0
2.1789999 0.37799999 0.86799997 150 16 0
2.171 0.37799999 0.87199998 150 16 0
2.164 0.37900001 0.87599999 150 16 0
2.154 0.37799999 0.87900001 150 16 0
2.142 0.37799999 0.88200003 150 16 0
2.1359999 0.37799999 0.88599998 150 16 0
2.131 0.37900001 0.89099997 150 16 0
2.1199999 0.37900001 0.89300001 150 16 0
2.112 0.37900001 0.89700001 150 16 0
2.105 0.37900001 0.90100002 150 16 0
2.096 0.37900001 0.90399998 150 16 0
2.089 0.37900001 0.90799999 150 16 0
2.0869999 0.37900001 0.91399997 150 16 0
2.075 0.37900001 0.91600001 150 16 0
2.066 0.37799999 0.91799998 150 16 0
2.0569999 0.37799999 0.921 150 16 0
2.052 0.37799999 0.926 150 16 0
2.0450001 0.37799999 0.93000001 150 16 0
2.0339999 0.377 0.93099999 150 16 0
2.023 0.37599999 0.93300003 150 16 0
2.02 0.377 0.93800002 150 16 0
2.0120001 0.37599999 0.94099998 150 16 0
2.0079999 0.37599999 0.94599998 150 16 0
2.0009999 0.37599999 0.949 150 16 0
1.99 0.375 0.94999999 150 16 0
1.982 0.37400001 0.95300001 150 16 0
1.977 0.37400001 0.95700002 150 16 0
1.965 0.373 0.95700002 150 16 0
1.959 0.37200001 0.96100003 150 16 0
1.954 0.37200001 0.96499997 150 16 0
1.9450001 0.37099999 0.96700001 150 16 0
1.9400001 0.37099999 0.97000003 150 16 0
1.928 0.36899999 0.97100002 150 16 0
1.929 0.37 0.977 150 16 0
1.9170001 0.368 0.977 150 16 0
1.913 0.368 0.98100001 150 16 0
1.905 0.36700001 0.98400003 150 16 0
1.903 0.36700001 0.98799998 150 16 0
1.891 0.36500001 0.98799998 150 16 0
1.886 0.36399999 0.991 150 16 0
1.877 0.36300001 0.99299997 150 16 0
1.874 0.36199999 0.99699998 150 16 0
1.869 0.36199999 1 150 16 0
1.863 0.361 1.003 150 16 0
1.855 0.359 1.0039999 150 16 0
1.852 0.359 1.008 150 16 0
1.844 0.35699999 1.0089999 150 16 0
1.837 0.35600001 1.011 150 16 0
1.831 0.35499999 1.013 150 16 0
1.827 0.354 1.017 150 16 0
1.8200001 0.35299999 1.018 150 16 0
1.814 0.35100001 1.02 150 16 0
1.811 0.35100001 1.024 150 16 0
1.8049999 0.34900001 1.026 150 16 0
1.7970001 0.34799999 1.027 150 16 0
1.795 0.347 1.031 150 16 0
1.789 0.34599999 1.0319999 150 16 0
1.7819999 0.34400001 1.033 150 16 0
1.7819999 0.34400001 1.039 150 16 0
1.774 0.34200001 1.039 150 16 0
1.768 0.34 1.04 150 16 0
1.7640001 0.33899999 1.043 150 16 0
1.758 0.33700001 1.044 150 16 0
1.755 0.336 1.0470001 150 16 0
1.751 0.33399999 1.049 150 16 0
1.733 0.33000001 1.043 150 18 0
1.729 0.329 1.046 150 16 0
1.727 0.32800001 1.049 150 16 0
1.725 0.32699999 1.052 150 16 0
1.721 0.32499999 1.054 150 16 0
1.719 0.324 1.057 150 16 0
1.716 0.32300001 1.059 150 16 0
1.714 0.322 1.063 150 16 0
1.7079999 0.31999999 1.063 150 16 0
1.702 0.31799999 1.064 150 16 0
1.701 0.31600001 1.067 150 16 0
1.7 0.315 1.0700001 150 16 0
1.693 0.31299999 1.0700001 150 16 0
1.692 0.31099999 1.073 150 16 0
1.688 0.31 1.074 150 16 0
1.683 0.30700001 1.074 150 16 0
1.682 0.30599999 1.0779999 150 16 0
1.676 0.30399999 1.077 150 16 0
1.673 0.30199999 1.079 150 16 0
1.671 0.30000001 1.081 150 16 0
1.668 0.29899999 1.0829999 150 16 0
1.6670001 0.29699999 1.085 150 16 0
1.663 0.29499999 1.085 150 16 0
1.656 0.292 1.084 150 16 0
1.655 0.29100001 1.087 150 16 0
1.65 0.28799999 1.086 150 16 0
1.649 0.287 1.0880001 150 16 0
1.649 0.285 1.091 150 16 0
1.642 0.28200001 1.089 150 19 0
1.642 0.28099999 1.092 150 16 0
1.641 0.27900001 1.094 150 16 0
1.6390001 0.27700001 1.095 150 16 0
1.638 0.27500001 1.097 150 16 0
1.632 0.27200001 1.095 150 16 0
1.6339999 0.271 1.098 150 16 0
1.633 0.26899999 1.1 150 16 0
1.632 0.26699999 1.102 150 16 0
1.628 0.264 1.101 150 16 0
1.628 0.26300001 1.103 150 16 0
1.624 0.25999999 1.102 150 16 0
1.624 0.25799999 1.104 150 16 0
1.623 0.25600001 1.105 150 16 0
1.622 0.25400001 1.1059999 150 16 0
1.614 0.25099999 1.102 150 19 0
1.614 0.249 1.103 150 16 0
1.614 0.24699999 1.104 150 16 0
1.6109999 0.244 1.104 150 16 0
1.613 0.243 1.1059999 150 16 0
1.607 0.23999999 1.103 150 16 0
1.61 0.23800001 1.1059999 150 16 0
1.612 0.236 1.108 150 16 0
1.6059999 0.233 1.105 150 19 0
1.604 0.23100001 1.105 150 16 0
1.608 0.229 1.108 150 16 0
1.6059999 0.226 1.107 150 16 0
1.604 0.22400001 1.1059999 150 16 0
1.604 0.222 1.107 150 16 0
1.605 0.219 1.107 150 16 0
1.6059999 0.21699999 1.108 150 16 0
1.605 0.215 1.108 150 16 0
1.605 0.213 1.108 150 16 0
1.605 0.20999999 1.108 150 16 0
1.603 0.208 1.1059999 150 16 0
1.603 0.205 1.1059999 150 16 0
1.607 0.20299999 1.109 150 16 0
1.604 0.20100001 1.1059999 150 16 0
1.607 0.199 1.108 150 16 0
1.607 0.19599999 1.107 150 16 0
1.608 0.19400001 1.107 150 16 0
1.6059999 0.191 1.105 150 16 0
1.61 0.189 1.107 150 16 0
1.6109999 0.18700001 1.1059999 150 16 0
1.612 0.185 1.1059999 150 16 0
1.6109999 0.182 1.104 150 16 0
1.615 0.18000001 1.1059999 150 16 0
1.612 0.177 1.103 150 16 0
1.613 0.175 1.102 150 16 0
1.62 0.17299999 1.105 150 19 0
1.6160001 0.171 1.101 150 16 0
1.6160001 0.168 1.1 150 16 0
1.6210001 0.16599999 1.102 150 16 0
1.619 0.163 1.098 150 16 0
1.626 0.162 1.101 150 16 0
1.626 0.15899999 1.099 150 16 0
1.628 0.15700001 1.098 150 16 0
1.6289999 0.155 1.097 150 16 0
1.631 0.152 1.096 150 16 0
1.633 0.15000001 1.095 150 16 0
1.6440001 0.148 1.101 150 18 0
1.636 0.145 1.092 150 16 0
1.645 0.14300001 1.096 150 16 0
1.651 0.142 1.097 150 16 0
1.653 0.139 1.096 150 16 0
1.651 0.13699999 1.092 150 16 0
1.655 0.134 1.092 150 16 0
1.658 0.132 1.091 150 16 0
1.66 0.13 1.09 150 16 0
1.6619999 0.12800001 1.0880001 150 16 0
1.666 0.125 1.087 150 16 0
1.666 0.123 1.084 150 16 0
1.668 0.121 1.082 150 16 0
1.669 0.118 1.079 150 16 0
1.673 0.116 1.079 150 16 0
1.678 0.114 1.0779999 150 16 0
1.683 0.112 1.0779999 150 16 0
1.686 0.11 1.076 150 16 0
1.686 0.107 1.073 150 16 0
1.688 0.105 1.0700001 150 16 0
1.696 0.103 1.071 150 16 0
1.7 0.101 1.0700001 150 16 0
1.704 0.098999999 1.069 150 16 0
1.707 0.097000003 1.067 150 16 0
1.709 0.094999999 1.064 150 16 0
1.7130001 0.093000002 1.062 150 16 0
1.721 0.090999998 1.063 150 16 0
1.723 0.089000002 1.0599999 150 16 0
1.727 0.086999997 1.058 150 16 0
1.734 0.085000001 1.058 150 16 0
1.7359999 0.082999997 1.0549999 150 16 0
1.742 0.081 1.054 150 16 0
1.7460001 0.079000004 1.052 150 16 0
1.749 0.077 1.049 150 16 0
1.7539999 0.075000003 1.0470001 150 16 0
1.756 0.072999999 1.044 150 16 0
1.7589999 0.071000002 1.041 150 16 0
1.763 0.068999998 1.038 150 16 0
1.765 0.067000002 1.035 150 16 0
1.772 0.064999998 1.034 150 16 0
1.774 0.063000001 1.03 150 16 0
1.79 0.061000001 1.034 150 19 0
1.798 0.059 1.034 150 16 0
1.802 0.057999998 1.031 150 16 0
1.808 0.056000002 1.029 150 16 0
1.817 0.054000001 1.029 150 16 0
1.822 0.052000001 1.026 150 16 0
1.824 0.050000001 1.022 150 16 0
1.832 0.048999999 1.021 150 16 0
1.837 0.046999998 1.0190001 150 16 0
1.84 0.045000002 1.0140001 150 16 0
1.848 0.043000001 1.013 150 16 0
1.853 0.041000001 1.011 150 16 0
1.8559999 0.039999999 1.006 150 16 0
1.8660001 0.037999999 1.006 150 16 0
1.868 0.035999998 1.002 150 16 0
1.873 0.034000002 0.99800003 150 16 0
1.88 0.033 0.99599999 150 16 0
1.893 0.030999999 0.99699998 150 16 0
1.896 0.029999999 0.99299997 150 16 0
1.904 0.028000001 0.991 150 16 0
1.911 0.026000001 0.98799998 150 16 0
1.916 0.025 0.98500001 150 16 0
1.925 0.023 0.98299998 150 16 0
1.932 0.022 0.98100001 150 16 0
1.938 0.02 0.97799999 150 16 0
1.9450001 0.018999999 0.97500002 150 16 0
1.952 0.017000001 0.97299999 150 16 0
1.957 0.015 0.96799999 150 16 0
1.9630001 0.014 0.96499997 150 16 0
1.973 0.013 0.963 150 16 0
1.9809999 0.011 0.96100003 150 16 0
1.988 0.0099999998 0.958 150 16 0
1.995 0.0080000004 0.95499998 150 16 0
1.999 0.0070000002 0.94999999 150 16 0
2.007 0.0049999999 0.94700003 150 16 0
2.0209999 0.0040000002 0.94700003 150 16 0
2.0239999 0.003 0.94199997 150 16 0
2.039 0.001 0.94199997 150 16 0
2.043 0 0.93699998 150 16 0
2.052 0 0.93400002 150 16 0
2.059 -0.0020000001 0.93099999 150 16 0
2.0669999 -0.003 0.92699999 144 16 0
2.075 -0.0040000002 0.92400002 150 16 0
2.0769999 -0.0049999999 0.91799998 149 16 0
2.0880001 -0.0070000002 0.91600001 136 16 0
2.1010001 -0.0080000004 0.91500002 144 16 0
2.1029999 -0.0089999996 0.90899998 125 16 0
2.115 -0.0099999998 0.90700001 134 16 0
2.119 -0.011 0.90100002 140 16 0
2.1300001 -0.013 0.898 132 16 0
2.1340001 -0.014 0.89300001 112 16 0
2.145 -0.015 0.88999999 131 16 0
2.152 -0.016000001 0.88599998 126 16 0
2.1600001 -0.017000001 0.88200003 119 16 0
2.1719999 -0.017999999 0.88 130 16 0
2.175 -0.018999999 0.87400001 125 16 0
2.1860001 -0.02 0.87099999 128 16 0
2.197 -0.021 0.86699998 125 16 0
2.207 -0.022 0.86400002 119 16 0
2.2179999 -0.023 0.861 120 16 0
2.2279999 -0.024 0.85699999 124 16 0
2.233 -0.025 0.852 108 16 0
2.2409999 -0.026000001 0.847 98 16 0
2.253 -0.027000001 0.84399998 101 16 0
2.2620001 -0.028000001 0.83999997 129 16 0
2.2720001 -0.028999999 0.83600003 120 16 0
2.283 -0.029999999 0.83200002 119 16 0
2.2909999 -0.030999999 0.82700002 124 16 0
2.3010001 -0.030999999 0.82300001 116 16 0
2.3139999 -0.032000002 0.81999999 113 16 0
2.319 -0.033 0.81300002 104 16 0
2.3340001 -0.034000002 0.81099999 108 16 0
2.345 -0.035 0.80699998 108 16 0
2.3529999 -0.035 0.80199999 115 16 0
2.3610001 -0.035999998 0.796 105 16 0
2.3729999 -0.037 0.792 125 16 0
2.3800001 -0.037999999 0.78600001 124 16 0
2.388 -0.037999999 0.78100002 106 16 0
2.3989999 -0.039000001 0.77600002 112 16 0
2.4100001 -0.039999999 0.77200001 112 16 0
2.4189999 -0.039999999 0.76700002 144 16 0
2.4289999 -0.041000001 0.76200002 108 16 0
2.438 -0.041000001 0.75599998 100 16 0
2.45 -0.041999999 0.75199997 117 16 0
2.4590001 -0.041999999 0.74599999 120 16 0
2.4660001 -0.043000001 0.74000001 123 16 0
2.4849999 -0.044 0.73699999 108 16 0
2.4949999 -0.044 0.73199999 115 16 0
2.506 -0.045000002 0.72600001 105 16 0
2.5209999 -0.045000002 0.722 70 16 0
2.526 -0.045000002 0.71499997 60 16 0
2.5420001 -0.046 0.71100003 60 16 0
2.556 -0.046 0.70700002 66 16 0
2.572 -0.046999998 0.70200002 65 16 0
2.5799999 -0.046999998 0.69599998 55 16 0
2.592 -0.048 0.69 56 16 0
2.608 -0.048 0.68599999 53 16 0
2.622 -0.048 0.68099999 48 16 0
2.6359999 -0.048999999 0.67500001 37 16 0
2.6489999 -0.048999999 0.67000002 47 16 0
2.6619999 -0.048999999 0.66399997 32 16 0
2.6719999 -0.048999999 0.65799999 33 16 0
2.6819999 -0.050000001 0.65100002 31 16 0
2.6930001 -0.050000001 0.64499998 35 16 0
2.707 -0.050000001 0.63999999 33 16 0
2.7179999 -0.050000001 0.63300002 34 16 0
2.733 -0.050000001 0.62699997 33 16 0
2.747 -0.050999999 0.62099999 32 16 0
2.7639999 -0.050999999 0.616 33 16 0
2.7750001 -0.050999999 0.60900003 31 16 0
2.789 -0.050999999 0.60299999 32 16 0
2.8039999 -0.050999999 0.597 31 16 0
2.8199999 -0.050999999 0.59100002 31 16 0
2.8310001 -0.050999999 0.58399999 32 16 0
2.8469999 -0.050999999 0.57800001 28 16 0
2.858 -0.050999999 0.57099998 26 16 0
2.875 -0.050999999 0.565 30 16 0
2.891 -0.050999999 0.55800003 32 16 0
2.9030001 -0.050999999 0.551 31 16 0
2.9230001 -0.050999999 0.54500002 30 16 0
2.938 -0.050999999 0.53799999 30 16 0
2.9489999 -0.050000001 0.52999997 30 16 0
2.9679999 -0.050000001 0.52399999 31 16 0
2.9879999 -0.050000001 0.51800001 32 16 0
2.9990001 -0.050000001 0.50999999 30 16 0
3.016 -0.050000001 0.50300002 30 16 0
3.0320001 -0.048999999 0.495 32 16 0
3.0450001 -0.048999999 0.48800001 30 16 0
3.069 -0.048999999 0.48100001 31 16 0
3.0829999 -0.048999999 0.47299999 30 16 0
3.0999999 -0.048 0.46599999 31 16 0
3.1199999 -0.048 0.45899999 31 16 0
3.138 -0.046999998 0.45100001 32 16 0
3.158 -0.046999998 0.44400001 33 16 0
3.175 -0.046999998 0.43599999 32 16 0
3.1949999 -0.046 0.428 30 16 0
3.2060001 -0.046 0.419 29 16 0
3.2320001 -0.045000002 0.412 29 16 0
3.2509999 -0.045000002 0.40400001 30 16 0
3.2679999 -0.044 0.39500001 28 16 0
3.2839999 -0.043000001 0.38600001 29 16 0
3.3069999 -0.043000001 0.37799999 29 16 0
3.3239999 -0.041999999 0.36899999 29 16 0
3.349 -0.041999999 0.361 29 16 0
3.3670001 -0.041000001 0.352 29 16 0
3.3859999 -0.039999999 0.34299999 31 16 0
3.4000001 -0.039000001 0.33399999 70 16 0
3.401 -0.037999999 0.32300001 66 16 0
3.3889999 -0.037 0.31099999 59 16 0
3.3859999 -0.035999998 0.29899999 65 16 0
3.382 -0.035 0.28799999 60 16 0
3.3729999 -0.034000002 0.27599999 79 16 0
3.3670001 -0.033 0.26499999 72 16 0
3.362 -0.030999999 0.25400001 63 16 0
3.3559999 -0.029999999 0.242 67 16 0
3.3529999 -0.028999999 0.23199999 63 16 0
3.3540001 -0.028000001 0.221 77 16 0
3.339 -0.027000001 0.20900001 71 16 0
3.336 -0.025 0.198 82 16 0
3.3299999 -0.024 0.18700001 77 16 0
3.323 -0.023 0.176 84 16 0
3.3210001 -0.021 0.16500001 94 16 0
3.3099999 -0.02 0.154 111 16 0
3.306 -0.018999999 0.14300001 101 16 0
3.3 -0.017000001 0.132 106 16 0
3.3 -0.016000001 0.121 111 16 0
3.2920001 -0.015 0.111 50 16 0
3.286 -0.013 0.1 29 16 0
3.2880001 -0.012 0.089000002 23 16 0
3.286 -0.011 0.079000004 20 16 0
3.29 -0.0089999996 0.068000004 18 16 0
3.2909999 -0.0080000004 0.057999998 17 16 0
3.2869999 -0.0060000001 0.046999998 16 16 0
3.2809999 -0.0049999999 0.037 16 16 0
3.286 -0.003 0.026000001 16 16 0
3.2839999 -0.0020000001 0.015 16 16 0
3.286 0 0.0049999999 16 16 0
3.279 0 -0.0049999999 15 16 0
3.279 0.0020000001 -0.015 16 16 0
3.2780001 0.003 -0.026000001 16 16 0
3.279 0.0049999999 -0.035999998 16 16 0
3.2750001 0.0070000002 -0.046999998 17 16 0
3.2750001 0.0080000004 -0.057 17 16 0
3.2750001 0.0099999998 -0.067000002 17 16 0
3.273 0.011 -0.078000002 18 16 0
3.2709999 0.013 -0.088 18 16 0
3.2750001 0.015 -0.098999999 19 16 0
3.2739999 0.017000001 -0.109 22 16 0
3.2739999 0.017999999 -0.12 25 16 0
3.2720001 0.02 -0.13 31 16 0
3.2679999 0.022 -0.141 36 16 0
3.2639999 0.024 -0.15099999 42 16 0
3.2579999 0.025 -0.161 48 16 0
3.2509999 0.027000001 -0.171 52 16 0
3.247 0.028999999 -0.18099999 61 16 0
3.2449999 0.030999999 -0.191 55 16 0
3.2309999 0.032000002 -0.20100001 53 16 0
3.2260001 0.034000002 -0.211 52 16 0
3.2260001 0.035999998 -0.221 58 16 0
3.2179999 0.037999999 -0.23100001 56 16 0
3.2119999 0.039999999 -0.241 51 16 0
3.2060001 0.041999999 -0.25 47 16 0
3.204 0.044 -0.26100001 46 16 0
3.197 0.045000002 -0.27000001 44 16 0
3.1919999 0.046999998 -0.28 39 16 0
3.188 0.048999999 -0.28999999 39 16 0
3.184 0.050999999 -0.30000001 40 16 0
3.1789999 0.052999999 -0.30899999 40 16 0
3.1719999 0.055 -0.31900001 41 16 0
3.1659999 0.057 -0.32800001 46 16 0
3.1619999 0.059 -0.338 60 16 0
3.1559999 0.061000001 -0.347 49 16 0
3.1500001 0.063000001 -0.35699999 59 16 0
3.148 0.064999998 -0.36700001 65 16 0
3.1389999 0.067000002 -0.37599999 50 16 0
3.1329999 0.068999998 -0.38499999 51 16 0
3.128 0.071000002 -0.39399999 50 16 0
3.115 0.072999999 -0.40200001 49 16 0
3.1129999 0.075000003 -0.412 49 16 0
3.109 0.077 -0.42199999 54 16 0
3.1029999 0.079000004 -0.43099999 49 16 0
3.098 0.082000002 -0.44 54 16 0
3.096 0.083999999 -0.44999999 55 16 0
3.0910001 0.086000003 -0.45899999 56 16 0
3.085 0.088 -0.46799999 54 16 0
3.082 0.090000004 -0.477 50 16 0
3.072 0.092 -0.48500001 64 16 0
3.0680001 0.094999999 -0.495 81 16 0
3.063 0.097000003 -0.50400001 84 16 0
3.0550001 0.098999999 -0.51200002 77 16 0
3.0480001 0.101 -0.51999998 80 16 0
3.0439999 0.103 -0.52999997 90 16 0
3.04 0.106 -0.53899997 83 16 0
3.0380001 0.108 -0.54799998 88 16 0
3.0320001 0.11 -0.55699998 89 16 0
3.026 0.113 -0.565 88 16 0
3.0209999 0.115 -0.574 80 16 0
3.0190001 0.117 -0.583 94 16 0
3.0139999 0.12 -0.59200001 86 16 0
3.0050001 0.122 -0.60000002 84 16 0
3.003 0.124 -0.60900003 84 16 0
2.9979999 0.127 -0.61699998 82 16 0
2.9879999 0.12899999 -0.625 107 16 0
2.9860001 0.132 -0.634 103 16 0
2.9809999 0.134 -0.64300001 109 16 0
2.9760001 0.13600001 -0.65100002 91 16 0
2.977 0.139 -0.66100001 101 16 0
2.9679999 0.142 -0.66799998 100 16 0
2.9619999 0.14399999 -0.676 94 16 0
2.9549999 0.146 -0.68400002 101 16 0
2.95 0.149 -0.69300002 107 16 0
2.947 0.152 -0.70099998 113 16 0
2.9389999 0.154 -0.70899999 107 16 0
2.934 0.156 -0.71700001 109 16 0
2.9319999 0.15899999 -0.72600001 102 16 0
2.9289999 0.162 -0.73500001 106 16 0
2.9200001 0.164 -0.74199998 110 16 0
2.9119999 0.167 -0.74900001 104 16 0
2.911 0.17 -0.75800002 104 16 0
2.904 0.17200001 -0.76499999 110 16 0
2.902 0.175 -0.77399999 116 16 0
2.898 0.178 -0.78299999 105 16 0
2.892 0.18000001 -0.79000002 120 16 0
2.8870001 0.183 -0.79799998 112 16 0
2.8859999 0.186 -0.80699998 121 16 0
2.878 0.189 -0.81400001 125 16 0
2.8710001 0.191 -0.82099998 127 16 0
2.869 0.19400001 -0.82999998 137 16 0
2.8629999 0.197 -0.83700001 137 16 0
2.852 0.199 -0.84299999 123 16 0
2.842 0.20200001 -0.84899998 123 16 0
2.842 0.205 -0.85799998 128 16 0
2.8369999 0.208 -0.866 150 16 0
2.8299999 0.211 -0.87300003 148 16 0
2.826 0.213 -0.88 150 16 0
2.823 0.21600001 -0.88800001 146 16 0
2.8199999 0.22 -0.89600003 150 16 0
2.8099999 0.222 -0.90200001 150 16 0
2.8110001 0.22499999 -0.91100001 150 16 0
2.8039999 0.228 -0.91799998 150 16 0
2.8 0.23100001 -0.926 150 16 0
2.7969999 0.234 -0.93400002 150 16 0
2.789 0.237 -0.94 150 16 0
2.783 0.23999999 -0.94599998 150 16 0
2.78 0.243 -0.954 137 16 0
2.7780001 0.24600001 -0.96200001 147 16 0
2.7709999 0.249 -0.96899998 142 16 0
2.7780001 0.25400001 -0.98000002 33 16 0
2.789 0.25799999 -0.99299997 23 16 0
3.971 0.373 -1.426 0 17 0
