# .PCD v0.7 - Point Cloud Data file format
VERSION 0.7
FIELDS x y z intensity tag line
SIZE 4 4 4 4 1 1
TYPE F F F F U U
COUNT 1 1 1 1 1 1
WIDTH 1352
HEIGHT 1
VIEWPOINT 0 0 0 1 0 0 0
POINTS 1352
DATA ascii
1.702 -0.67299998 -0.48100001 150 16 0
1.698 -0.67500001 -0.48500001 150 16 0
1.696 -0.67799997 -0.48800001 150 16 0
1.6900001 -0.67900002 -0.491 150 16 0
1.688 -0.68199998 -0.49399999 150 16 0
1.679 -0.68199998 -0.49599999 150 16 0
1.675 -0.68400002 -0.49900001 150 16 0
1.6670001 -0.68400002 -0.50099999 150 16 0
1.663 -0.68599999 -0.50400001 150 16 0
1.663 -0.69 -0.50800002 150 16 0
1.658 -0.69099998 -0.51099998 150 16 0
1.648 -0.69 -0.51200002 150 16 0
1.645 -0.69300002 -0.51499999 150 16 0
1.643 -0.69499999 -0.51899999 150 16 0
1.635 -0.69499999 -0.51999998 150 16 0
1.631 -0.69700003 -0.523 150 16 0
1.627 -0.69800001 -0.52600002 150 16 0
1.625 -0.70099998 -0.52999997 150 16 0
1.6210001 -0.70200002 -0.53200001 150 16 0
1.618 -0.704 -0.53600001 150 16 0
1.609 -0.70300001 -0.537 150 16 0
1.608 -0.70599997 -0.54100001 150 16 0
1.601 -0.70499998 -0.542 150 16 0
1.599 -0.70700002 -0.546 2 0 0
1.595 -0.70899999 -0.54799998 150 16 0
1.591 -0.70999998 -0.551 150 16 0
1.59 -0.71200001 -0.55500001 2 0 0
1.58 -0.70999998 -0.55500001 59 0 0
1.5829999 -0.71499997 -0.56099999 150 16 0
1.576 -0.71399999 -0.56199998 2 0 0
1.573 -0.71499997 -0.565 2 0 0
1.569 -0.71600002 -0.56800002 150 16 0
1.568 -0.71799999 -0.57200003 150 16 0
1.5650001 -0.71899998 -0.574 82 0 0
1.561 -0.72000003 -0.57700002 85 0 0
1.558 -0.72100002 -0.57999998 74 0 0
1.554 -0.72100002 -0.58200002 69 0 0
1.549 -0.722 -0.58399999 74 0 0
1.55 -0.72399998 -0.58899999 76 0 0
1.546 -0.72500002 -0.59100002 87 0 0
1.54 -0.72399998 -0.59299999 68 0 0
1.538 -0.72500002 -0.59600002 75 0 0
1.538 -0.727 -0.59899998 87 0 0
1.531 -0.72600001 -0.60000002 107 0 0
1.529 -0.727 -0.60399997 82 0 0
1.5319999 -0.73000002 -0.60900003 102 0 0
1.52 -0.72600001 -0.60799998 116 0 0
1.524 -0.73000002 -0.61299998 85 0 0
1.515 -0.72799999 -0.61299998 109 0 0
1.513 -0.72899997 -0.616 87 0 0
1.51 -0.72899997 -0.61900002 86 0 0
1.508 -0.72899997 -0.62099999 102 0 0
1.5039999 -0.72899997 -0.62400001 121 0 0
1.5039999 -0.73100001 -0.62699997 109 0 0
1.5039999 -0.73199999 -0.63099998 115 0 0
1.502 -0.73199999 -0.63300002 90 0 0
1.5 -0.73199999 -0.63599998 116 0 0
1.497 -0.73199999 -0.63800001 114 0 0
1.497 -0.73400003 -0.64200002 133 0 0
1.495 -0.73400003 -0.64499998 104 0 0
1.492 -0.73400003 -0.64700001 93 0 0
1.4910001 -0.73400003 -0.64899999 113 0 0
1.489 -0.73400003 -0.65200001 107 0 0
1.4859999 -0.73299998 -0.65399998 105 0 0
1.487 -0.73500001 -0.65799999 125 0 0
1.483 -0.73400003 -0.65899998 150 0 0
1.483 -0.73500001 -0.66299999 116 0 0
1.482 -0.73500001 -0.66500002 121 0 0
1.479 -0.73400003 -0.667 121 0 0
1.4809999 -0.73500001 -0.671 122 0 0
1.477 -0.73400003 -0.67199999 143 0 0
1.478 -0.73500001 -0.676 115 0 0
1.477 -0.73500001 -0.67900002 118 0 0
1.478 -0.736 -0.68199998 150 0 0
1.475 -0.73500001 -0.68400002 133 0 0
1.476 -0.73500001 -0.68699998 114 0 0
1.473 -0.73400003 -0.68800002 115 0 0
1.472 -0.73400003 -0.69099998 115 0 0
1.473 -0.73400003 -0.69400001 128 0 0
1.47 -0.73299998 -0.69499999 149 0 0
1.47 -0.73299998 -0.69800001 121 0 0
1.471 -0.73299998 -0.70099998 127 0 0
1.47 -0.73199999 -0.70300001 108 0 0
1.469 -0.73199999 -0.70499998 147 0 0
1.469 -0.73100001 -0.708 114 0 0
1.4680001 -0.73100001 -0.70999998 150 0 0
1.47 -0.73100001 -0.713 150 16 0
1.47 -0.73100001 -0.71600002 150 16 0
1.47 -0.73000002 -0.71799999 150 16 0
1.4680001 -0.72899997 -0.72000003 150 0 0
1.469 -0.72799999 -0.722 150 16 0
1.4680001 -0.727 -0.72399998 150 16 0
1.4680001 -0.72600001 -0.72600001 150 16 0
1.467 -0.72500002 -0.72799999 150 16 0
1.475 -0.72799999 -0.73400003 150 18 0
1.473 -0.72600001 -0.73500001 150 16 0
1.475 -0.72600001 -0.73799998 150 16 0
1.477 -0.72600001 -0.741 150 16 0
1.474 -0.72399998 -0.741 150 16 0
1.479 -0.72500002 -0.745 150 16 0
1.474 -0.72100002 -0.74400002 150 16 0
1.477 -0.72100002 -0.74699998 150 16 0
1.478 -0.72100002 -0.75 150 16 0
1.483 -0.72100002 -0.75400001 150 16 0
1.482 -0.72000003 -0.755 150 16 0
1.4809999 -0.71799999 -0.75599998 150 16 0
1.483 -0.71700001 -0.75800002 150 0 0
1.4859999 -0.71700001 -0.76099998 150 16 0
1.488 -0.71600002 -0.76300001 150 16 0
0 0 0 0 0 0
1.492 -0.71399999 -0.76700002 150 16 0
1.492 -0.71200001 -0.76800001 150 16 0
1.492 -0.71100003 -0.76999998 150 16 0
1.4960001 -0.70999998 -0.77200001 150 16 0
1.497 -0.70899999 -0.77399999 150 16 0
1.497 -0.70700002 -0.77499998 150 16 0
1.5 -0.70599997 -0.77700001 150 16 0
1.501 -0.704 -0.778 150 16 0
1.503 -0.70300001 -0.77999997 150 16 0
1.5089999 -0.70300001 -0.78399998 150 3 0
1.511 -0.70200002 -0.78500003 150 16 0
1.515 -0.70099998 -0.78799999 150 0 0
1.5140001 -0.69800001 -0.787 150 16 0
1.518 -0.69800001 -0.79000002 150 16 0
1.5190001 -0.69499999 -0.79000002 150 16 0
1.522 -0.69400001 -0.792 150 0 0
1.524 -0.69199997 -0.79299998 150 16 0
1.531 -0.69300002 -0.79699999 150 3 0
1.5319999 -0.69099998 -0.79799998 150 0 0
1.535 -0.68900001 -0.79900002 150 16 0
1.534 -0.68599999 -0.79799998 150 0 0
1.541 -0.68599999 -0.80199999 150 16 0
1.5420001 -0.68400002 -0.80199999 150 0 0
1.55 -0.68400002 -0.80599999 150 19 0
1.549 -0.68000001 -0.80500001 150 16 0
1.561 -0.68300003 -0.81099999 103 2 0
1.557 -0.67799997 -0.80800003 89 0 0
1.564 -0.67799997 -0.81099999 84 0 0
1.568 -0.676 -0.81300002 87 0 0
1.572 -0.67500001 -0.81400001 104 0 0
1.573 -0.67199999 -0.81400001 96 0 0
1.582 -0.67199999 -0.81699997 98 3 0
1.5829999 -0.66900003 -0.81699997 99 0 0
1.585 -0.66600001 -0.81699997 7 0 0
1.587 -0.66399997 -0.81699997 115 0 0
1.591 -0.662 -0.81800002 4 0 0
1.5930001 -0.66000003 -0.81800002 4 0 0
1.594 -0.65700001 -0.81699997 3 0 0
1.6059999 -0.65799999 -0.82200003 5 3 0
1.612 -0.65600002 -0.82300001 150 16 0
1.614 -0.65399998 -0.82300001 3 0 0
1.618 -0.65200001 -0.824 3 0 0
1.619 -0.648 -0.82300001 150 16 0
1.626 -0.64700001 -0.824 150 16 0
1.6289999 -0.64499998 -0.824 150 16 0
1.6339999 -0.64300001 -0.82499999 150 16 0
1.642 -0.64200002 -0.82700002 150 16 0
1.643 -0.639 -0.82599998 150 16 0
1.645 -0.63599998 -0.82499999 150 16 0
1.652 -0.634 -0.82700002 150 16 0
1.655 -0.63099998 -0.82599998 150 16 0
1.659 -0.62900001 -0.82599998 150 16 0
1.6619999 -0.62599999 -0.82499999 150 16 0
1.669 -0.625 -0.82599998 150 16 0
1.6720001 -0.62199998 -0.82599998 150 16 0
1.687 -0.62300003 -0.83099997 150 19 0
1.691 -0.62099999 -0.82999998 150 16 0
1.693 -0.61699998 -0.829 150 16 0
1.697 -0.61500001 -0.82800001 150 16 0
1.701 -0.61199999 -0.82800001 150 16 0
1.709 -0.611 -0.829 150 16 0
1.714 -0.60799998 -0.82800001 150 16 0
1.719 -0.60600001 -0.82800001 150 16 0
1.727 -0.60399997 -0.829 2 0 0
1.7309999 -0.60100001 -0.82800001 2 0 0
1.737 -0.59899998 -0.82800001 2 0 0
1.745 -0.597 -0.829 2 0 0
1.749 -0.59399998 -0.82800001 150 16 0
1.752 -0.59100002 -0.82599998 150 16 0
1.758 -0.58899999 -0.82599998 150 16 0
1.7640001 -0.58600003 -0.82499999 150 16 0
1.77 -0.58399999 -0.82499999 150 16 0
1.773 -0.58099997 -0.82300001 150 16 0
1.78 -0.57800001 -0.82300001 150 16 0
1.786 -0.57599998 -0.82200003 150 16 0
1.789 -0.57200003 -0.81999999 150 16 0
1.804 -0.57300001 -0.82300001 150 19 0
1.808 -0.56999999 -0.82200003 150 16 0
1.811 -0.56599998 -0.81999999 150 16 0
1.814 -0.56199998 -0.81699997 150 16 0
1.823 -0.56099999 -0.81699997 150 16 0
1.831 -0.55900002 -0.81699997 150 16 0
1.839 -0.55699998 -0.81699997 150 16 0
1.848 -0.55500001 -0.81699997 150 16 0
1.8559999 -0.55199999 -0.81699997 150 16 0
1.858 -0.54900002 -0.81400001 150 16 0
1.864 -0.546 -0.81199998 150 16 0
1.867 -0.542 -0.81 150 16 0
1.88 -0.54100001 -0.81099999 150 16 0
1.877 -0.53600001 -0.80599999 150 16 0
1.893 -0.53600001 -0.80800003 150 19 0
1.896 -0.53200001 -0.80500001 150 16 0
1.9 -0.52899998 -0.80299997 150 16 0
1.908 -0.52600002 -0.80199999 150 16 0
1.918 -0.52399999 -0.80199999 150 16 0
1.929 -0.523 -0.80199999 145 16 0
1.936 -0.51999998 -0.80000001 143 16 0
1.938 -0.51599997 -0.796 150 16 0
1.947 -0.514 -0.79500002 129 16 0
1.952 -0.50999999 -0.79299998 138 16 0
1.957 -0.50700003 -0.79000002 143 16 0
1.966 -0.505 -0.78899997 141 16 0
1.973 -0.50199997 -0.787 139 16 0
1.984 -0.5 -0.787 150 16 0
1.9910001 -0.49700001 -0.78500003 146 16 0
1.9960001 -0.49399999 -0.78200001 149 16 0
2.0020001 -0.49000001 -0.77899998 145 16 0
2.013 -0.48899999 -0.77899998 132 16 0
2.0190001 -0.48500001 -0.77600002 136 16 0
2.023 -0.48199999 -0.77200001 131 16 0
2.026 -0.47799999 -0.76899999 121 16 0
2.0350001 -0.47499999 -0.76700002 137 16 0
2.0569999 -0.47600001 -0.76999998 130 19 0
2.0599999 -0.472 -0.76599997 138 16 0
2.069 -0.46900001 -0.764 131 16 0
2.076 -0.46599999 -0.76099998 138 16 0
2.0829999 -0.463 -0.75800002 124 16 0
2.092 -0.46000001 -0.75599998 131 16 0
2.096 -0.456 -0.75199997 128 16 0
2.105 -0.454 -0.75 130 16 0
2.1170001 -0.45199999 -0.74900001 118 16 0
2.1270001 -0.449 -0.74699998 124 16 0
2.1300001 -0.44499999 -0.74199998 120 16 0
2.138 -0.442 -0.73900002 122 16 0
2.1459999 -0.43900001 -0.73699999 117 16 0
2.1530001 -0.43599999 -0.73299998 92 16 0
2.1570001 -0.43200001 -0.72899997 83 16 0
2.171 -0.43000001 -0.72799999 82 16 0
2.1789999 -0.42699999 -0.72500002 88 16 0
2.184 -0.42300001 -0.72100002 88 16 0
2.187 -0.419 -0.71600002 81 16 0
2.1989999 -0.417 -0.71399999 91 16 0
2.2119999 -0.41499999 -0.71200001 85 16 0
2.221 -0.412 -0.70899999 87 16 0
2.2279999 -0.40799999 -0.70499998 87 16 0
2.2390001 -0.40599999 -0.70300001 84 16 0
2.247 -0.40200001 -0.699 84 16 0
2.2539999 -0.39899999 -0.69499999 75 16 0
2.2620001 -0.396 -0.69199997 75 16 0
2.273 -0.39300001 -0.68900001 67 16 0
2.2809999 -0.38999999 -0.685 47 16 0
2.2909999 -0.38699999 -0.68199998 63 16 0
2.2969999 -0.38299999 -0.67699999 59 16 0
2.309 -0.38100001 -0.67400002 61 16 0
2.3180001 -0.37799999 -0.671 62 16 0
2.323 -0.37400001 -0.66600001 60 16 0
2.3280001 -0.37 -0.66100001 50 16 0
2.342 -0.368 -0.65799999 50 16 0
2.3540001 -0.36500001 -0.65499997 50 16 0
2.3670001 -0.36199999 -0.65200001 62 16 0
2.3729999 -0.359 -0.64700001 61 16 0
2.381 -0.35499999 -0.64300001 59 16 0
2.3859999 -0.35100001 -0.63700002 56 16 0
2.398 -0.34799999 -0.634 57 16 0
2.4059999 -0.345 -0.63 49 16 0
2.414 -0.34200001 -0.625 50 16 0
2.424 -0.338 -0.62099999 47 16 0
2.4330001 -0.33500001 -0.616 44 16 0
2.438 -0.331 -0.611 43 16 0
2.4489999 -0.32800001 -0.60699999 40 16 0
2.4579999 -0.32499999 -0.602 48 16 0
2.4719999 -0.322 -0.59799999 41 16 0
2.4779999 -0.31799999 -0.59299999 38 16 0
2.487 -0.315 -0.588 38 16 0
2.4920001 -0.31099999 -0.58200002 39 16 0
2.4990001 -0.30700001 -0.57700002 37 16 0
2.5179999 -0.30500001 -0.574 33 16 0
2.5280001 -0.30199999 -0.56900001 33 16 0
2.5320001 -0.29800001 -0.56300002 33 16 0
2.543 -0.294 -0.55800003 34 16 0
2.552 -0.29100001 -0.55299997 34 16 0
2.562 -0.287 -0.54799998 35 16 0
2.5699999 -0.28400001 -0.542 35 16 0
2.582 -0.28099999 -0.537 35 16 0
2.5940001 -0.27700001 -0.53299999 33 16 0
2.6029999 -0.27399999 -0.52700001 34 16 0
2.6110001 -0.27000001 -0.52100003 34 16 0
2.6210001 -0.26699999 -0.51599997 34 16 0
2.6340001 -0.26300001 -0.51099998 32 16 0
2.6429999 -0.25999999 -0.505 33 16 0
2.6530001 -0.25600001 -0.49900001 34 16 0
2.6630001 -0.25299999 -0.49399999 33 16 0
2.6719999 -0.249 -0.48800001 33 16 0
2.6849999 -0.24600001 -0.48199999 31 16 0
2.6919999 -0.242 -0.47600001 32 16 0
2.704 -0.23800001 -0.47 34 16 0
2.707 -0.234 -0.463 29 16 0
2.721 -0.23100001 -0.458 30 16 0
2.7309999 -0.227 -0.45199999 31 16 0
2.7390001 -0.223 -0.44499999 29 16 0
2.7509999 -0.22 -0.43900001 30 16 0
2.7609999 -0.21600001 -0.433 30 16 0
2.773 -0.213 -0.42699999 30 16 0
2.7820001 -0.20900001 -0.41999999 29 16 0
2.7939999 -0.205 -0.414 30 16 0
2.809 -0.20200001 -0.40799999 29 16 0
2.819 -0.198 -0.40099999 29 16 0
2.8280001 -0.19400001 -0.39500001 28 16 0
2.8399999 -0.191 -0.38800001 27 16 0
2.848 -0.18700001 -0.38100001 27 16 0
2.862 -0.183 -0.375 28 16 0
2.8710001 -0.17900001 -0.368 28 16 0
2.8840001 -0.176 -0.361 28 16 0
2.8929999 -0.17200001 -0.354 29 16 0
2.904 -0.168 -0.347 28 16 0
2.9189999 -0.164 -0.34 28 16 0
2.925 -0.16 -0.33199999 27 16 0
2.9419999 -0.15700001 -0.32600001 28 16 0
2.9549999 -0.153 -0.31900001 27 16 0
2.96 -0.149 -0.31 28 16 0
2.977 -0.145 -0.30399999 27 16 0
2.9849999 -0.141 -0.296 27 16 0
2.993 -0.13699999 -0.28799999 29 16 0
3.0139999 -0.133 -0.28099999 28 16 0
3.0220001 -0.12899999 -0.273 29 16 0
3.036 -0.125 -0.26499999 29 16 0
3.046 -0.121 -0.25799999 28 16 0
3.066 -0.118 -0.25 28 16 0
3.079 -0.114 -0.242 28 16 0
3.0869999 -0.109 -0.234 28 16 0
3.0969999 -0.105 -0.226 28 16 0
3.1110001 -0.101 -0.21799999 29 16 0
3.1240001 -0.097000003 -0.20900001 28 16 0
3.1400001 -0.093000002 -0.20100001 29 16 0
3.1530001 -0.089000002 -0.193 30 16 0
3.1619999 -0.085000001 -0.184 29 16 0
3.175 -0.081 -0.176 30 16 0
3.1900001 -0.077 -0.168 34 16 0
3.197 -0.071999997 -0.15899999 65 16 0
3.2090001 -0.068000004 -0.15000001 150 16 0
3.2090001 -0.064000003 -0.14 150 16 0
3.2090001 -0.059 -0.131 150 16 0
3.2149999 -0.055 -0.122 150 16 0
3.217 -0.050999999 -0.112 150 16 0
3.22 -0.046 -0.103 150 16 0
3.2179999 -0.041999999 -0.093000002 150 16 0
3.2279999 -0.037999999 -0.083999999 150 16 0
3.2279999 -0.033 -0.075000003 150 16 0
3.227 -0.028999999 -0.064999998 150 16 0
3.23 -0.025 -0.056000002 150 16 0
3.23 -0.02 -0.046 120 16 0
3.23 -0.016000001 -0.037 45 16 0
3.2379999 -0.012 -0.027000001 28 16 0
3.247 -0.0080000004 -0.017999999 21 16 0
3.2650001 -0.003 -0.0080000004 18 16 0
3.2820001 0 0.001 19 16 0
3.293 0.0040000002 0.0099999998 19 16 0
3.303 0.0089999996 0.02 19 16 0
3.3180001 0.013 0.029999999 20 16 0
3.3299999 0.017000001 0.039999999 21 16 0
3.346 0.022 0.050000001 24 16 0
3.3610001 0.026000001 0.061000001 37 16 0
3.3659999 0.029999999 0.071000002 76 16 0
3.362 0.035 0.081 64 16 0
3.3399999 0.039000001 0.090000004 34 16 0
3.3150001 0.043000001 0.098999999 33 16 0
3.2939999 0.046 0.109 33 16 0
3.273 0.050000001 0.118 49 16 0
3.267 0.054000001 0.127 150 16 0
3.267 0.057999998 0.13699999 150 16 0
3.2709999 0.061999999 0.147 150 16 0
3.27 0.066 0.15700001 150 16 0
3.2750001 0.07 0.167 150 16 0
3.2750001 0.074000001 0.177 150 16 0
3.279 0.078000002 0.18700001 150 16 0
3.2850001 0.082999997 0.197 150 16 0
3.286 0.086000003 0.207 150 16 0
3.2869999 0.090000004 0.21699999 150 16 0
3.289 0.093999997 0.227 150 16 0
3.2909999 0.097999997 0.237 150 16 0
3.293 0.102 0.24699999 150 16 0
3.3 0.106 0.25799999 150 16 0
3.2950001 0.11 0.26699999 150 16 0
3.2980001 0.114 0.278 150 16 0
3.3039999 0.118 0.28799999 150 16 0
3.312 0.122 0.29899999 150 16 0
3.3110001 0.126 0.30899999 150 16 0
3.313 0.13 0.31900001 150 16 0
3.3169999 0.134 0.33000001 150 16 0
3.3150001 0.138 0.34 150 16 0
3.3199999 0.142 0.34999999 150 16 0
3.3199999 0.145 0.36000001 150 16 0
3.3169999 0.149 0.37 105 16 0
3.296 0.152 0.37799999 43 16 0
3.2820001 0.155 0.38699999 43 16 0
3.2650001 0.15800001 0.39500001 44 16 0
3.2479999 0.16 0.403 43 16 0
3.2279999 0.163 0.41 45 16 0
3.207 0.16500001 0.417 44 16 0
3.194 0.168 0.426 45 16 0
3.177 0.171 0.433 44 16 0
3.1570001 0.17299999 0.44 41 16 0
3.1429999 0.176 0.44800001 42 16 0
3.1210001 0.178 0.45500001 43 16 0
3.1059999 0.18000001 0.46200001 41 16 0
3.092 0.182 0.46900001 41 16 0
3.0739999 0.185 0.47600001 42 16 0
3.056 0.18700001 0.48300001 42 16 0
3.039 0.189 0.49000001 44 16 0
3.023 0.191 0.49700001 45 16 0
3.0050001 0.193 0.50300002 42 16 0
2.987 0.19499999 0.509 43 16 0
2.974 0.197 0.51700002 45 16 0
2.9590001 0.199 0.523 42 16 0
2.938 0.2 0.52899998 44 16 0
2.9289999 0.20299999 0.53600001 50 16 0
2.914 0.205 0.54299998 44 16 0
2.9000001 0.206 0.54900002 42 16 0
2.888 0.208 0.55599999 48 16 0
2.8729999 0.20999999 0.56300002 42 16 0
2.8570001 0.212 0.56800002 43 16 0
2.8429999 0.213 0.57499999 45 16 0
2.8340001 0.215 0.58200002 54 16 0
2.8180001 0.21699999 0.588 54 16 0
2.8050001 0.21799999 0.59399998 54 16 0
2.786 0.22 0.59899998 53 16 0
2.7750001 0.221 0.60500002 69 16 0
2.7639999 0.223 0.61199999 97 16 0
2.7520001 0.22400001 0.61799997 67 16 0
2.734 0.22499999 0.62300003 60 16 0
2.721 0.227 0.62800002 59 16 0
2.7090001 0.228 0.634 61 16 0
2.6930001 0.229 0.639 70 16 0
2.687 0.23100001 0.64700001 118 16 0
2.674 0.23199999 0.65200001 111 16 0
2.6630001 0.234 0.65799999 125 16 0
2.6489999 0.235 0.66299999 117 16 0
2.635 0.236 0.66799998 116 16 0
2.6240001 0.237 0.67400002 126 16 0
2.6170001 0.23800001 0.68099999 138 16 0
2.596 0.23899999 0.68400002 126 16 0
2.585 0.23999999 0.68900001 135 16 0
2.573 0.241 0.69499999 135 16 0
2.562 0.242 0.69999999 116 16 0
2.553 0.243 0.70599997 127 16 0
2.5450001 0.244 0.71200001 128 16 0
2.5280001 0.244 0.71499997 118 16 0
2.5190001 0.24600001 0.72100002 109 16 0
2.5050001 0.24600001 0.72500002 112 16 0
2.5 0.24699999 0.73199999 145 16 0
2.4890001 0.248 0.73699999 122 16 0
2.477 0.249 0.74199998 72 16 0
2.461 0.249 0.745 98 16 0
2.454 0.25 0.75099999 150 16 0
2.4400001 0.25 0.755 150 16 0
2.428 0.25099999 0.759 150 16 0
2.4200001 0.252 0.76499999 150 16 0
2.411 0.252 0.76999998 150 16 0
2.4000001 0.25299999 0.77399999 150 16 0
2.388 0.25299999 0.77899998 150 16 0
2.378 0.25400001 0.78299999 150 16 0
2.3729999 0.255 0.78899997 150 16 0
2.3629999 0.255 0.79400003 150 16 0
2.352 0.255 0.79799998 150 16 0
2.3429999 0.25600001 0.80299997 150 16 0
2.3299999 0.25600001 0.80699998 150 16 0
2.322 0.25600001 0.81199998 150 16 0
2.3110001 0.25600001 0.81599998 150 16 0
2.296 0.25600001 0.81800002 150 16 0
2.2920001 0.257 0.824 150 16 0
2.2780001 0.257 0.82700002 150 16 0
2.2690001 0.257 0.83099997 150 16 0
2.2620001 0.257 0.83600003 150 16 0
2.2509999 0.257 0.83999997 150 16 0
2.2420001 0.257 0.84399998 150 16 0
2.2309999 0.257 0.847 150 16 0
2.227 0.25799999 0.85299999 150 16 0
2.217 0.25799999 0.85699999 150 16 0
2.2049999 0.257 0.86000001 150 16 0
2.1949999 0.257 0.86299998 150 16 0
2.187 0.257 0.86699998 150 16 0
2.178 0.257 0.87099999 150 16 0
2.1730001 0.257 0.87699997 150 16 0
2.1589999 0.257 0.87800002 150 16 0
2.152 0.257 0.88300002 150 16 0
2.145 0.257 0.88700002 150 16 0
2.1389999 0.257 0.89200002 150 16 0
2.1210001 0.255 0.89200002 150 16 0
2.118 0.255 0.89700001 150 16 0
2.1070001 0.255 0.89999998 150 16 0
2.1040001 0.255 0.90600002 150 16 0
2.092 0.25400001 0.90799999 150 16 0
2.0869999 0.25400001 0.91299999 150 16 0
2.0780001 0.25400001 0.91600001 150 16 0
2.0710001 0.25400001 0.92000002 150 16 0
2.0669999 0.25400001 0.92500001 150 16 0
2.0510001 0.252 0.92400002 150 16 0
2.0510001 0.25299999 0.93099999 150 16 0
2.0450001 0.252 0.93599999 150 16 0
2.033 0.25099999 0.93699998 150 16 0
2.0250001 0.25 0.94 150 16 0
2.02 0.25 0.94400001 150 16 0
2.01 0.249 0.94599998 150 16 0
2.003 0.249 0.94999999 150 16 0
1.988 0.24699999 0.94999999 150 16 0
1.982 0.24600001 0.95300001 150 16 0
1.98 0.24600001 0.95899999 150 16 0
1.971 0.245 0.96100003 150 16 0
1.961 0.244 0.963 150 16 0
1.955 0.244 0.96600002 150 16 0
1.951 0.243 0.97000003 150 16 0
1.944 0.242 0.97299999 150 16 0
1.931 0.241 0.97399998 150 16 0
1.929 0.23999999 0.97899997 150 16 0
1.926 0.23999999 0.98299998 150 16 0
1.913 0.23800001 0.98299998 150 16 0
1.908 0.237 0.98699999 150 16 0
1.9 0.236 0.98799998 150 16 0
1.8940001 0.235 0.991 150 16 0
1.8890001 0.234 0.995 150 16 0
1.88 0.233 0.99599999 150 16 0
1.875 0.23199999 1 150 16 0
1.869 0.23100001 1.003 150 16 0
1.864 0.23 1.006 150 16 0
1.854 0.229 1.006 150 16 0
1.849 0.227 1.0089999 150 16 0
1.84 0.226 1.01 150 16 0
1.837 0.22499999 1.0140001 150 16 0
1.8329999 0.22400001 1.018 150 16 0
1.824 0.222 1.0190001 150 16 0
1.8200001 0.221 1.022 150 16 0
1.817 0.22 1.026 150 16 0
1.811 0.219 1.028 150 16 0
1.807 0.21799999 1.031 150 16 0
1.798 0.21600001 1.031 150 16 0
1.793 0.215 1.034 150 16 0
1.785 0.213 1.035 150 16 0
1.781 0.212 1.038 150 16 0
1.776 0.20999999 1.04 150 16 0
1.76 0.208 1.035 150 19 0
1.756 0.206 1.038 150 16 0
1.751 0.205 1.04 150 16 0
1.749 0.204 1.044 150 16 0
1.745 0.20200001 1.0470001 150 16 0
1.743 0.20100001 1.05 150 16 0
1.737 0.199 1.051 150 16 0
1.732 0.198 1.054 150 16 0
1.7309999 0.19599999 1.057 150 16 0
1.724 0.19499999 1.058 150 16 0
1.722 0.193 1.061 150 16 0
1.72 0.192 1.0650001 150 16 0
1.712 0.19 1.064 150 16 0
1.71 0.18799999 1.067 150 16 0
1.7029999 0.186 1.067 150 16 0
1.698 0.184 1.068 150 16 0
1.6950001 0.183 1.0700001 150 16 0
1.692 0.18099999 1.072 150 16 0
1.688 0.17900001 1.074 150 16 0
1.688 0.178 1.0779999 150 16 0
1.6799999 0.176 1.077 150 16 0
1.675 0.17399999 1.0779999 150 16 0
1.673 0.17200001 1.08 150 16 0
1.669 0.17 1.081 150 16 0
1.665 0.168 1.0829999 150 16 0
1.6619999 0.16599999 1.084 150 16 0
1.66 0.16500001 1.087 150 16 0
1.658 0.163 1.089 150 16 0
1.6569999 0.161 1.091 150 16 0
1.653 0.15899999 1.092 150 16 0
1.649 0.15700001 1.0930001 150 16 0
1.645 0.155 1.0930001 150 16 0
1.645 0.153 1.096 150 16 0
1.635 0.15099999 1.0930001 150 19 0
1.635 0.149 1.095 150 16 0
1.631 0.147 1.096 150 16 0
1.628 0.145 1.097 150 16 0
1.625 0.14300001 1.097 150 16 0
1.626 0.141 1.1 150 16 0
1.6210001 0.138 1.099 150 16 0
1.62 0.13699999 1.101 150 16 0
1.619 0.13500001 1.103 150 16 0
1.618 0.133 1.105 150 16 0
1.615 0.13 1.105 150 16 0
1.613 0.12800001 1.105 150 16 0
1.612 0.126 1.107 150 16 0
1.6109999 0.124 1.108 150 16 0
1.603 0.122 1.105 150 19 0
1.6059999 0.12 1.109 150 16 0
1.602 0.117 1.108 150 16 0
1.601 0.115 1.109 150 16 0
1.601 0.113 1.11 150 16 0
1.6 0.111 1.1109999 150 16 0
1.599 0.109 1.112 150 16 0
1.597 0.107 1.112 150 16 0
1.599 0.105 1.114 150 16 0
1.594 0.102 1.112 150 16 0
1.594 0.1 1.113 150 16 0
1.597 0.097999997 1.1160001 150 16 0
1.595 0.096000001 1.115 150 16 0
1.594 0.093000002 1.1160001 150 16 0
1.594 0.090999998 1.1160001 150 16 0
1.591 0.089000002 1.115 150 16 0
1.591 0.086999997 1.1160001 150 16 0
1.592 0.083999999 1.117 150 16 0
1.591 0.082000002 1.1160001 150 16 0
1.591 0.079999998 1.117 150 16 0
1.592 0.078000002 1.117 150 16 0
1.5930001 0.075000003 1.119 150 16 0
1.592 0.072999999 1.117 150 16 0
1.592 0.071000002 1.117 150 16 0
1.5880001 0.068000004 1.115 150 16 0
1.591 0.066 1.117 150 16 0
1.592 0.064000003 1.117 150 16 0
1.594 0.061999999 1.118 150 16 0
1.592 0.059999999 1.1160001 150 16 0
1.5930001 0.057 1.1160001 150 16 0
1.5930001 0.055 1.115 150 16 0
1.594 0.052999999 1.115 150 16 0
1.597 0.050999999 1.1160001 150 16 0
1.596 0.048 1.115 150 16 0
1.595 0.046 1.113 150 16 0
1.598 0.044 1.114 150 16 0
1.6 0.041999999 1.114 150 16 0
1.602 0.039000001 1.114 150 16 0
1.602 0.037 1.113 150 16 0
1.603 0.035 1.112 150 16 0
1.604 0.033 1.1109999 150 16 0
1.604 0.029999999 1.109 150 16 0
1.605 0.028000001 1.109 150 16 0
1.61 0.026000001 1.11 150 16 0
1.607 0.024 1.1059999 150 16 0
1.608 0.021 1.105 150 16 0
1.612 0.018999999 1.1059999 150 16 0
1.6160001 0.017000001 1.1059999 150 16 0
1.613 0.015 1.102 150 16 0
1.619 0.013 1.104 150 16 0
1.623 0.011 1.104 150 16 0
1.624 0.0080000004 1.103 150 16 0
1.625 0.0060000001 1.1 150 16 0
1.627 0.0040000002 1.099 150 16 0
1.628 0.0020000001 1.097 150 16 0
1.635 0 1.099 150 16 0
1.636 -0.001 1.097 150 16 0
1.64 -0.003 1.096 150 16 0
1.641 -0.0049999999 1.094 150 16 0
1.643 -0.0080000004 1.0930001 150 16 0
1.645 -0.0099999998 1.091 150 16 0
1.653 -0.012 1.0930001 150 16 0
1.659 -0.014 1.094 150 16 0
1.661 -0.016000001 1.091 150 16 0
1.663 -0.017999999 1.089 150 16 0
1.665 -0.02 1.087 150 16 0
1.669 -0.022 1.086 150 16 0
1.671 -0.024 1.084 150 16 0
1.675 -0.026000001 1.0829999 150 16 0
1.676 -0.028000001 1.08 150 16 0
1.6799999 -0.029999999 1.0779999 150 16 0
1.684 -0.032000002 1.077 150 16 0
1.689 -0.034000002 1.076 150 16 0
1.691 -0.035999998 1.073 150 16 0
1.697 -0.037999999 1.073 150 16 0
1.702 -0.039000001 1.072 150 16 0
1.7029999 -0.041000001 1.069 150 16 0
1.711 -0.043000001 1.069 150 16 0
1.711 -0.045000002 1.064 150 16 0
1.715 -0.046999998 1.063 150 16 0
1.725 -0.048999999 1.064 150 16 0
1.727 -0.050999999 1.061 150 16 0
1.732 -0.052000001 1.0599999 150 16 0
1.735 -0.054000001 1.057 150 16 0
1.7410001 -0.056000002 1.056 150 16 0
1.748 -0.057999998 1.0549999 150 16 0
1.748 -0.059 1.05 150 16 0
1.7539999 -0.061000001 1.049 150 16 0
1.756 -0.063000001 1.045 150 16 0
1.761 -0.064000003 1.043 150 16 0
1.763 -0.066 1.039 150 16 0
1.765 -0.067000002 1.035 150 16 0
1.771 -0.068999998 1.034 150 16 0
1.788 -0.071000002 1.038 150 19 0
1.793 -0.072999999 1.036 150 16 0
1.8 -0.074000001 1.035 150 16 0
1.802 -0.075999998 1.03 150 16 0
1.8099999 -0.078000002 1.029 150 16 0
1.817 -0.079000004 1.028 150 16 0
1.824 -0.081 1.026 150 16 0
1.83 -0.082000002 1.024 150 16 0
1.835 -0.083999999 1.021 150 16 0
1.837 -0.085000001 1.017 150 16 0
1.8430001 -0.086999997 1.0140001 150 16 0
1.85 -0.088 1.013 150 16 0
1.8559999 -0.090000004 1.01 150 16 0
1.865 -0.090999998 1.0089999 150 16 0
1.867 -0.092 1.0039999 150 16 0
1.876 -0.093999997 1.003 150 16 0
1.882 -0.094999999 1 150 16 0
1.891 -0.097000003 0.99900001 150 16 0
1.9 -0.097999997 0.99800003 150 16 0
1.905 -0.098999999 0.99400002 150 16 0
1.908 -0.1 0.98900002 150 16 0
1.916 -0.102 0.98699999 150 16 0
1.927 -0.103 0.98699999 150 16 0
1.929 -0.104 0.98199999 150 16 0
1.939 -0.106 0.98000002 150 16 0
1.949 -0.107 0.97899997 150 16 0
1.951 -0.108 0.97299999 150 16 0
1.956 -0.109 0.96899998 150 16 0
1.964 -0.11 0.96700001 150 16 0
1.975 -0.111 0.96600002 150 16 0
1.982 -0.112 0.96200001 150 16 0
1.987 -0.113 0.958 150 16 0
1.994 -0.114 0.95499998 150 16 0
1.999 -0.115 0.95099998 150 16 0
2.0039999 -0.116 0.94599998 150 16 0
2.0209999 -0.118 0.94800001 150 16 0
2.0339999 -0.119 0.94700003 150 16 0
2.04 -0.12 0.94300002 150 16 0
2.0469999 -0.121 0.93900001 149 16 0
2.053 -0.122 0.935 148 16 0
2.062 -0.123 0.93199998 148 16 0
2.0669999 -0.123 0.92699999 150 16 0
2.0799999 -0.124 0.926 150 16 0
2.0829999 -0.125 0.92000002 148 16 0
2.0929999 -0.126 0.917 150 16 0
2.1010001 -0.127 0.91399997 150 16 0
2.1099999 -0.127 0.91100001 150 16 0
2.1159999 -0.12800001 0.90600002 140 16 0
2.1240001 -0.12899999 0.90200001 145 16 0
2.1329999 -0.13 0.89899999 142 16 0
2.1389999 -0.13 0.89399999 136 16 0
2.1489999 -0.131 0.89099997 137 16 0
2.155 -0.131 0.88599998 134 16 0
2.164 -0.132 0.88200003 150 16 0
2.1730001 -0.133 0.87900001 134 16 0
2.1849999 -0.133 0.87599999 137 16 0
2.1960001 -0.134 0.87300003 109 16 0
2.2030001 -0.134 0.86799997 121 16 0
2.214 -0.13500001 0.86500001 121 16 0
2.223 -0.13600001 0.861 110 16 0
2.23 -0.13600001 0.85600001 104 16 0
2.2360001 -0.13600001 0.85100001 108 16 0
2.25 -0.13699999 0.84799999 121 16 0
2.2579999 -0.13699999 0.84399998 122 16 0
2.2690001 -0.138 0.83999997 120 16 0
2.276 -0.138 0.83499998 111 16 0
2.2880001 -0.138 0.83200002 112 16 0
2.2969999 -0.139 0.82700002 115 16 0
2.306 -0.139 0.82300001 105 16 0
2.322 -0.14 0.81999999 104 16 0
2.3269999 -0.14 0.81400001 99 16 0
2.3369999 -0.14 0.81 101 16 0
2.3499999 -0.14 0.80599999 109 16 0
2.359 -0.14 0.801 113 16 0
2.368 -0.141 0.796 67 16 0
2.3789999 -0.141 0.792 71 16 0
2.388 -0.141 0.787 67 16 0
2.3989999 -0.141 0.78200001 67 16 0
2.408 -0.141 0.77700001 67 16 0
2.4170001 -0.141 0.77200001 67 16 0
2.4260001 -0.141 0.76700002 57 16 0
2.4360001 -0.141 0.76200002 60 16 0
2.4489999 -0.141 0.75700003 72 16 0
2.4590001 -0.141 0.75199997 81 16 0
2.473 -0.141 0.74800003 62 16 0
2.4809999 -0.141 0.74199998 57 16 0
2.4960001 -0.141 0.73799998 59 16 0
2.507 -0.141 0.73299998 63 16 0
2.5120001 -0.14 0.72600001 55 16 0
2.527 -0.14 0.722 54 16 0
2.5369999 -0.14 0.71600002 58 16 0
2.549 -0.14 0.71100003 66 16 0
2.5610001 -0.139 0.70599997 61 16 0
2.575 -0.139 0.70099998 57 16 0
2.5799999 -0.139 0.69400001 46 16 0
2.595 -0.138 0.68900001 63 16 0
2.6059999 -0.138 0.68300003 59 16 0
2.6229999 -0.138 0.67900002 47 16 0
2.6370001 -0.138 0.67400002 43 16 0
2.6489999 -0.13699999 0.66799998 48 16 0
2.6600001 -0.13699999 0.662 42 16 0
2.674 -0.13600001 0.65600002 35 16 0
2.688 -0.13600001 0.65100002 28 16 0
2.698 -0.13500001 0.64499998 28 16 0
2.714 -0.13500001 0.639 33 16 0
2.7249999 -0.134 0.63300002 36 16 0
2.7349999 -0.133 0.62699997 36 16 0
2.756 -0.133 0.62199998 37 16 0
2.7690001 -0.132 0.616 37 16 0
2.7780001 -0.132 0.60900003 36 16 0
2.793 -0.131 0.60299999 36 16 0
2.8050001 -0.13 0.59600002 35 16 0
2.8180001 -0.12899999 0.58999997 33 16 0
2.8380001 -0.12899999 0.58499998 35 16 0
2.8510001 -0.12800001 0.57800001 35 16 0
2.858 -0.127 0.56999999 34 16 0
2.881 -0.126 0.565 35 16 0
2.8929999 -0.125 0.55800003 34 16 0
2.9089999 -0.124 0.55199999 34 16 0
2.924 -0.123 0.54500002 28 16 0
2.9389999 -0.122 0.53799999 29 16 0
2.947 -0.121 0.52999997 30 16 0
2.961 -0.12 0.523 30 16 0
2.9860001 -0.119 0.51800001 31 16 0
2.9979999 -0.118 0.50999999 29 16 0
3.0179999 -0.117 0.50400001 29 16 0
3.0350001 -0.116 0.49700001 30 16 0
3.0550001 -0.115 0.49000001 26 16 0
3.0680001 -0.113 0.48199999 27 16 0
3.0810001 -0.112 0.47400001 26 16 0
3.0999999 -0.111 0.46700001 26 16 0
3.118 -0.109 0.46000001 27 16 0
3.141 -0.108 0.45300001 28 16 0
3.152 -0.107 0.44499999 28 16 0
3.174 -0.105 0.43700001 28 16 0
3.191 -0.104 0.42899999 29 16 0
3.211 -0.103 0.42199999 29 16 0
3.227 -0.101 0.414 29 16 0
3.2479999 -0.098999999 0.40599999 29 16 0
3.2639999 -0.097999997 0.398 29 16 0
3.2839999 -0.096000001 0.38999999 28 16 0
3.3039999 -0.093999997 0.38100001 29 16 0
3.316 -0.093000002 0.37200001 27 16 0
3.3380001 -0.090999998 0.36399999 31 16 0
3.3559999 -0.089000002 0.35499999 37 16 0
3.3699999 -0.086999997 0.34599999 34 16 0
3.372 -0.085000001 0.33500001 27 16 0
3.3729999 -0.082000002 0.32499999 25 16 0
3.3740001 -0.079999998 0.31400001 24 16 0
3.3759999 -0.077 0.30399999 24 16 0
3.3770001 -0.075000003 0.29300001 25 16 0
3.3729999 -0.071999997 0.28200001 26 16 0
3.3829999 -0.07 0.27200001 33 16 0
3.3840001 -0.068000004 0.26199999 43 16 0
3.3740001 -0.064999998 0.25 56 16 0
3.372 -0.061999999 0.23899999 74 16 0
3.3670001 -0.059999999 0.228 121 16 0
3.362 -0.057 0.21699999 102 16 0
3.3559999 -0.054000001 0.206 115 16 0
3.348 -0.052000001 0.19499999 75 16 0
3.3369999 -0.048999999 0.184 73 16 0
3.3380001 -0.046 0.17399999 76 16 0
3.3269999 -0.043000001 0.163 68 16 0
3.3239999 -0.041000001 0.152 83 16 0
3.316 -0.037999999 0.141 94 16 0
3.306 -0.035 0.131 66 16 0
3.303 -0.032000002 0.12 77 16 0
3.2980001 -0.029999999 0.109 68 16 0
3.2950001 -0.027000001 0.098999999 83 16 0
3.2809999 -0.024 0.088 79 16 0
3.2809999 -0.021 0.078000002 50 16 0
3.273 -0.017999999 0.068000004 38 16 0
3.2679999 -0.016000001 0.057 27 16 0
3.266 -0.013 0.046999998 21 16 0
3.2709999 -0.0099999998 0.037 17 16 0
3.2780001 -0.0070000002 0.027000001 15 16 0
3.279 -0.0040000002 0.017000001 16 16 0
3.279 -0.001 0.0060000001 16 16 0
3.2809999 0 -0.003 16 16 0
3.286 0.003 -0.013 16 16 0
3.286 0.0060000001 -0.023 16 16 0
3.2869999 0.0089999996 -0.033 16 16 0
3.2939999 0.012 -0.044 16 16 0
3.2980001 0.015 -0.054000001 18 16 0
3.2969999 0.017999999 -0.064000003 21 16 0
3.302 0.021 -0.075000003 28 16 0
3.2909999 0.024 -0.085000001 36 16 0
3.2850001 0.027000001 -0.094999999 43 16 0
3.2780001 0.029999999 -0.104 48 16 0
3.2720001 0.033 -0.114 47 16 0
3.267 0.035999998 -0.124 49 16 0
3.257 0.039000001 -0.134 50 16 0
3.2520001 0.041999999 -0.14399999 46 16 0
3.2490001 0.045000002 -0.154 42 16 0
3.2420001 0.048 -0.164 37 16 0
3.237 0.052000001 -0.17299999 34 16 0
3.2360001 0.055 -0.183 36 16 0
3.233 0.057999998 -0.193 41 16 0
3.2249999 0.061000001 -0.20299999 49 16 0
3.214 0.064000003 -0.212 55 16 0
3.21 0.067000002 -0.222 52 16 0
3.2019999 0.07 -0.23100001 51 16 0
3.194 0.072999999 -0.23999999 54 16 0
3.1930001 0.075999998 -0.25 51 16 0
3.1830001 0.079000004 -0.259 51 16 0
3.177 0.082999997 -0.26800001 50 16 0
3.1730001 0.086000003 -0.278 51 16 0
3.1689999 0.089000002 -0.287 51 16 0
3.1589999 0.092 -0.296 52 16 0
3.155 0.094999999 -0.30599999 52 16 0
3.148 0.097999997 -0.315 49 16 0
3.1400001 0.101 -0.32300001 66 16 0
3.1359999 0.105 -0.333 65 16 0
3.1300001 0.108 -0.34200001 78 16 0
3.1199999 0.111 -0.34999999 79 16 0
3.119 0.114 -0.36000001 80 16 0
3.1129999 0.117 -0.36899999 83 16 0
3.1040001 0.121 -0.377 87 16 0
3.1029999 0.124 -0.38600001 87 16 0
3.0940001 0.127 -0.39500001 75 16 0
3.0869999 0.13 -0.403 78 16 0
3.0829999 0.134 -0.412 92 16 0
3.0799999 0.13699999 -0.421 89 16 0
3.0710001 0.14 -0.43000001 92 16 0
3.0680001 0.14300001 -0.43900001 89 16 0
3.0610001 0.147 -0.447 93 16 0
3.056 0.15000001 -0.456 94 16 0
3.052 0.153 -0.46399999 89 16 0
3.0439999 0.156 -0.472 93 16 0
3.039 0.16 -0.48100001 87 16 0
3.0339999 0.163 -0.48899999 71 16 0
3.026 0.16599999 -0.498 86 16 0
3.02 0.17 -0.50599998 78 16 0
3.017 0.17299999 -0.51499999 88 16 0
3.0109999 0.176 -0.523 84 16 0
3.0039999 0.18000001 -0.53100002 79 16 0
3 0.183 -0.53899997 81 16 0
2.997 0.18700001 -0.54799998 87 16 0
2.9890001 0.19 -0.55599999 82 16 0
2.9860001 0.19400001 -0.56400001 76 16 0
2.983 0.197 -0.57300001 81 16 0
2.974 0.2 -0.57999998 91 16 0
2.9690001 0.204 -0.588 95 16 0
2.9579999 0.207 -0.59500003 73 16 0
2.9560001 0.20999999 -0.60399997 89 16 0
2.95 0.214 -0.61199999 89 16 0
2.9449999 0.21699999 -0.62 87 16 0
2.938 0.221 -0.62699997 87 16 0
2.9360001 0.22400001 -0.63599998 90 16 0
2.9330001 0.228 -0.64399999 85 16 0
2.928 0.23199999 -0.65200001 97 16 0
2.921 0.235 -0.65899998 93 16 0
2.914 0.23800001 -0.66600001 100 16 0
2.911 0.242 -0.67500001 97 16 0
2.9030001 0.245 -0.68199998 102 16 0
2.8970001 0.249 -0.68900001 100 16 0
2.8929999 0.252 -0.69700003 121 16 0
2.885 0.25600001 -0.704 122 16 0
2.878 0.259 -0.71100003 120 16 0
2.8729999 0.26300001 -0.71799999 125 16 0
2.8670001 0.266 -0.72600001 118 16 0
2.8629999 0.27000001 -0.73299998 128 16 0
2.8599999 0.27399999 -0.741 126 16 0
2.8559999 0.278 -0.74900001 120 16 0
2.848 0.28099999 -0.755 130 16 0
2.8440001 0.285 -0.76300001 131 16 0
2.8410001 0.289 -0.77100003 122 16 0
2.8310001 0.292 -0.77700001 131 16 0
2.8269999 0.296 -0.78399998 122 16 0
2.8299999 0.30000001 -0.79299998 124 16 0
2.8199999 0.303 -0.79900002 150 16 0
2.812 0.30700001 -0.80500001 150 16 0
2.806 0.31 -0.81199998 150 16 0
2.803 0.31400001 -0.81999999 150 16 0
2.7969999 0.31799999 -0.82599998 150 16 0
2.79 0.322 -0.833 150 16 0
2.7880001 0.32600001 -0.83999997 150 16 0
2.783 0.329 -0.847 150 16 0
2.78 0.333 -0.85500002 150 16 0
2.7690001 0.33700001 -0.86000001 150 16 0
2.7650001 0.34 -0.86699998 150 16 0
2.7620001 0.345 -0.87400001 150 16 0
2.757 0.34799999 -0.88099998 150 16 0
2.753 0.352 -0.88800001 150 16 0
2.75 0.35600001 -0.89499998 150 16 0
2.7460001 0.36000001 -0.90200001 150 16 0
2.7390001 0.36399999 -0.90799999 150 16 0
2.7360001 0.368 -0.91500002 150 16 0
2.733 0.37200001 -0.92199999 150 16 0
2.7249999 0.37599999 -0.92699999 150 16 0
2.72 0.38 -0.93300003 150 16 0
2.7119999 0.38299999 -0.93900001 150 16 0
2.704 0.38699999 -0.94400001 150 16 0
2.7119999 0.39199999 -0.95499998 29 16 0
2.7060001 0.396 -0.95999998 6 16 0
0 0 0 0 16 0
0 0 0 0 16 0
0 0 0 0 16 0
0 0 0 0 16 0
0 0 0 0 16 0
2.4909999 0.391 -0.92799997 0 18 0
0 0 0 0 16 0
0 0 0 0 16 0
0 0 0 0 16 0
0 0 0 0 16 0
0 0 0 0 16 0
2.645 0.44400001 -1.031 3 16 0
2.645 0.449 -1.038 24 16 0
2.631 0.45199999 -1.04 120 16 0
2.625 0.456 -1.046 150 16 0
2.6210001 0.46000001 -1.051 150 16 0
2.612 0.463 -1.0549999 150 16 0
2.6099999 0.46799999 -1.062 150 16 0
2.6029999 0.472 -1.066 150 16 0
2.5999999 0.47600001 -1.072 150 16 0
2.5999999 0.48100001 -1.079 150 16 0
2.592 0.48500001 -1.0829999 150 16 0
2.5880001 0.48899999 -1.089 150 16 0
2.582 0.493 -1.0930001 150 16 0
2.5799999 0.498 -1.099 150 16 0
2.5710001 0.50099999 -1.103 150 16 0
2.573 0.50700003 -1.1109999 150 16 0
2.5650001 0.50999999 -1.114 150 16 0
2.5610001 0.514 -1.119 150 16 0
2.556 0.51800001 -1.124 150 16 0
2.55 0.52200001 -1.128 150 16 0
2.5450001 0.52700001 -1.133 150 16 0
2.546 0.53200001 -1.14 150 16 0
2.539 0.53600001 -1.143 150 16 0
2.5350001 0.54000002 -1.148 150 16 0
2.5320001 0.54500002 -1.154 150 16 0
2.526 0.54900002 -1.1569999 150 16 0
2.523 0.55299997 -1.1619999 150 16 0
2.52 0.55800003 -1.1670001 150 16 0
2.5139999 0.56199998 -1.171 150 16 0
2.5079999 0.565 -1.174 150 16 0
2.5039999 0.56999999 -1.179 150 16 0
2.5009999 0.57499999 -1.184 150 16 0
2.493 0.57800001 -1.186 150 16 0
2.494 0.58399999 -1.193 150 16 0
2.4909999 0.588 -1.197 150 16 0
2.484 0.59200001 -1.2 150 16 0
2.48 0.59600002 -1.204 150 16 0
2.4760001 0.60000002 -1.2079999 150 16 0
2.4719999 0.60500002 -1.212 150 16 0
2.467 0.60900003 -1.216 150 16 0
2.4619999 0.61299998 -1.219 150 16 0
2.461 0.61799997 -1.224 150 16 0
2.4579999 0.62300003 -1.228 150 16 0
2.4519999 0.62699997 -1.23 150 16 0
2.4489999 0.63200003 -1.234 150 16 0
2.4449999 0.63599998 -1.238 150 16 0
2.4360001 0.639 -1.238 150 16 0
2.4389999 0.64499998 -1.245 150 16 0
2.4360001 0.64999998 -1.249 150 16 0
2.4330001 0.65399998 -1.252 150 16 0
2.428 0.65799999 -1.255 150 16 0
2.421 0.66100001 -1.256 150 16 0
2.418 0.66600001 -1.26 150 16 0
2.415 0.671 -1.263 150 16 0
2.4119999 0.67500001 -1.266 150 16 0
2.4070001 0.67900002 -1.268 150 16 0
2.4059999 0.68400002 -1.272 150 16 0
2.4030001 0.68900001 -1.275 150 16 0
2.395 0.69199997 -1.276 150 16 0
2.395 0.69700003 -1.28 150 16 0
2.3889999 0.70099998 -1.281 150 16 0
2.3859999 0.70499998 -1.284 150 16 0
2.3840001 0.70999998 -1.2869999 150 16 0
2.3770001 0.713 -1.288 150 16 0
2.378 0.71799999 -1.2920001 150 16 0
2.375 0.72299999 -1.295 150 16 0
2.3670001 0.72600001 -1.294 150 16 0
2.365 0.73000002 -1.2970001 150 16 0
2.368 0.736 -1.302 150 16 0
2.359 0.73900002 -1.3 150 16 0
2.3599999 0.74400002 -1.304 150 16 0
2.359 0.74900001 -1.307 150 16 0
2.352 0.75199997 -1.307 150 16 0
2.348 0.75599998 -1.308 150 16 0
2.346 0.75999999 -1.3099999 150 16 0
2.342 0.764 -1.311 150 16 0
2.3399999 0.76800001 -1.312 150 16 0
2.3310001 0.76999998 -1.3099999 150 16 0
2.3369999 0.77700001 -1.316 150 16 0
2.326 0.778 -1.313 150 16 0
2.3239999 0.78299999 -1.314 150 16 0
2.323 0.787 -1.316 150 16 0
2.319 0.79000002 -1.316 150 16 0
2.3169999 0.79500002 -1.318 150 16 0
2.316 0.79900002 -1.319 150 16 0
2.313 0.80299997 -1.3200001 150 16 0
2.313 0.80699998 -1.322 150 16 0
2.3069999 0.81 -1.3200001 150 16 0
2.3050001 0.81400001 -1.321 150 16 0
2.3039999 0.81800002 -1.322 150 16 0
2.3039999 0.82300001 -1.323 150 16 0
2.302 0.82599998 -1.324 150 16 0
2.299 0.82999998 -1.323 150 16 0
2.2969999 0.83399999 -1.324 150 16 0
2.2939999 0.83700001 -1.323 150 16 0
2.2939999 0.84100002 -1.324 150 16 0
2.2909999 0.84399998 -1.323 150 16 0
2.289 0.84799999 -1.324 150 16 0
2.2880001 0.852 -1.324 150 16 0
2.2869999 0.85600001 -1.323 150 16 0
2.283 0.85799998 -1.322 150 16 0
2.2839999 0.86299998 -1.323 150 16 0
2.2820001 0.866 -1.322 150 16 0
2.277 0.86799997 -1.319 150 16 0
2.2809999 0.87300003 -1.322 150 16 0
2.2780001 0.87599999 -1.3200001 150 16 0
2.277 0.87900001 -1.3200001 150 16 0
2.276 0.88200003 -1.319 150 16 0
2.2720001 0.88499999 -1.316 150 16 0
2.2709999 0.88800001 -1.3150001 150 16 0
2.273 0.89200002 -1.316 150 16 0
2.273 0.89600003 -1.316 150 16 0
2.27 0.89700001 -1.313 150 16 0
2.2690001 0.90100002 -1.312 150 16 0
2.2690001 0.903 -1.3099999 150 16 0
2.2679999 0.90600002 -1.309 150 16 0
2.2679999 0.90899998 -1.308 150 16 0
2.267 0.912 -1.306 150 16 0
2.2639999 0.91399997 -1.303 150 16 0
2.266 0.91799998 -1.303 150 16 0
2.267 0.921 -1.302 150 16 0
2.266 0.92400002 -1.3 150 16 0
2.2639999 0.92500001 -1.2970001 150 16 0
2.266 0.92900002 -1.296 150 16 0
2.263 0.93000001 -1.2920001 150 16 0
2.263 0.93300003 -1.29 150 16 0
2.2639999 0.935 -1.289 150 16 0
2.2620001 0.93699998 -1.285 150 16 0
2.263 0.94 -1.284 150 16 0
2.267 0.94300002 -1.283 150 16 0
2.2639999 0.94400001 -1.279 150 16 0
2.2679999 0.94800001 -1.278 150 16 0
2.28 0.95499998 -1.283 150 18 0
2.2820001 0.95700002 -1.281 150 16 0
2.2869999 0.96100003 -1.281 150 16 0
2.2880001 0.963 -1.278 150 16 0
2.2869999 0.96499997 -1.274 150 16 0
2.2820001 0.96399999 -1.2690001 150 16 0
2.2809999 0.96499997 -1.265 150 16 0
2.2820001 0.96700001 -1.262 150 16 0
2.2750001 0.96499997 -1.2539999 150 19 0
2.2709999 0.96499997 -1.249 150 16 0
2.27 0.96600002 -1.244 150 16 0
2.2709999 0.96700001 -1.2410001 150 16 0
2.2720001 0.96899998 -1.238 150 16 0
2.273 0.97000003 -1.234 150 16 0
2.2750001 0.97100002 -1.232 150 16 0
2.273 0.97100002 -1.226 150 16 0
2.2739999 0.972 -1.223 150 16 0
2.276 0.97299999 -1.219 150 16 0
2.2780001 0.97500002 -1.216 150 16 0
2.276 0.97500002 -1.211 150 16 0
2.2850001 0.97899997 -1.211 150 16 0
2.2820001 0.97799999 -1.205 150 16 0
2.2850001 0.97899997 -1.202 150 16 0
2.286 0.97899997 -1.198 150 16 0
2.2869999 0.98000002 -1.194 150 16 0
2.29 0.98100001 -1.1900001 150 16 0
2.2909999 0.98100001 -1.186 150 16 0
2.289 0.98000002 -1.1799999 150 16 0
2.29 0.98000002 -1.175 150 16 0
2.2920001 0.98100001 -1.171 150 16 0
2.2939999 0.98100001 -1.1670001 150 16 0
2.302 0.98400003 -1.166 150 16 0
2.2969999 0.98100001 -1.158 150 16 0
2.302 0.98199999 -1.155 150 16 0
2.3010001 0.98100001 -1.15 150 16 0
2.306 0.98199999 -1.147 150 16 0
2.306 0.98199999 -1.141 150 16 0
2.3080001 0.98100001 -1.136 150 16 0
2.3110001 0.98100001 -1.132 150 16 0
2.313 0.98100001 -1.128 150 16 0
2.316 0.98100001 -1.123 150 16 0
2.3180001 0.98000002 -1.119 150 16 0
2.3210001 0.98000002 -1.114 150 16 0
2.323 0.97899997 -1.109 150 16 0
2.325 0.97899997 -1.104 150 16 0
2.3269999 0.97799999 -1.099 150 16 0
2.3310001 0.977 -1.095 150 16 0
2.3329999 0.977 -1.09 150 16 0
2.339 0.977 -1.087 150 16 0
2.3380001 0.97500002 -1.08 150 16 0
2.3410001 0.97399998 -1.075 150 16 0
2.3469999 0.97500002 -1.072 150 16 0
2.349 0.97299999 -1.067 150 16 0
2.352 0.972 -1.061 150 16 0
2.355 0.97100002 -1.057 150 16 0
2.355 0.96899998 -1.05 150 16 0
2.3629999 0.96899998 -1.0470001 150 16 0
2.375 0.972 -1.046 151 16 0
2.3759999 0.97000003 -1.04 151 16 0
2.3789999 0.96799999 -1.035 151 16 0
2.392 0.97100002 -1.034 152 16 0
2.395 0.96899998 -1.029 152 16 0
2.3989999 0.96799999 -1.024 152 16 0
2.405 0.96700001 -1.02 151 16 0
2.4059999 0.96499997 -1.0140001 151 16 0
2.402 0.95999998 -1.006 150 16 0
2.3959999 0.954 -0.99599999 150 16 0
2.3959999 0.95099998 -0.99000001 150 16 0
2.3959999 0.94800001 -0.98299998 150 16 0
2.4059999 0.94800001 -0.98000002 150 16 0
2.4089999 0.94599998 -0.97500002 150 16 0
2.4119999 0.94400001 -0.96899998 150 16 0
2.4100001 0.94 -0.96200001 150 16 0
2.4200001 0.94 -0.95899999 150 16 0
2.4170001 0.935 -0.95099998 150 16 0
2.4289999 0.93599999 -0.949 150 16 0
2.4289999 0.93300003 -0.94199997 150 16 0
2.4330001 0.93000001 -0.93699998 150 16 0
2.4360001 0.92799997 -0.93099999 150 16 0
2.4389999 0.92500001 -0.92500001 150 16 0
2.438 0.921 -0.91799998 150 16 0
2.4419999 0.91799998 -0.91299999 151 16 0
2.4460001 0.91600001 -0.90700001 150 16 0
2.4549999 0.91500002 -0.90399998 55 16 0
2.46 0.912 -0.89899999 25 16 0
2.4649999 0.91000003 -0.89300001 27 16 0
2.4560001 0.903 -0.884 78 16 0
2.47 0.90399998 -0.88200003 150 16 0
2.474 0.89999998 -0.87599999 150 16 0
2.4790001 0.898 -0.87099999 32 16 0
2.484 0.89499998 -0.866 25 16 0
2.4890001 0.89300001 -0.861 25 16 0
2.4920001 0.889 -0.85399997 31 16 0
2.4990001 0.88700002 -0.85000002 39 16 0
2.5 0.88300002 -0.84299999 35 16 0
2.5079999 0.88099998 -0.83899999 24 16 0
2.5120001 0.87699997 -0.833 21 16 0
2.51 0.87199998 -0.82599998 23 16 0
2.517 0.87 -0.82099998 131 16 0
2.516 0.86500001 -0.81400001 150 16 0
2.527 0.86299998 -0.81 150 16 0
2.53 0.85900003 -0.80400002 150 16 0
2.5350001 0.85600001 -0.79900002 150 16 0
2.5339999 0.85100001 -0.792 150 16 0
2.5409999 0.84799999 -0.787 150 16 0
2.5439999 0.84399998 -0.78100002 150 16 0
2.5480001 0.83999997 -0.77499998 150 16 0
2.553 0.83600003 -0.76999998 150 16 0
2.556 0.83200002 -0.764 150 16 0
2.559 0.82800001 -0.75800002 150 16 0
2.5639999 0.824 -0.75199997 150 16 0
2.5680001 0.81999999 -0.74699998 150 16 0
2.5699999 0.81599998 -0.74000001 150 16 0
2.5739999 0.81199998 -0.73500001 150 16 0
2.5780001 0.80699998 -0.72899997 150 16 0
2.5810001 0.80299997 -0.72299999 150 16 0
2.5880001 0.79900002 -0.71799999 150 16 0
2.5969999 0.79699999 -0.713 150 16 0
2.6070001 0.79400003 -0.70899999 150 16 0
2.6059999 0.78799999 -0.70200002 150 16 0
2.615 0.78500003 -0.69800001 150 16 0
2.6199999 0.78100002 -0.69199997 150 16 0
2.6210001 0.77600002 -0.68599999 150 16 0
2.6240001 0.77100003 -0.68000001 150 16 0
2.6329999 0.76700002 -0.67500001 150 16 0
2.6359999 0.76300001 -0.66900003 150 16 0
2.6389999 0.75800002 -0.66299999 150 16 0
2.6459999 0.75400001 -0.65799999 150 16 0
2.6500001 0.74900001 -0.65200001 150 16 0
2.6559999 0.745 -0.64700001 150 16 0
2.6570001 0.73900002 -0.63999999 150 16 0
2.6630001 0.73400003 -0.63499999 150 16 0
2.6659999 0.72899997 -0.62900001 150 16 0
2.674 0.72500002 -0.62400001 150 16 0
2.6800001 0.72100002 -0.61799997 150 16 0
2.687 0.71700001 -0.61299998 150 16 0
2.6889999 0.71100003 -0.60699999 150 16 0
2.694 0.70599997 -0.60100001 150 16 0
2.7019999 0.70200002 -0.59600002 150 16 0
2.704 0.69599998 -0.58999997 150 16 0
2.711 0.69199997 -0.58499998 150 16 0
2.717 0.68699998 -0.579 150 16 0
2.7179999 0.68099999 -0.57300001 150 16 0
2.7249999 0.676 -0.56800002 150 16 0
2.7279999 0.67000002 -0.56099999 150 16 0
2.733 0.66600001 -0.55599999 150 16 0
2.7409999 0.66100001 -0.551 150 16 0
2.744 0.65499997 -0.54500002 150 16 0
2.7490001 0.64999998 -0.53899997 150 16 0
2.757 0.64499998 -0.53399998 150 16 0
2.766 0.64099997 -0.52899998 150 16 0
2.7739999 0.63599998 -0.52399999 150 16 0
2.7709999 0.62900001 -0.51700002 150 16 0
2.78 0.62400001 -0.51200002 150 16 0
2.7850001 0.61900002 -0.50599998 150 16 0
2.7880001 0.61299998 -0.5 150 16 0
2.796 0.60799998 -0.495 150 16 0
2.7980001 0.60100001 -0.48899999 150 16 0
2.802 0.59600002 -0.48300001 150 16 0
2.8110001 0.59100002 -0.47799999 150 16 0
2.816 0.58499998 -0.472 150 16 0
2.825 0.57999998 -0.46700001 150 16 0
2.8299999 0.574 -0.46200001 150 16 0
2.8329999 0.56800002 -0.456 150 16 0
2.8429999 0.56300002 -0.45100001 150 16 0
2.8469999 0.55599999 -0.44499999 150 16 0
2.8529999 0.551 -0.43900001 150 16 0
2.859 0.54500002 -0.43399999 150 16 0
2.8629999 0.53899997 -0.428 150 16 0
2.8670001 0.53200001 -0.42199999 150 16 0
2.875 0.52700001 -0.417 150 16 0
2.878 0.51999998 -0.41100001 150 16 0
2.882 0.514 -0.405 150 16 0
2.8870001 0.50800002 -0.39899999 150 16 0
2.8940001 0.50199997 -0.39300001 150 16 0
2.902 0.49599999 -0.38800001 150 16 0
2.908 0.49000001 -0.382 150 16 0
2.918 0.484 -0.377 150 16 0
2.9189999 0.477 -0.37099999 150 16 0
2.9300001 0.472 -0.366 150 16 0
2.9319999 0.465 -0.36000001 150 16 0
2.9430001 0.45899999 -0.35499999 150 16 0
2.9460001 0.45199999 -0.34900001 150 16 0
2.954 0.44600001 -0.34299999 150 16 0
2.954 0.43900001 -0.33700001 150 16 0
2.9579999 0.43200001 -0.331 150 16 0
2.973 0.426 -0.32600001 150 16 0
2.9760001 0.419 -0.31999999 150 16 0
2.9809999 0.41299999 -0.31400001 150 16 0
2.9820001 0.405 -0.308 150 16 0
2.9909999 0.39899999 -0.303 150 16 0
2.997 0.39199999 -0.29699999 150 16 0
3.0039999 0.38499999 -0.292 150 16 0
3.006 0.37799999 -0.285 150 16 0
3.016 0.37200001 -0.28 150 16 0
3.0239999 0.36500001 -0.27399999 150 16 0
3.026 0.35800001 -0.26800001 150 16 0
3.0339999 0.35100001 -0.26300001 150 16 0
3.0350001 0.34299999 -0.257 150 16 0
3.046 0.33700001 -0.25099999 150 16 0
3.052 0.33000001 -0.24600001 150 16 0
3.056 0.322 -0.23999999 146 16 0
3.063 0.315 -0.234 150 16 0
3.073 0.308 -0.228 150 16 0
3.075 0.301 -0.222 150 16 0
3.0810001 0.29300001 -0.21600001 150 16 0
3.092 0.287 -0.211 150 16 0
3.1010001 0.27900001 -0.205 150 16 0
3.1040001 0.27200001 -0.199 150 16 0
3.1110001 0.264 -0.19400001 150 16 0
3.1199999 0.257 -0.18799999 147 16 0
3.1259999 0.25 -0.182 130 16 0
3.131 0.242 -0.176 133 16 0
3.1359999 0.234 -0.17 149 16 0
3.145 0.227 -0.164 145 16 0
3.154 0.219 -0.15899999 143 16 0
3.1619999 0.212 -0.153 142 16 0
3.1670001 0.204 -0.147 147 16 0
3.174 0.19599999 -0.141 141 16 0
3.1800001 0.18799999 -0.13500001 129 16 0
3.1900001 0.18000001 -0.12899999 133 16 0
3.1960001 0.17200001 -0.123 122 16 0
3.204 0.164 -0.117 132 16 0
3.21 0.156 -0.111 111 16 0
3.223 0.148 -0.106 132 16 0
3.2260001 0.14 -0.1 128 16 0
3.233 0.132 -0.093999997 131 16 0
3.2409999 0.124 -0.088 127 16 0
3.25 0.116 -0.082000002 127 16 0
3.2509999 0.107 -0.075999998 122 16 0
3.2579999 0.098999999 -0.068999998 104 16 0
3.2720001 0.090999998 -0.064000003 117 16 0
3.277 0.082000002 -0.057 99 16 0
3.2820001 0.072999999 -0.050999999 100 16 0
3.2920001 0.064999998 -0.045000002 54 16 0
