# .PCD v0.7 - Point Cloud Data file format
VERSION 0.7
FIELDS x y z intensity tag line
SIZE 4 4 4 4 1 1
TYPE F F F F U U
COUNT 1 1 1 1 1 1
WIDTH 1356
HEIGHT 1
VIEWPOINT 0 0 0 1 0 0 0
POINTS 1356
DATA ascii
1.354 -0.94099998 0.147 119 0 0
1.351 -0.94 0.145 150 0 0
1.351 -0.93900001 0.14300001 121 0 0
1.352 -0.94 0.141 131 0 0
1.351 -0.93900001 0.139 149 0 0
1.352 -0.94 0.13699999 132 0 0
1.352 -0.94 0.13500001 111 0 0
1.352 -0.94 0.133 95 0 0
1.352 -0.93900001 0.131 136 0 0
1.352 -0.93900001 0.12899999 149 0 0
1.351 -0.93800002 0.127 150 0 0
1.354 -0.93900001 0.125 142 0 0
1.354 -0.93900001 0.123 124 0 0
1.355 -0.93800002 0.121 131 0 0
1.354 -0.93699998 0.119 140 0 0
1.3559999 -0.93699998 0.117 150 0 0
1.354 -0.935 0.115 125 0 0
1.35 -0.93199998 0.113 100 0 0
1.353 -0.93300003 0.111 126 0 0
1.357 -0.93400002 0.109 137 0 0
1.355 -0.93199998 0.107 150 0 0
1.355 -0.93000001 0.105 128 0 0
1.359 -0.93199998 0.104 131 0 0
1.357 -0.92900002 0.101 150 0 0
1.3609999 -0.93000001 0.1 118 0 0
1.363 -0.93000001 0.097999997 138 0 0
1.363 -0.92799997 0.096000001 121 0 0
1.362 -0.926 0.093999997 94 0 0
1.364 -0.926 0.092 148 0 0
1.3660001 -0.92500001 0.090000004 150 0 0
1.365 -0.92199999 0.088 142 0 0
1.368 -0.92199999 0.086000003 150 0 0
1.3710001 -0.92199999 0.083999999 135 0 0
1.373 -0.921 0.082000002 134 0 0
1.37 -0.91799998 0.079999998 137 0 0
1.375 -0.91799998 0.078000002 150 0 0
1.376 -0.917 0.077 119 0 0
1.377 -0.91500002 0.075000003 132 0 0
1.378 -0.91399997 0.072999999 108 0 0
1.38 -0.912 0.071000002 141 0 0
1.385 -0.91299999 0.068999998 106 0 0
1.385 -0.91000003 0.067000002 144 0 0
1.388 -0.91000003 0.066 144 0 0
1.39 -0.90799999 0.064000003 137 0 0
1.395 -0.90899998 0.061999999 101 0 0
1.395 -0.90600002 0.059999999 118 0 0
1.395 -0.903 0.057999998 112 0 0
1.399 -0.903 0.057 110 0 0
1.399 -0.89999998 0.055 144 0 0
1.4 -0.898 0.052999999 106 0 0
1.4069999 -0.89899999 0.050999999 117 0 0
1.409 -0.89700001 0.048999999 132 0 0
1.4119999 -0.89600003 0.048 77 0 0
1.4119999 -0.89200002 0.046 150 0 0
1.418 -0.89300001 0.044 99 0 0
1.42 -0.88999999 0.043000001 150 0 0
1.4170001 -0.88499999 0.041000001 119 0 0
1.425 -0.88700002 0.039000001 103 0 0
1.428 -0.88499999 0.037999999 92 0 0
1.432 -0.884 0.035999998 102 0 0
1.4349999 -0.88200003 0.034000002 139 0 0
1.438 -0.88 0.033 120 0 0
1.439 -0.87699997 0.030999999 130 0 0
1.444 -0.87599999 0.028999999 66 0 0
1.452 -0.87699997 0.028000001 121 0 0
1.455 -0.875 0.026000001 88 0 0
1.457 -0.87199998 0.025 106 0 0
1.459 -0.87 0.023 122 0 0
1.46 -0.86699998 0.021 86 0 0
1.465 -0.86500001 0.02 114 0 0
1.467 -0.86199999 0.017999999 121 0 0
1.471 -0.86000001 0.017000001 107 0 0
1.476 -0.85900003 0.015 125 0 0
1.478 -0.85600001 0.014 89 0 0
1.483 -0.85399997 0.012 127 0 0
1.488 -0.85299999 0.011 107 0 0
1.492 -0.85100001 0.0089999996 117 0 0
1.499 -0.85100001 0.0080000004 88 0 0
1.501 -0.847 0.0070000002 124 0 0
1.503 -0.84399998 0.0049999999 150 0 0
1.505 -0.84100002 0.0040000002 127 0 0
1.516 -0.84200001 0.0020000001 140 0 0
1.518 -0.83899999 0.001 132 0 0
1.524 -0.838 0 97 0 0
1.529 -0.83499998 -0.001 93 0 0
1.534 -0.833 -0.0020000001 84 0 0
1.5369999 -0.82999998 -0.003 93 0 0
1.54 -0.82700002 -0.0049999999 73 0 0
1.5470001 -0.82599998 -0.0060000001 78 0 0
1.545 -0.81999999 -0.0070000002 61 0 0
1.552 -0.81900001 -0.0080000004 58 0 0
1.563 -0.81999999 -0.0099999998 72 0 0
1.566 -0.81599998 -0.011 74 0 0
1.567 -0.81099999 -0.012 71 0 0
1.575 -0.81099999 -0.013 93 0 0
1.5779999 -0.80699998 -0.015 68 0 0
1.585 -0.80599999 -0.016000001 76 0 0
1.587 -0.80199999 -0.017000001 68 0 0
1.595 -0.80000001 -0.017999999 74 0 0
1.599 -0.79699999 -0.018999999 86 0 0
1.603 -0.79400003 -0.02 68 0 0
1.609 -0.792 -0.022 87 0 0
1.619 -0.79100001 -0.023 77 0 0
1.624 -0.78799999 -0.024 70 0 0
1.631 -0.78600001 -0.025 64 0 0
1.633 -0.78200001 -0.026000001 63 0 0
1.637 -0.77899998 -0.027000001 72 0 0
1.648 -0.778 -0.028000001 60 0 0
1.652 -0.77499998 -0.028999999 59 0 0
1.66 -0.773 -0.029999999 67 0 0
1.665 -0.76899999 -0.030999999 51 0 0
1.6720001 -0.76700002 -0.032000002 80 0 0
1.681 -0.76599997 -0.033 57 0 0
1.686 -0.76200002 -0.034000002 5 0 0
1.6900001 -0.75800002 -0.035 150 16 0
1.6950001 -0.755 -0.035999998 63 0 0
1.705 -0.75400001 -0.037 150 16 0
1.712 -0.75099999 -0.037999999 150 16 0
1.717 -0.74800003 -0.037999999 150 16 0
1.728 -0.74599999 -0.039000001 150 16 0
1.735 -0.74400002 -0.039999999 150 16 0
1.739 -0.73900002 -0.041000001 150 16 0
1.751 -0.73799998 -0.041999999 64 0 0
1.753 -0.73299998 -0.043000001 49 0 0
1.761 -0.73100001 -0.044 58 0 0
1.763 -0.72600001 -0.044 61 0 0
1.772 -0.72299999 -0.045000002 150 16 0
1.774 -0.71799999 -0.046 49 0 0
1.7819999 -0.71499997 -0.046 42 0 0
1.796 -0.71499997 -0.046999998 39 0 0
1.801 -0.71100003 -0.048 1 0 0
1.804 -0.70599997 -0.048 1 0 0
1.811 -0.70200002 -0.048999999 37 0 0
1.825 -0.70099998 -0.050000001 1 0 0
1.8279999 -0.69599998 -0.050999999 1 0 0
1.84 -0.69499999 -0.050999999 1 0 0
1.848 -0.69199997 -0.052000001 2 0 0
1.852 -0.68699998 -0.052000001 1 0 0
1.86 -0.68300003 -0.052999999 1 0 0
1.8660001 -0.67900002 -0.054000001 1 0 0
1.875 -0.676 -0.054000001 1 0 0
1.883 -0.67299998 -0.055 1 0 0
1.8890001 -0.66799998 -0.055 1 0 0
1.906 -0.66799998 -0.056000002 1 0 0
1.911 -0.66299999 -0.056000002 1 0 0
1.914 -0.65799999 -0.057 125 16 0
1.92 -0.653 -0.057 1 0 0
1.934 -0.65100002 -0.057999998 1 0 0
1.9349999 -0.64499998 -0.057999998 119 16 0
1.942 -0.64099997 -0.057999998 114 16 0
1.9630001 -0.64099997 -0.059 115 19 0
1.965 -0.63499999 -0.059 106 16 0
1.972 -0.63099998 -0.059 116 16 0
1.984 -0.62800002 -0.059999999 106 16 0
1.997 -0.625 -0.059999999 119 16 0
1.999 -0.61900002 -0.059999999 109 16 0
2.0079999 -0.61500001 -0.061000001 111 16 0
2.0209999 -0.61199999 -0.061000001 115 16 0
2.0280001 -0.60799998 -0.061000001 108 16 0
2.0369999 -0.60299999 -0.061999999 105 16 0
2.0480001 -0.60000002 -0.061999999 104 16 0
2.0550001 -0.59500003 -0.061999999 92 16 0
2.0669999 -0.59100002 -0.061999999 105 16 0
2.0799999 -0.588 -0.063000001 101 16 0
2.085 -0.58200002 -0.063000001 98 16 0
2.098 -0.579 -0.063000001 99 16 0
2.0969999 -0.57200003 -0.063000001 89 16 0
2.1159999 -0.56999999 -0.063000001 87 16 0
2.125 -0.565 -0.063000001 94 16 0
2.1389999 -0.56199998 -0.064000003 100 16 0
2.1440001 -0.55599999 -0.063000001 90 16 0
2.154 -0.551 -0.064000003 87 16 0
2.164 -0.546 -0.064000003 90 16 0
2.1860001 -0.54400003 -0.064000003 85 19 0
2.1930001 -0.53899997 -0.064000003 80 16 0
2.204 -0.53399998 -0.064000003 76 16 0
2.217 -0.52999997 -0.064000003 80 16 0
2.224 -0.52399999 -0.064000003 75 16 0
2.24 -0.52100003 -0.064000003 74 16 0
2.25 -0.51599997 -0.064000003 69 16 0
2.2609999 -0.50999999 -0.064000003 60 16 0
2.2720001 -0.505 -0.063000001 60 16 0
2.28 -0.5 -0.063000001 54 16 0
2.2909999 -0.49399999 -0.063000001 55 16 0
2.3069999 -0.49000001 -0.063000001 59 16 0
2.3169999 -0.48500001 -0.063000001 56 16 0
2.3310001 -0.47999999 -0.063000001 51 16 0
2.3369999 -0.47299999 -0.061999999 46 16 0
2.3559999 -0.46900001 -0.061999999 50 16 0
2.368 -0.46399999 -0.061999999 43 16 0
2.378 -0.458 -0.061999999 37 16 0
2.391 -0.45300001 -0.061000001 48 16 0
2.405 -0.44800001 -0.061000001 46 16 0
2.4159999 -0.44100001 -0.061000001 50 16 0
2.4330001 -0.43700001 -0.059999999 54 16 0
2.447 -0.43099999 -0.059999999 52 16 0
2.46 -0.42500001 -0.059999999 41 16 0
2.467 -0.419 -0.059 38 16 0
2.4809999 -0.41299999 -0.059 41 16 0
2.4960001 -0.40700001 -0.057999998 40 16 0
2.5090001 -0.40099999 -0.057999998 37 16 0
2.52 -0.39399999 -0.057 33 16 0
2.533 -0.38800001 -0.057 40 16 0
2.55 -0.382 -0.056000002 33 16 0
2.563 -0.37599999 -0.056000002 33 16 0
2.5780001 -0.37 -0.055 34 16 0
2.5940001 -0.36399999 -0.054000001 33 16 0
2.6110001 -0.35699999 -0.054000001 31 16 0
2.625 -0.35100001 -0.052999999 34 16 0
2.638 -0.34400001 -0.052000001 33 16 0
2.6530001 -0.33700001 -0.052000001 32 16 0
2.6719999 -0.331 -0.050999999 33 16 0
2.6830001 -0.324 -0.050000001 33 16 0
2.6989999 -0.317 -0.048999999 34 16 0
2.7190001 -0.31099999 -0.048999999 33 16 0
2.7290001 -0.303 -0.048 30 16 0
2.74 -0.29499999 -0.046999998 31 16 0
2.7590001 -0.28799999 -0.046 30 16 0
2.777 -0.28099999 -0.045000002 30 16 0
2.7909999 -0.27399999 -0.044 28 16 0
2.8099999 -0.26699999 -0.043000001 28 16 0
2.823 -0.259 -0.041999999 28 16 0
2.846 -0.252 -0.041000001 28 16 0
2.8640001 -0.244 -0.039999999 28 16 0
2.878 -0.236 -0.039000001 28 16 0
2.898 -0.228 -0.037999999 28 16 0
2.9170001 -0.22 -0.037 27 16 0
2.934 -0.212 -0.035999998 26 16 0
2.9530001 -0.204 -0.034000002 25 16 0
2.9749999 -0.19599999 -0.033 25 16 0
2.9949999 -0.18799999 -0.032000002 25 16 0
3.0120001 -0.17900001 -0.030999999 24 16 0
3.0409999 -0.171 -0.028999999 26 16 0
3.056 -0.162 -0.028000001 26 16 0
3.0769999 -0.153 -0.027000001 26 16 0
3.096 -0.14399999 -0.025 25 16 0
3.119 -0.13600001 -0.024 25 16 0
3.135 -0.126 -0.022 26 16 0
3.161 -0.117 -0.021 26 16 0
3.187 -0.108 -0.018999999 27 16 0
3.201 -0.097999997 -0.017000001 27 16 0
3.224 -0.089000002 -0.016000001 27 16 0
3.247 -0.079000004 -0.014 29 16 0
3.2679999 -0.068999998 -0.012 87 16 0
3.266 -0.057999998 -0.0099999998 150 16 0
3.257 -0.048 -0.0089999996 116 16 0
3.257 -0.037999999 -0.0070000002 107 16 0
3.2539999 -0.027000001 -0.0049999999 115 16 0
3.2479999 -0.017000001 -0.003 35 16 0
3.267 -0.0070000002 -0.001 17 16 0
3.286 0.003 0 18 16 0
3.3039999 0.013 0.0020000001 18 16 0
3.3340001 0.024 0.0040000002 33 16 0
3.325 0.035 0.0060000001 54 16 0
3.325 0.045000002 0.0080000004 64 16 0
3.3210001 0.056000002 0.0099999998 39 16 0
3.3150001 0.066 0.013 51 16 0
3.3110001 0.077 0.015 57 16 0
3.3080001 0.086999997 0.017000001 55 16 0
3.3039999 0.097000003 0.018999999 56 16 0
3.3 0.108 0.021 52 16 0
3.2920001 0.118 0.023 64 16 0
3.29 0.12800001 0.025 56 16 0
3.273 0.138 0.028000001 40 16 0
3.2460001 0.147 0.029999999 26 16 0
3.2349999 0.15700001 0.032000002 25 16 0
3.23 0.167 0.034000002 24 16 0
3.227 0.177 0.035999998 24 16 0
3.217 0.18700001 0.037999999 25 16 0
3.2119999 0.197 0.039999999 25 16 0
3.2030001 0.206 0.043000001 29 16 0
3.1919999 0.21600001 0.045000002 85 16 0
3.191 0.226 0.046999998 112 16 0
3.1919999 0.236 0.048999999 34 16 0
3.1889999 0.24600001 0.052000001 28 16 0
3.1819999 0.255 0.054000001 28 16 0
3.1800001 0.26499999 0.056000002 29 16 0
3.1730001 0.27500001 0.059 30 16 0
3.1659999 0.28400001 0.061000001 31 16 0
3.1659999 0.294 0.063000001 32 16 0
3.155 0.303 0.066 34 16 0
3.148 0.31200001 0.068000004 36 16 0
3.1500001 0.322 0.07 38 16 0
3.1389999 0.331 0.072999999 38 16 0
3.135 0.34099999 0.075000003 44 16 0
3.1340001 0.34999999 0.078000002 32 16 0
3.158 0.36300001 0.081 18 16 0
3.187 0.37599999 0.083999999 55 16 0
3.187 0.38600001 0.086999997 99 16 0
3.1830001 0.396 0.089000002 99 16 0
3.178 0.40599999 0.092 93 16 0
3.1730001 0.41499999 0.093999997 98 16 0
3.1719999 0.42500001 0.097000003 92 16 0
3.168 0.43399999 0.1 111 16 0
3.1630001 0.44400001 0.102 101 16 0
3.1559999 0.45300001 0.105 97 16 0
3.154 0.46200001 0.107 85 16 0
3.152 0.472 0.11 102 16 0
3.148 0.48100001 0.113 73 16 0
3.1470001 0.491 0.116 90 16 0
3.138 0.49900001 0.118 97 16 0
3.1340001 0.509 0.121 90 16 0
3.132 0.51899999 0.124 93 16 0
3.1300001 0.528 0.126 83 16 0
3.125 0.537 0.12899999 57 16 0
3.119 0.546 0.132 49 16 0
3.1170001 0.55500001 0.13500001 49 16 0
3.1159999 0.565 0.138 49 16 0
3.1110001 0.574 0.14 47 16 0
3.1070001 0.583 0.14300001 48 16 0
3.1040001 0.59200001 0.146 49 16 0
3.1029999 0.602 0.149 47 16 0
3.099 0.611 0.152 46 16 0
3.095 0.62 0.155 54 16 0
3.092 0.62900001 0.15800001 54 16 0
3.085 0.63800001 0.16 75 16 0
3.0810001 0.64600003 0.163 88 16 0
3.075 0.65499997 0.16599999 119 16 0
3.073 0.66399997 0.169 123 16 0
3.0680001 0.67299998 0.17200001 116 16 0
3.062 0.68099999 0.175 127 16 0
3.0639999 0.69099998 0.178 127 16 0
3.0569999 0.699 0.18099999 134 16 0
3.0539999 0.708 0.184 131 16 0
3.0480001 0.71600002 0.18700001 139 16 0
3.05 0.727 0.191 148 16 0
3.0480001 0.736 0.19400001 142 16 0
3.0439999 0.745 0.197 140 16 0
3.04 0.75300002 0.2 150 16 0
3.0339999 0.76099998 0.20299999 142 16 0
3.0309999 0.76999998 0.206 136 16 0
3.0309999 0.77899998 0.20999999 130 16 0
3.0239999 0.787 0.213 90 16 0
3.0209999 0.796 0.21600001 55 16 0
3.01 0.80199999 0.219 46 16 0
3.0050001 0.81099999 0.222 39 16 0
2.9949999 0.81699997 0.22499999 36 16 0
2.99 0.82599998 0.228 34 16 0
2.9820001 0.833 0.23100001 33 16 0
2.973 0.83999997 0.234 32 16 0
2.97 0.84799999 0.237 33 16 0
2.964 0.85600001 0.23999999 32 16 0
2.9549999 0.86199999 0.243 32 16 0
2.9430001 0.86799997 0.24600001 33 16 0
2.938 0.87599999 0.249 32 16 0
2.9289999 0.88200003 0.252 32 16 0
2.9200001 0.889 0.255 33 16 0
2.914 0.89600003 0.25799999 33 16 0
2.9059999 0.903 0.26100001 33 16 0
2.8970001 0.90899998 0.264 35 16 0
2.8900001 0.91600001 0.26800001 39 16 0
2.8840001 0.92299998 0.271 43 16 0
2.881 0.93099999 0.27399999 62 16 0
2.8699999 0.93599999 0.27700001 90 16 0
2.869 0.94499999 0.28099999 134 16 0
2.862 0.95200002 0.28400001 150 16 0
2.858 0.95899999 0.28799999 150 16 0
2.858 0.96799999 0.29100001 150 16 0
2.855 0.97600001 0.29499999 150 16 0
2.852 0.98400003 0.29899999 150 16 0
2.849 0.991 0.30199999 150 16 0
2.846 0.99900001 0.30599999 150 16 0
2.842 1.007 0.31 150 16 0
2.846 1.017 0.31400001 150 16 0
2.8429999 1.024 0.31799999 150 16 0
2.8380001 1.031 0.322 150 16 0
2.836 1.04 0.32600001 150 16 0
2.8369999 1.049 0.33000001 150 16 0
2.832 1.0549999 0.333 150 16 0
2.8280001 1.062 0.33700001 150 16 0
2.8269999 1.071 0.34200001 150 16 0
2.8239999 1.0779999 0.345 150 16 0
2.8199999 1.086 0.34900001 150 16 0
2.8169999 1.0930001 0.35299999 150 16 0
2.8139999 1.1 0.35699999 150 16 0
2.8099999 1.107 0.361 150 16 0
2.813 1.117 0.366 150 16 0
2.8099999 1.124 0.37 150 16 0
2.8080001 1.132 0.37400001 150 16 0
2.8050001 1.1390001 0.37799999 150 16 0
2.8039999 1.147 0.38299999 150 16 0
2.8010001 1.154 0.38699999 150 16 0
2.799 1.1619999 0.391 150 16 0
2.7939999 1.168 0.39500001 150 16 0
2.7909999 1.175 0.39899999 150 16 0
2.793 1.184 0.40400001 150 16 0
2.789 1.191 0.40799999 150 16 0
2.786 1.198 0.412 150 16 0
2.7850001 1.205 0.417 150 16 0
2.7839999 1.2130001 0.421 150 16 0
2.78 1.219 0.426 150 16 0
2.783 1.229 0.43099999 150 16 0
2.779 1.235 0.435 150 16 0
2.7739999 1.2410001 0.43900001 150 16 0
2.777 1.25 0.44400001 150 16 0
2.773 1.256 0.449 150 16 0
2.77 1.263 0.45300001 150 16 0
2.77 1.271 0.458 150 16 0
2.77 1.278 0.463 150 16 0
2.7679999 1.285 0.46799999 150 16 0
2.767 1.293 0.47299999 150 16 0
2.763 1.299 0.477 150 16 0
2.7620001 1.3049999 0.48199999 150 16 0
2.7620001 1.313 0.48699999 150 16 0
2.756 1.318 0.491 150 16 0
2.76 1.327 0.49700001 150 16 0
2.7539999 1.332 0.50099999 150 16 0
2.7539999 1.34 0.50599998 150 16 0
2.7539999 1.347 0.51099998 150 16 0
2.7539999 1.354 0.51599997 150 16 0
2.7520001 1.3609999 0.52100003 150 16 0
2.747 1.365 0.52499998 150 16 0
2.75 1.374 0.53100002 150 16 0
2.7520001 1.382 0.537 150 16 0
2.7490001 1.388 0.542 150 16 0
2.7479999 1.3940001 0.54699999 150 16 0
2.744 1.399 0.551 150 16 0
2.744 1.406 0.55699998 150 16 0
2.7409999 1.4119999 0.56199998 150 16 0
2.74 1.418 0.56699997 150 16 0
2.744 1.427 0.57300001 150 16 0
2.7420001 1.432 0.57800001 150 16 0
2.7390001 1.438 0.583 150 16 0
2.7379999 1.443 0.588 150 16 0
2.7360001 1.449 0.59299999 150 16 0
2.734 1.454 0.59799999 150 16 0
2.7309999 1.459 0.60299999 67 16 0
2.727 1.4630001 0.60699999 44 16 0
2.7119999 1.461 0.61000001 36 16 0
2.7060001 1.464 0.61400002 35 16 0
2.6989999 1.466 0.61799997 35 16 0
2.691 1.4680001 0.62099999 35 16 0
2.6800001 1.4680001 0.62400001 34 16 0
2.674 1.47 0.62800002 34 16 0
2.6619999 1.469 0.63099998 33 16 0
2.6530001 1.47 0.634 32 16 0
2.6500001 1.474 0.639 34 16 0
2.6400001 1.473 0.64200002 33 16 0
2.6329999 1.475 0.64499998 33 16 0
2.6240001 1.475 0.64899999 34 16 0
2.6170001 1.476 0.65200001 33 16 0
2.609 1.476 0.65600002 33 16 0
2.6010001 1.477 0.65899998 34 16 0
2.592 1.476 0.662 34 16 0
2.5829999 1.476 0.66500002 33 16 0
2.579 1.478 0.66900003 34 16 0
2.5710001 1.478 0.67299998 33 16 0
2.5639999 1.479 0.676 32 16 0
2.55 1.475 0.67699999 32 16 0
2.543 1.475 0.68099999 33 16 0
2.5350001 1.474 0.68400002 34 16 0
2.5320001 1.476 0.68800002 35 16 0
2.523 1.475 0.69099998 32 16 0
2.5190001 1.476 0.69499999 33 16 0
2.51 1.475 0.69700003 37 16 0
2.5 1.473 0.69999999 37 16 0
2.4949999 1.473 0.70300001 38 16 0
2.4860001 1.471 0.70599997 37 16 0
2.48 1.471 0.70899999 38 16 0
2.4749999 1.471 0.713 37 16 0
2.47 1.471 0.71600002 38 16 0
2.4630001 1.47 0.71899998 36 16 0
2.4579999 1.469 0.722 37 16 0
2.4530001 1.469 0.72600001 38 16 0
2.438 1.4630001 0.72600001 37 19 0
2.4330001 1.462 0.72899997 38 16 0
2.431 1.4630001 0.73299998 39 16 0
2.425 1.461 0.736 39 16 0
2.4170001 1.459 0.73799998 38 16 0
2.408 1.455 0.74000001 38 16 0
2.4000001 1.4529999 0.74199998 37 16 0
2.3989999 1.4529999 0.74599999 37 16 0
2.3940001 1.452 0.74900001 40 16 0
2.385 1.448 0.75099999 37 16 0
2.382 1.448 0.75400001 39 16 0
2.378 1.447 0.75700003 39 16 0
2.3699999 1.443 0.759 37 16 0
2.3629999 1.4400001 0.76099998 37 16 0
2.359 1.438 0.764 37 16 0
2.3559999 1.437 0.76700002 37 16 0
2.3469999 1.433 0.76800001 38 16 0
2.345 1.432 0.77100003 38 16 0
2.339 1.429 0.773 37 16 0
2.3369999 1.428 0.77700001 38 16 0
2.3299999 1.424 0.778 38 16 0
2.322 1.419 0.77899998 37 16 0
2.3199999 1.418 0.78200001 37 16 0
2.316 1.415 0.78399998 38 16 0
2.3099999 1.4119999 0.78600001 37 16 0
2.3069999 1.41 0.78799999 39 16 0
2.3039999 1.4069999 0.79100001 39 16 0
2.296 1.402 0.79100001 40 16 0
2.293 1.399 0.79400003 39 16 0
2.289 1.396 0.796 39 16 0
2.286 1.393 0.79799998 39 16 0
2.2809999 1.39 0.79900002 38 16 0
2.2750001 1.385 0.80000001 41 16 0
2.2739999 1.383 0.80299997 43 16 0
2.2690001 1.3789999 0.80400002 38 16 0
2.2690001 1.377 0.80699998 42 16 0
2.266 1.374 0.80900002 44 16 0
2.2620001 1.37 0.81 50 16 0
2.26 1.367 0.81199998 53 16 0
2.2490001 1.359 0.81099999 39 18 0
2.2509999 1.358 0.81400001 41 16 0
2.25 1.355 0.81599998 40 16 0
2.247 1.351 0.81699997 43 16 0
2.2449999 1.348 0.81900001 43 16 0
2.243 1.344 0.82099998 49 16 0
2.2409999 1.34 0.82200003 54 16 0
2.24 1.3380001 0.824 54 16 0
2.2409999 1.335 0.82599998 54 16 0
2.234 1.3279999 0.82599998 56 16 0
2.233 1.325 0.82700002 48 16 0
2.23 1.3200001 0.82800001 52 16 0
2.2279999 1.316 0.829 50 16 0
2.2260001 1.312 0.82999998 59 16 0
2.223 1.307 0.82999998 66 16 0
2.2190001 1.301 0.83099997 58 16 0
2.2190001 1.298 0.83200002 61 16 0
2.217 1.293 0.833 65 16 0
2.2179999 1.29 0.83399999 64 16 0
2.2149999 1.285 0.83499998 58 16 0
2.2160001 1.2819999 0.83600003 62 16 0
2.217 1.279 0.838 63 16 0
2.207 1.2690001 0.83499998 62 18 0
2.2119999 1.268 0.838 74 16 0
2.207 1.261 0.83700001 75 16 0
2.2060001 1.256 0.83700001 78 16 0
2.2060001 1.252 0.838 76 16 0
2.207 1.248 0.83899999 79 16 0
2.2060001 1.243 0.83899999 79 16 0
2.2060001 1.238 0.83999997 79 16 0
2.204 1.233 0.83899999 76 16 0
2.2060001 1.229 0.83999997 78 16 0
2.2019999 1.223 0.83899999 83 16 0
2.201 1.217 0.83899999 78 16 0
2.2030001 1.214 0.83999997 81 16 0
2.204 1.21 0.84100002 90 16 0
2.204 1.205 0.84100002 88 16 0
2.2060001 1.201 0.84100002 94 16 0
2.2019999 1.194 0.83999997 94 16 0
2.2019999 1.188 0.83899999 96 16 0
2.2060001 1.186 0.84100002 94 16 0
2.2060001 1.1799999 0.83999997 104 16 0
2.2049999 1.174 0.83899999 83 16 0
2.2079999 1.17 0.83999997 88 16 0
2.2079999 1.165 0.83999997 90 16 0
2.2060001 1.159 0.838 82 16 0
2.2090001 1.155 0.83899999 88 16 0
2.211 1.15 0.83899999 86 16 0
2.2090001 1.143 0.83700001 86 16 0
2.211 1.1390001 0.83700001 83 16 0
2.2130001 1.1339999 0.83700001 88 16 0
2.2130001 1.1289999 0.83600003 86 16 0
2.2179999 1.125 0.83600003 79 16 0
2.22 1.12 0.83600003 89 16 0
2.223 1.1160001 0.83600003 90 16 0
2.2249999 1.1109999 0.83499998 97 16 0
2.223 1.104 0.833 94 16 0
2.2260001 1.099 0.833 94 16 0
2.2309999 1.096 0.833 96 16 0
2.2309999 1.09 0.83200002 102 16 0
2.2309999 1.084 0.82999998 97 16 0
2.2360001 1.08 0.82999998 100 16 0
2.2349999 1.073 0.82800001 97 16 0
2.2390001 1.069 0.82800001 99 16 0
2.2409999 1.064 0.82700002 101 16 0
2.247 1.0599999 0.82700002 98 16 0
2.2460001 1.053 0.82499999 101 16 0
2.2490001 1.048 0.824 106 16 0
2.2520001 1.043 0.82200003 105 16 0
2.253 1.0369999 0.82099998 103 16 0
2.2609999 1.035 0.82099998 103 16 0
2.2620001 1.029 0.81900001 106 16 0
2.266 1.024 0.81900001 91 16 0
2.267 1.018 0.81699997 91 16 0
2.27 1.013 0.815 90 16 0
2.2709999 1.007 0.81300002 90 16 0
2.276 1.002 0.81199998 94 16 0
2.2809999 0.99800003 0.81099999 93 16 0
2.28 0.991 0.80800003 92 16 0
2.283 0.98500001 0.80699998 90 16 0
2.29 0.98100001 0.80599999 97 16 0
2.2920001 0.97600001 0.80400002 93 16 0
2.2950001 0.97100002 0.80299997 96 16 0
2.299 0.96499997 0.801 100 16 0
2.3010001 0.95899999 0.79900002 99 16 0
2.3080001 0.95599997 0.79799998 95 16 0
2.316 0.95200002 0.79799998 99 16 0
2.316 0.94499999 0.79400003 102 16 0
2.3210001 0.94 0.79299998 84 16 0
2.3280001 0.93599999 0.792 92 16 0
2.3310001 0.93099999 0.79000002 87 16 0
2.3340001 0.92500001 0.787 96 16 0
2.342 0.92199999 0.787 90 16 0
2.3399999 0.91399997 0.78299999 89 16 0
2.349 0.91000003 0.78200001 83 16 0
2.352 0.90499997 0.77999997 89 16 0
2.3559999 0.89899999 0.77700001 85 16 0
2.3599999 0.89399999 0.77499998 95 16 0
2.3670001 0.889 0.773 96 16 0
2.3729999 0.884 0.77200001 96 16 0
2.3789999 0.88 0.76999998 102 16 0
2.382 0.87400001 0.76700002 101 16 0
2.3859999 0.86900002 0.76499999 97 16 0
2.3959999 0.86500001 0.764 96 16 0
2.4000001 0.85900003 0.76099998 96 16 0
2.405 0.85399997 0.759 95 16 0
2.408 0.84799999 0.755 97 16 0
2.418 0.84500003 0.755 96 16 0
2.421 0.83899999 0.75199997 101 16 0
2.4260001 0.833 0.74900001 97 16 0
2.4289999 0.82700002 0.74599999 89 16 0
2.438 0.82300001 0.74400002 97 16 0
2.4430001 0.81800002 0.741 89 16 0
2.447 0.81199998 0.73799998 84 16 0
2.454 0.80699998 0.736 91 16 0
2.461 0.80299997 0.73299998 89 16 0
2.47 0.79900002 0.73199999 102 16 0
2.473 0.792 0.72799999 95 16 0
2.483 0.78799999 0.72600001 100 16 0
2.493 0.78500003 0.72500002 96 16 0
2.493 0.77700001 0.72000003 86 16 0
2.503 0.773 0.71799999 90 16 0
2.5109999 0.76899999 0.71600002 98 16 0
2.5150001 0.76300001 0.71200001 96 16 0
2.52 0.75700003 0.70899999 79 16 0
2.53 0.75300002 0.70700002 82 16 0
2.533 0.74699998 0.70300001 80 16 0
2.5409999 0.74199998 0.69999999 91 16 0
2.5510001 0.73799998 0.69800001 99 16 0
2.5580001 0.73299998 0.69499999 93 16 0
2.5639999 0.727 0.69199997 88 16 0
2.5710001 0.722 0.68800002 84 16 0
2.576 0.71600002 0.685 78 16 0
2.5840001 0.71100003 0.68199998 73 16 0
2.5899999 0.70599997 0.67799997 69 16 0
2.5940001 0.69999999 0.67400002 62 16 0
2.6010001 0.69400001 0.67000002 66 16 0
2.6029999 0.68800002 0.66600001 68 16 0
2.6170001 0.68400002 0.66399997 60 16 0
2.6289999 0.68000001 0.662 65 16 0
2.632 0.67400002 0.65700001 58 16 0
2.642 0.66900003 0.65399998 59 16 0
2.645 0.66299999 0.64899999 57 16 0
2.6570001 0.65899998 0.64700001 42 16 0
2.6689999 0.65399998 0.64399999 40 16 0
2.678 0.64899999 0.64099997 39 16 0
2.6889999 0.64499998 0.63800001 40 16 0
2.6900001 0.63800001 0.63300002 38 16 0
2.6989999 0.63300002 0.62900001 39 16 0
2.707 0.62800002 0.625 39 16 0
2.7149999 0.62199998 0.62099999 39 16 0
2.7219999 0.61699998 0.61699998 37 16 0
2.737 0.61299998 0.61500001 40 16 0
2.7420001 0.60699999 0.61000001 40 16 0
2.756 0.602 0.60699999 40 16 0
2.7639999 0.597 0.60299999 40 16 0
2.773 0.59200001 0.59899998 37 16 0
2.7839999 0.58700001 0.59500003 38 16 0
2.7880001 0.57999998 0.58999997 38 16 0
2.8010001 0.57599998 0.58700001 37 16 0
2.8139999 0.57099998 0.583 36 16 0
2.822 0.56599998 0.579 38 16 0
2.832 0.56 0.57499999 38 16 0
2.8369999 0.55400002 0.56999999 36 16 0
2.848 0.54900002 0.56599998 38 16 0
2.859 0.54400003 0.56199998 35 16 0
2.8740001 0.54000002 0.55800003 36 16 0
2.8829999 0.53399998 0.55299997 36 16 0
2.892 0.528 0.54900002 35 16 0
2.8970001 0.52200001 0.54299998 35 16 0
2.9119999 0.51700002 0.54000002 36 16 0
2.9189999 0.51099998 0.53500003 35 16 0
2.937 0.50700003 0.53100002 36 16 0
2.9460001 0.50099999 0.52600002 35 16 0
2.957 0.49599999 0.52200001 34 16 0
2.9690001 0.491 0.51700002 36 16 0
2.983 0.486 0.51300001 36 16 0
2.9909999 0.479 0.50800002 33 16 0
3.006 0.47400001 0.50300002 35 16 0
3.02 0.46900001 0.49900001 35 16 0
3.026 0.463 0.493 33 16 0
3.0369999 0.45699999 0.48800001 33 16 0
3.049 0.45100001 0.48300001 33 16 0
3.063 0.44600001 0.47799999 32 16 0
3.075 0.44100001 0.47299999 34 16 0
3.089 0.435 0.46799999 34 16 0
3.0999999 0.42899999 0.463 35 16 0
3.115 0.42399999 0.458 35 16 0
3.125 0.41800001 0.45199999 33 16 0
3.1400001 0.412 0.447 34 16 0
3.151 0.40599999 0.44100001 33 16 0
3.164 0.40000001 0.43599999 36 16 0
3.177 0.39500001 0.43000001 35 16 0
3.191 0.389 0.42500001 36 16 0
3.2049999 0.38299999 0.419 41 16 0
3.214 0.377 0.41299999 77 16 0
3.22 0.37 0.40599999 150 16 0
3.221 0.36199999 0.39899999 150 16 0
3.2219999 0.35499999 0.39199999 150 16 0
3.224 0.34799999 0.384 150 16 0
3.227 0.34 0.377 150 16 0
3.223 0.333 0.36899999 150 16 0
3.227 0.32600001 0.36199999 150 16 0
3.2260001 0.31799999 0.354 145 16 0
3.2279999 0.31099999 0.347 145 16 0
3.2290001 0.30399999 0.33899999 141 16 0
3.2290001 0.296 0.33199999 150 16 0
3.227 0.289 0.324 150 16 0
3.2279999 0.28200001 0.31600001 150 16 0
3.2320001 0.27500001 0.30899999 150 16 0
3.2279999 0.26699999 0.301 150 16 0
3.23 0.25999999 0.294 150 16 0
3.234 0.25299999 0.28600001 150 16 0
3.234 0.24600001 0.27900001 150 16 0
3.2290001 0.23800001 0.271 150 16 0
3.2309999 0.23100001 0.26300001 149 16 0
3.2320001 0.22400001 0.255 135 16 0
3.2320001 0.21699999 0.248 125 16 0
3.234 0.20999999 0.23999999 133 16 0
3.201 0.20100001 0.23 145 19 0
3.0969999 0.18700001 0.215 150 19 0
3.076 0.17900001 0.206 31 16 0
3.0580001 0.17200001 0.198 21 16 0
3.171 0.171 0.197 47 17 0
3.23 0.167 0.193 123 16 0
3.233 0.16 0.186 124 16 0
3.234 0.153 0.178 110 16 0
3.2349999 0.146 0.17 125 16 0
3.2349999 0.139 0.162 114 16 0
3.2360001 0.132 0.154 114 16 0
3.237 0.125 0.147 111 16 0
3.2349999 0.118 0.139 70 16 0
3.2449999 0.112 0.131 38 16 0
3.263 0.105 0.124 28 16 0
3.279 0.098999999 0.117 27 16 0
3.3 0.093000002 0.109 28 16 0
3.319 0.086000003 0.102 30 16 0
3.3340001 0.079000004 0.093999997 35 16 0
3.3380001 0.071999997 0.086000003 13 16 0
3.2969999 0.064999998 0.077 4 19 0
3.2980001 0.057999998 0.068999998 12 16 0
3.293 0.050999999 0.059999999 5 16 0
3.3369999 0.044 0.052999999 15 18 0
3.3399999 0.037 0.045000002 51 16 0
3.345 0.029999999 0.037 55 16 0
3.3410001 0.024 0.028000001 33 16 0
3.323 0.016000001 0.02 19 16 0
3.3 0.0089999996 0.011 17 16 0
3.2869999 0.003 0.003 17 16 0
3.2679999 -0.003 -0.0040000002 16 16 0
3.2509999 -0.0099999998 -0.012 18 16 0
3.227 -0.016000001 -0.02 29 16 0
3.234 -0.023 -0.028000001 74 16 0
3.2390001 -0.029999999 -0.035999998 121 16 0
3.2349999 -0.035999998 -0.044 126 16 0
3.234 -0.043000001 -0.052000001 108 16 0
3.2349999 -0.050000001 -0.061000001 115 16 0
3.234 -0.056000002 -0.068999998 127 16 0
3.2360001 -0.063000001 -0.077 150 16 0
3.233 -0.068999998 -0.085000001 111 16 0
3.2219999 -0.075000003 -0.093000002 37 16 0
3.2019999 -0.081 -0.101 26 16 0
3.191 -0.088 -0.108 26 16 0
3.171 -0.093000002 -0.116 26 16 0
3.1500001 -0.098999999 -0.123 26 16 0
3.132 -0.105 -0.13 25 16 0
3.119 -0.111 -0.138 25 16 0
3.1010001 -0.116 -0.145 24 16 0
3.089 -0.122 -0.152 25 16 0
3.076 -0.127 -0.15899999 24 16 0
3.056 -0.133 -0.16599999 25 16 0
3.0420001 -0.138 -0.17299999 24 16 0
3.029 -0.14300001 -0.18000001 23 16 0
3.0039999 -0.148 -0.18700001 24 16 0
2.997 -0.154 -0.19400001 23 16 0
2.9809999 -0.15899999 -0.20100001 24 16 0
2.9660001 -0.164 -0.207 23 16 0
2.9549999 -0.169 -0.214 23 16 0
2.9419999 -0.17399999 -0.221 24 16 0
2.9289999 -0.17900001 -0.228 23 16 0
2.9089999 -0.183 -0.234 24 16 0
2.9000001 -0.18799999 -0.241 24 16 0
2.8829999 -0.193 -0.24699999 24 16 0
2.875 -0.197 -0.25400001 24 16 0
2.8610001 -0.20200001 -0.25999999 24 16 0
2.8440001 -0.206 -0.266 22 16 0
2.8340001 -0.211 -0.273 25 16 0
2.823 -0.21600001 -0.27900001 26 16 0
2.8050001 -0.22 -0.285 26 16 0
2.7939999 -0.22400001 -0.29100001 26 16 0
2.7839999 -0.229 -0.29699999 26 16 0
2.7679999 -0.23199999 -0.303 26 16 0
2.763 -0.237 -0.31 28 16 0
2.7520001 -0.241 -0.31600001 26 16 0
2.737 -0.245 -0.322 25 16 0
2.724 -0.249 -0.32800001 26 16 0
2.7179999 -0.25400001 -0.33399999 27 16 0
2.704 -0.25799999 -0.34 25 16 0
2.6989999 -0.26199999 -0.34599999 26 16 0
2.6849999 -0.266 -0.352 28 16 0
2.674 -0.27000001 -0.35800001 28 16 0
2.665 -0.27399999 -0.36399999 27 16 0
2.655 -0.278 -0.37 27 16 0
2.638 -0.28099999 -0.375 26 16 0
2.6289999 -0.28400001 -0.38 27 16 0
2.6229999 -0.289 -0.38699999 27 16 0
2.6099999 -0.292 -0.39199999 27 16 0
2.5999999 -0.296 -0.398 25 16 0
2.5880001 -0.29899999 -0.403 27 16 0
2.5799999 -0.303 -0.40900001 27 16 0
2.572 -0.30599999 -0.41499999 27 16 0
2.5580001 -0.30899999 -0.41999999 26 16 0
2.55 -0.31299999 -0.42500001 26 16 0
2.5450001 -0.317 -0.43099999 27 16 0
2.526 -0.31900001 -0.435 27 16 0
2.5209999 -0.32300001 -0.442 26 16 0
2.5120001 -0.32600001 -0.447 27 16 0
2.5020001 -0.329 -0.45199999 31 16 0
2.49 -0.33199999 -0.45699999 29 16 0
2.4860001 -0.336 -0.463 30 16 0
2.473 -0.33899999 -0.46799999 32 16 0
2.464 -0.34200001 -0.47299999 30 16 0
2.461 -0.34599999 -0.47999999 29 16 0
2.447 -0.34799999 -0.484 31 16 0
2.4419999 -0.35100001 -0.49000001 30 16 0
2.434 -0.35499999 -0.495 31 16 0
2.427 -0.35800001 -0.50099999 31 16 0
2.418 -0.361 -0.50599998 35 16 0
2.4100001 -0.36300001 -0.51099998 30 16 0
2.405 -0.36700001 -0.51700002 32 16 0
2.3940001 -0.36899999 -0.52100003 30 16 0
2.3800001 -0.37099999 -0.52499998 35 16 0
2.375 -0.37400001 -0.53100002 30 16 0
2.3659999 -0.377 -0.53600001 29 16 0
2.358 -0.38 -0.54100001 28 16 0
2.352 -0.38299999 -0.546 29 16 0
2.3369999 -0.384 -0.55000001 29 16 0
2.329 -0.38699999 -0.55500001 27 16 0
2.3269999 -0.38999999 -0.56099999 27 16 0
2.3169999 -0.39199999 -0.56599998 28 16 0
2.313 -0.39500001 -0.57200003 28 16 0
2.302 -0.39700001 -0.57599998 33 16 0
2.2939999 -0.40000001 -0.58099997 33 16 0
2.286 -0.40200001 -0.58499998 32 16 0
2.28 -0.40400001 -0.58999997 28 16 0
2.27 -0.40599999 -0.59500003 31 16 0
2.2650001 -0.40900001 -0.60000002 32 16 0
2.2579999 -0.41100001 -0.60500002 33 16 0
2.2449999 -0.41299999 -0.60799998 33 16 0
2.2420001 -0.41600001 -0.61400002 33 16 0
2.2290001 -0.417 -0.61699998 33 16 0
2.227 -0.41999999 -0.62300003 36 16 0
2.224 -0.42300001 -0.62900001 38 16 0
2.2160001 -0.42500001 -0.634 35 16 0
2.2060001 -0.426 -0.63700002 40 16 0
2.201 -0.428 -0.64300001 37 16 0
2.194 -0.43000001 -0.64700001 40 16 0
2.191 -0.433 -0.653 57 16 0
2.1819999 -0.435 -0.65700001 51 16 0
2.178 -0.43700001 -0.66299999 61 16 0
2.1689999 -0.43900001 -0.667 53 16 0
2.165 -0.44100001 -0.67199999 61 16 0
2.158 -0.44299999 -0.676 83 16 0
2.151 -0.44400001 -0.68099999 80 16 0
2.1459999 -0.44600001 -0.68599999 77 16 0
2.1400001 -0.44800001 -0.69099998 82 16 0
2.131 -0.449 -0.69499999 83 16 0
2.1240001 -0.45100001 -0.699 82 16 0
2.122 -0.45300001 -0.70499998 91 16 0
2.1170001 -0.45500001 -0.70899999 94 16 0
2.108 -0.456 -0.713 92 16 0
2.1029999 -0.458 -0.71799999 83 16 0
2.098 -0.46000001 -0.72299999 83 16 0
2.0940001 -0.46200001 -0.72799999 86 16 0
2.089 -0.46399999 -0.73299998 82 16 0
2.0840001 -0.465 -0.73799998 98 16 0
2.0780001 -0.46700001 -0.74199998 97 16 0
2.0710001 -0.46799999 -0.74599999 97 16 0
2.0680001 -0.47 -0.75199997 95 16 0
2.053 -0.46900001 -0.75199997 97 16 0
2.05 -0.47099999 -0.75800002 100 16 0
2.043 -0.472 -0.76099998 95 16 0
2.04 -0.47400001 -0.76700002 99 16 0
2.0369999 -0.47600001 -0.77200001 106 16 0
2.0339999 -0.477 -0.778 94 16 0
2.027 -0.47799999 -0.78100002 95 16 0
2.0239999 -0.47999999 -0.787 95 16 0
2.0150001 -0.47999999 -0.79000002 94 16 0
2.0109999 -0.48100001 -0.79400003 102 16 0
2.0079999 -0.48300001 -0.79900002 94 16 0
2.0050001 -0.48500001 -0.80500001 95 16 0
2.0009999 -0.486 -0.80900002 99 16 0
1.997 -0.48699999 -0.81400001 97 16 0
1.992 -0.48800001 -0.81800002 90 16 0
1.9859999 -0.48899999 -0.82200003 92 16 0
1.984 -0.49000001 -0.82800001 99 16 0
1.9809999 -0.49200001 -0.833 96 16 0
1.974 -0.49200001 -0.83600003 97 16 0
1.9680001 -0.49200001 -0.83999997 104 16 0
1.969 -0.495 -0.84600002 101 16 0
1.961 -0.495 -0.84899998 95 16 0
1.955 -0.495 -0.85299999 92 16 0
1.955 -0.49700001 -0.85900003 93 16 0
1.9529999 -0.498 -0.86500001 103 16 0
1.946 -0.498 -0.86799997 95 16 0
1.942 -0.49900001 -0.87199998 86 16 0
1.939 -0.5 -0.87699997 90 16 0
1.933 -0.5 -0.88 92 16 0
1.932 -0.50099999 -0.88599998 116 16 0
1.928 -0.50199997 -0.88999999 125 16 0
1.926 -0.50300002 -0.89499998 128 16 0
1.923 -0.50400001 -0.89999998 125 16 0
1.921 -0.505 -0.90499997 128 16 0
1.911 -0.50400001 -0.90600002 117 16 0
1.911 -0.505 -0.912 118 16 0
1.908 -0.505 -0.917 117 16 0
1.905 -0.50599998 -0.921 123 16 0
1.901 -0.50599998 -0.92500001 119 16 0
1.898 -0.50700003 -0.93000001 121 16 0
1.898 -0.50800002 -0.935 124 16 0
1.896 -0.509 -0.94 118 16 0
1.891 -0.50800002 -0.94300002 128 16 0
1.8890001 -0.509 -0.94800001 117 16 0
1.886 -0.509 -0.95300001 114 16 0
1.8839999 -0.50999999 -0.958 119 16 0
1.881 -0.50999999 -0.96200001 118 16 0
1.8789999 -0.50999999 -0.96600002 115 16 0
1.8789999 -0.51099998 -0.972 115 16 0
1.872 -0.50999999 -0.97399998 117 16 0
1.872 -0.51099998 -0.97899997 150 16 0
1.869 -0.51099998 -0.98400003 145 16 0
1.867 -0.51099998 -0.98799998 148 16 0
1.8660001 -0.51099998 -0.99299997 141 16 0
1.865 -0.51200002 -0.99800003 140 16 0
1.86 -0.51099998 -1.001 144 16 0
1.862 -0.51200002 -1.007 150 16 0
1.859 -0.51099998 -1.011 146 16 0
1.855 -0.51099998 -1.013 141 16 0
1.857 -0.51200002 -1.02 141 16 0
1.855 -0.51099998 -1.024 143 16 0
1.85 -0.50999999 -1.026 143 16 0
1.849 -0.50999999 -1.031 136 16 0
1.851 -0.51099998 -1.0369999 139 16 0
1.85 -0.51099998 -1.0420001 136 16 0
1.846 -0.50999999 -1.044 133 16 0
1.845 -0.50999999 -1.049 134 16 0
1.846 -0.50999999 -1.054 132 16 0
1.846 -0.50999999 -1.059 132 16 0
1.842 -0.509 -1.062 133 16 0
1.842 -0.50800002 -1.067 137 16 0
1.84 -0.50800002 -1.0700001 130 16 0
1.841 -0.50800002 -1.075 130 16 0
1.837 -0.50599998 -1.0779999 128 16 0
1.839 -0.50700003 -1.084 132 16 0
1.8380001 -0.50599998 -1.087 122 16 0
1.841 -0.50599998 -1.0930001 129 16 0
1.839 -0.505 -1.097 122 16 0
1.8380001 -0.505 -1.101 125 16 0
1.836 -0.50300002 -1.103 125 16 0
1.837 -0.50300002 -1.109 119 16 0
1.836 -0.50199997 -1.112 123 16 0
1.834 -0.50099999 -1.115 123 16 0
1.836 -0.50099999 -1.12 122 16 0
1.837 -0.5 -1.125 120 16 0
1.835 -0.49900001 -1.128 119 16 0
1.841 -0.49900001 -1.135 124 16 0
1.84 -0.498 -1.138 118 16 0
1.8380001 -0.49700001 -1.14 121 16 0
1.842 -0.49700001 -1.147 125 16 0
1.841 -0.495 -1.15 120 16 0
1.841 -0.49399999 -1.153 126 16 0
1.845 -0.49399999 -1.159 120 16 0
1.844 -0.493 -1.1619999 120 16 0
1.844 -0.491 -1.165 123 16 0
1.844 -0.49000001 -1.168 115 16 0
1.844 -0.48899999 -1.171 118 16 0
1.8430001 -0.48699999 -1.173 123 16 0
1.846 -0.486 -1.178 111 16 0
1.845 -0.484 -1.181 111 16 0
1.854 -0.48500001 -1.189 118 18 0
1.855 -0.484 -1.193 110 16 0
1.8559999 -0.48199999 -1.196 113 16 0
1.86 -0.48100001 -1.201 114 16 0
1.859 -0.479 -1.2029999 115 16 0
1.862 -0.47799999 -1.207 105 16 0
1.865 -0.477 -1.211 103 16 0
1.864 -0.47499999 -1.2130001 101 16 0
1.865 -0.47299999 -1.216 100 16 0
1.868 -0.472 -1.22 103 16 0
1.87 -0.47099999 -1.223 94 16 0
1.876 -0.47 -1.229 101 16 0
1.876 -0.46799999 -1.2309999 97 16 0
1.876 -0.46599999 -1.232 97 16 0
1.8789999 -0.46399999 -1.2359999 97 16 0
1.885 -0.463 -1.2410001 97 16 0
1.885 -0.461 -1.243 95 16 0
1.89 -0.46000001 -1.247 95 16 0
1.893 -0.458 -1.25 102 16 0
1.895 -0.456 -1.253 101 16 0
1.895 -0.454 -1.2539999 102 16 0
1.898 -0.45199999 -1.257 103 16 0
1.898 -0.449 -1.258 100 16 0
1.903 -0.44800001 -1.261 106 16 0
1.909 -0.447 -1.266 106 16 0
1.91 -0.44400001 -1.267 101 16 0
1.919 -0.44400001 -1.273 111 19 0
1.92 -0.44100001 -1.274 107 16 0
1.9220001 -0.43900001 -1.276 103 16 0
1.928 -0.43700001 -1.28 99 16 0
1.9299999 -0.435 -1.2819999 97 16 0
1.933 -0.433 -1.283 93 16 0
1.938 -0.43099999 -1.286 96 16 0
1.941 -0.428 -1.288 98 16 0
1.944 -0.426 -1.29 95 16 0
1.946 -0.42399999 -1.291 91 16 0
1.95 -0.421 -1.293 98 16 0
1.956 -0.41999999 -1.296 91 16 0
1.962 -0.41800001 -1.299 94 16 0
1.9680001 -0.41600001 -1.302 98 16 0
1.969 -0.41299999 -1.302 88 16 0
1.977 -0.41100001 -1.306 95 16 0
1.983 -0.40900001 -1.309 102 16 0
1.984 -0.40599999 -1.308 101 16 0
1.99 -0.40400001 -1.311 105 16 0
1.997 -0.40200001 -1.314 95 16 0
1.998 -0.39899999 -1.312 93 16 0
2.0050001 -0.39700001 -1.3150001 89 16 0
2.0109999 -0.39500001 -1.317 89 16 0
2.013 -0.39199999 -1.317 88 16 0
2.0139999 -0.389 -1.316 87 16 0
2.027 -0.38800001 -1.322 103 19 0
2.033 -0.38600001 -1.323 102 16 0
2.0339999 -0.382 -1.322 109 16 0
2.043 -0.38100001 -1.325 104 16 0
2.0450001 -0.377 -1.324 107 16 0
2.052 -0.375 -1.326 104 16 0
2.0569999 -0.37200001 -1.326 108 16 0
2.062 -0.37 -1.327 102 16 0
2.0639999 -0.36700001 -1.325 108 16 0
2.072 -0.36500001 -1.327 106 16 0
2.0799999 -0.36199999 -1.329 111 16 0
2.0810001 -0.359 -1.327 100 16 0
2.0910001 -0.35699999 -1.329 103 16 0
2.092 -0.354 -1.327 98 16 0
2.105 -0.352 -1.331 104 19 0
2.108 -0.34900001 -1.329 101 16 0
2.112 -0.34599999 -1.329 100 16 0
2.119 -0.34400001 -1.329 103 16 0
2.1270001 -0.34099999 -1.33 105 16 0
2.1270001 -0.338 -1.326 96 16 0
2.1359999 -0.33500001 -1.3279999 95 16 0
2.145 -0.333 -1.329 98 16 0
2.1489999 -0.33000001 -1.327 95 16 0
2.1570001 -0.32800001 -1.3279999 92 16 0
2.161 -0.32499999 -1.326 93 16 0
2.1689999 -0.322 -1.326 101 16 0
2.175 -0.31900001 -1.325 102 16 0
2.1789999 -0.31600001 -1.323 105 16 0
2.1900001 -0.31400001 -1.325 97 16 0
2.1930001 -0.31099999 -1.322 93 16 0
2.2030001 -0.30899999 -1.323 96 16 0
2.207 -0.30500001 -1.3200001 92 16 0
2.2130001 -0.303 -1.319 95 16 0
2.221 -0.30000001 -1.318 97 16 0
2.227 -0.29699999 -1.317 92 16 0
2.2349999 -0.29499999 -1.316 93 16 0
2.2409999 -0.292 -1.314 102 16 0
2.2490001 -0.289 -1.313 96 16 0
2.2550001 -0.28600001 -1.311 103 16 0
2.2620001 -0.28400001 -1.309 98 16 0
2.2679999 -0.28099999 -1.307 97 16 0
2.2780001 -0.27900001 -1.307 95 16 0
2.2820001 -0.27500001 -1.303 76 16 0
2.2850001 -0.27200001 -1.299 69 16 0
2.296 -0.27000001 -1.299 76 16 0
2.302 -0.26699999 -1.296 76 16 0
2.309 -0.264 -1.294 73 16 0
2.3150001 -0.26199999 -1.291 79 16 0
2.322 -0.259 -1.289 76 16 0
2.3299999 -0.25600001 -1.2869999 76 16 0
2.3399999 -0.25400001 -1.286 69 16 0
2.3469999 -0.25099999 -1.284 67 16 0
2.358 -0.249 -1.2819999 71 16 0
2.3610001 -0.24600001 -1.278 72 16 0
2.3670001 -0.243 -1.274 72 16 0
2.375 -0.23999999 -1.272 69 16 0
2.3789999 -0.237 -1.267 63 16 0
2.392 -0.235 -1.267 66 16 0
2.395 -0.23199999 -1.262 66 16 0
2.4070001 -0.23 -1.261 66 16 0
2.4170001 -0.227 -1.2589999 70 16 0
2.421 -0.22499999 -1.2539999 57 16 0
2.4260001 -0.222 -1.249 53 16 0
2.4319999 -0.219 -1.245 52 16 0
2.438 -0.21600001 -1.2410001 54 16 0
2.4460001 -0.214 -1.238 57 16 0
2.4489999 -0.211 -1.232 50 16 0
2.4560001 -0.208 -1.228 54 16 0
2.461 -0.205 -1.223 53 16 0
2.467 -0.20299999 -1.2180001 58 16 0
2.4809999 -0.20100001 -1.2180001 55 16 0
2.49 -0.198 -1.214 54 16 0
2.4960001 -0.19499999 -1.209 53 16 0
2.4990001 -0.193 -1.2029999 51 16 0
2.5090001 -0.19 -1.2 54 16 0
2.5209999 -0.18799999 -1.198 52 16 0
2.5280001 -0.186 -1.193 54 16 0
2.53 -0.183 -1.186 52 16 0
2.5409999 -0.18099999 -1.183 50 16 0
2.5450001 -0.178 -1.177 53 16 0
2.5539999 -0.176 -1.173 49 16 0
2.559 -0.17299999 -1.1670001 50 16 0
2.563 -0.17 -1.161 50 16 0
2.572 -0.168 -1.1569999 53 16 0
2.579 -0.16599999 -1.152 55 16 0
2.5880001 -0.163 -1.147 44 16 0
2.596 -0.161 -1.143 45 16 0
2.608 -0.15899999 -1.1390001 46 16 0
2.612 -0.15700001 -1.133 47 16 0
2.6210001 -0.154 -1.128 44 16 0
2.6270001 -0.152 -1.122 46 16 0
2.6340001 -0.15000001 -1.1160001 48 16 0
2.6370001 -0.147 -1.109 45 16 0
2.648 -0.145 -1.105 43 16 0
2.654 -0.14300001 -1.099 43 16 0
2.6630001 -0.141 -1.094 44 16 0
2.6700001 -0.139 -1.0880001 42 16 0
2.678 -0.13600001 -1.0829999 46 16 0
2.684 -0.134 -1.077 46 16 0
2.6930001 -0.132 -1.071 49 16 0
2.697 -0.13 -1.064 46 16 0
2.7019999 -0.12800001 -1.057 49 16 0
2.714 -0.126 -1.053 52 16 0
2.721 -0.124 -1.0470001 45 16 0
2.7290001 -0.122 -1.041 47 16 0
2.733 -0.119 -1.033 45 16 0
2.7360001 -0.117 -1.025 47 16 0
2.7479999 -0.115 -1.021 38 16 0
2.753 -0.113 -1.0140001 39 16 0
2.7679999 -0.112 -1.01 39 16 0
2.7750001 -0.11 -1.003 37 16 0
2.7809999 -0.108 -0.99599999 38 16 0
2.7809999 -0.105 -0.98699999 39 16 0
2.79 -0.104 -0.98100001 32 16 0
2.799 -0.102 -0.97500002 32 16 0
2.8069999 -0.1 -0.96799999 32 16 0
2.816 -0.097999997 -0.96200001 33 16 0
2.819 -0.096000001 -0.954 33 16 0
2.825 -0.093999997 -0.94599998 32 16 0
2.8329999 -0.092 -0.94 33 16 0
2.842 -0.090999998 -0.93300003 35 16 0
2.848 -0.089000002 -0.926 40 16 0
2.848 -0.086999997 -0.91600001 47 16 0
2.865 -0.085000001 -0.912 107 16 0
2.8710001 -0.083999999 -0.90499997 150 16 0
2.878 -0.082000002 -0.89700001 150 16 0
2.8789999 -0.079999998 -0.88800001 150 16 0
2.8829999 -0.078000002 -0.88 150 16 0
2.8859999 -0.077 -0.87099999 150 16 0
2.888 -0.075000003 -0.86199999 150 16 0
2.8940001 -0.072999999 -0.85399997 150 16 0
2.8959999 -0.071000002 -0.84500003 150 16 0
2.898 -0.07 -0.83600003 150 16 0
2.9030001 -0.068000004 -0.82800001 150 16 0
2.9030001 -0.067000002 -0.81900001 150 16 0
2.908 -0.064999998 -0.81 150 16 0
2.9070001 -0.063000001 -0.80000001 150 16 0
2.9159999 -0.061999999 -0.79299998 150 16 0
2.915 -0.059999999 -0.78299999 150 16 0
2.921 -0.059 -0.77499998 150 16 0
2.9230001 -0.057 -0.76599997 150 16 0
2.928 -0.056000002 -0.75800002 150 16 0
2.928 -0.054000001 -0.74800003 150 16 0
2.9330001 -0.052999999 -0.73900002 150 16 0
2.938 -0.052000001 -0.73100001 150 16 0
2.938 -0.050000001 -0.72100002 150 16 0
2.9400001 -0.048999999 -0.71200001 150 16 0
2.9419999 -0.046999998 -0.70300001 150 16 0
2.944 -0.046 -0.69300002 150 16 0
2.95 -0.045000002 -0.685 150 16 0
2.9519999 -0.043000001 -0.676 150 16 0
2.954 -0.041999999 -0.66600001 150 16 0
2.9619999 -0.041000001 -0.65799999 150 16 0
2.964 -0.039999999 -0.64899999 150 16 0
2.9660001 -0.037999999 -0.63999999 150 16 0
2.97 -0.037 -0.63099998 150 16 0
2.9719999 -0.035999998 -0.62199998 150 16 0
2.974 -0.035 -0.61199999 150 16 0
2.977 -0.034000002 -0.60299999 150 16 0
2.987 -0.033 -0.59500003 150 16 0
2.9849999 -0.032000002 -0.58499998 150 16 0
2.993 -0.030999999 -0.57700002 150 16 0
2.9979999 -0.029999999 -0.56800002 149 16 0
2.9979999 -0.028999999 -0.55800003 129 16 0
3.003 -0.028000001 -0.54900002 105 16 0
3.007 -0.027000001 -0.54000002 99 16 0
3.0120001 -0.026000001 -0.53100002 63 16 0
3.013 -0.025 -0.52100003 50 16 0
3.023 -0.024 -0.51300001 44 16 0
3.0239999 -0.023 -0.50300002 37 16 0
3.029 -0.022 -0.49399999 35 16 0
3.0369999 -0.021 -0.486 32 16 0
3.0380001 -0.02 -0.47600001 30 16 0
3.0439999 -0.018999999 -0.46700001 27 16 0
3.0539999 -0.018999999 -0.458 27 16 0
3.0569999 -0.017999999 -0.449 25 16 0
3.059 -0.017000001 -0.43900001 24 16 0
3.0639999 -0.016000001 -0.43000001 23 16 0
3.073 -0.015 -0.421 23 16 0
3.0810001 -0.015 -0.412 22 16 0
3.086 -0.014 -0.403 21 16 0
3.089 -0.013 -0.39300001 21 16 0
3.096 -0.013 -0.384 21 16 0
3.102 -0.012 -0.37400001 20 16 0
3.1040001 -0.011 -0.36399999 20 16 0
3.1140001 -0.011 -0.35600001 18 16 0
3.1199999 -0.0099999998 -0.34599999 18 16 0
3.1240001 -0.0099999998 -0.336 18 16 0
3.1270001 -0.0089999996 -0.32600001 18 16 0
3.1300001 -0.0080000004 -0.317 18 16 0
3.1370001 -0.0080000004 -0.30700001 18 16 0
3.142 -0.0070000002 -0.29699999 17 16 0
3.1500001 -0.0070000002 -0.28799999 18 16 0
3.154 -0.0060000001 -0.278 18 16 0
3.1570001 -0.0060000001 -0.26800001 18 16 0
3.164 -0.0049999999 -0.25799999 18 16 0
3.1670001 -0.0049999999 -0.248 18 16 0
3.1689999 -0.0049999999 -0.23800001 17 16 0
3.1800001 -0.0040000002 -0.229 18 16 0
3.1830001 -0.0040000002 -0.21799999 18 16 0
3.1819999 -0.003 -0.208 18 16 0
3.187 -0.003 -0.198 18 16 0
3.1919999 -0.003 -0.18799999 18 16 0
3.1989999 -0.0020000001 -0.178 18 16 0
3.2060001 -0.0020000001 -0.168 18 16 0
3.207 -0.0020000001 -0.15800001 18 16 0
3.2119999 -0.001 -0.148 18 16 0
3.2160001 -0.001 -0.13699999 18 16 0
3.22 -0.001 -0.127 18 16 0
3.227 -0.001 -0.117 18 16 0
3.233 -0.001 -0.107 19 16 0
3.23 0 -0.096000001 18 16 0
3.244 0 -0.086000003 18 16 0
3.2449999 0 -0.075999998 18 16 0
3.2509999 0 -0.064999998 18 16 0
3.2539999 0 -0.055 18 16 0
3.2550001 0 -0.044 18 16 0
3.2639999 0 -0.034000002 19 16 0
3.2650001 0 -0.023 18 16 0
3.2690001 0 -0.013 18 16 0
3.2720001 0 -0.0020000001 18 16 0
3.277 0 0.0080000004 19 16 0
3.289 0 0.017999999 19 16 0
3.29 0 0.028999999 19 16 0
3.2939999 0 0.039999999 19 16 0
3.296 0 0.050000001 19 16 0
3.299 0 0.061000001 20 16 0
3.3069999 0 0.071999997 19 16 0
3.3050001 0 0.082999997 20 16 0
3.3099999 0 0.093999997 25 16 0
3.3010001 0 0.104 44 16 0
3.29 0 0.114 140 16 0
3.2939999 -0.001 0.125 150 16 0
3.2939999 -0.001 0.13600001 150 16 0
3.3050001 -0.001 0.147 150 16 0
3.313 -0.001 0.15800001 150 16 0
3.312 -0.0020000001 0.169 150 16 0
3.3239999 -0.0020000001 0.18000001 150 16 0
3.323 -0.0020000001 0.191 150 16 0
3.329 -0.003 0.20200001 150 16 0
3.336 -0.003 0.213 150 16 0
3.3399999 -0.003 0.22400001 150 16 0
3.342 -0.0040000002 0.235 150 16 0
3.348 -0.0040000002 0.24699999 150 16 0
3.3540001 -0.0049999999 0.25799999 150 16 0
3.3610001 -0.0049999999 0.26899999 150 16 0
3.3659999 -0.0060000001 0.28099999 150 16 0
3.3659999 -0.0060000001 0.292 150 16 0
3.372 -0.0070000002 0.303 150 16 0
3.3770001 -0.0070000002 0.315 150 16 0
3.382 -0.0080000004 0.32600001 150 16 0
3.3870001 -0.0080000004 0.33700001 150 16 0
3.3789999 -0.0089999996 0.34799999 41 16 0
3.3510001 -0.0089999996 0.35600001 37 16 0
3.339 -0.0099999998 0.36500001 35 16 0
3.312 -0.0099999998 0.373 34 16 0
3.293 -0.011 0.382 42 16 0
3.276 -0.012 0.38999999 41 16 0
3.2590001 -0.012 0.39899999 42 16 0
3.233 -0.013 0.40599999 43 16 0
3.217 -0.014 0.41499999 44 16 0
3.2019999 -0.014 0.42300001 44 16 0
3.184 -0.015 0.43099999 42 16 0
3.165 -0.016000001 0.43900001 44 16 0
3.1500001 -0.016000001 0.447 42 16 0
3.122 -0.017000001 0.454 41 16 0
3.1110001 -0.017999999 0.46200001 41 16 0
3.0899999 -0.018999999 0.46900001 41 16 0
3.0739999 -0.018999999 0.477 40 16 0
3.056 -0.02 0.484 41 16 0
3.043 -0.021 0.49200001 40 16 0
3.0250001 -0.022 0.49900001 40 16 0
3.01 -0.022 0.50599998 40 16 0
2.9979999 -0.023 0.514 41 16 0
2.9849999 -0.024 0.52200001 39 16 0
2.9679999 -0.025 0.528 39 16 0
2.944 -0.026000001 0.53399998 40 16 0
2.9330001 -0.027000001 0.54100001 39 16 0
2.9189999 -0.027000001 0.54799998 41 16 0
2.9030001 -0.028000001 0.55500001 44 16 0
2.8800001 -0.028999999 0.56 41 16 0
2.869 -0.029999999 0.56699997 51 16 0
2.8570001 -0.030999999 0.574 44 16 0
2.8429999 -0.032000002 0.58099997 42 16 0
2.826 -0.033 0.58700001 42 16 0
2.8110001 -0.034000002 0.59299999 48 16 0
2.7969999 -0.035 0.59899998 40 16 0
2.783 -0.035999998 0.60500002 44 16 0
2.7709999 -0.037 0.61199999 49 16 0
2.757 -0.037999999 0.61799997 75 16 0
2.75 -0.039000001 0.625 83 16 0
2.7309999 -0.039999999 0.63 78 16 0
2.7179999 -0.041000001 0.63599998 76 16 0
2.6989999 -0.041999999 0.63999999 75 16 0
2.6930001 -0.043000001 0.648 84 16 0
2.681 -0.044 0.65399998 80 16 0
2.6730001 -0.045000002 0.66100001 91 16 0
2.658 -0.046 0.66600001 90 16 0
2.6440001 -0.046999998 0.671 79 16 0
2.6300001 -0.048 0.676 94 16 0
2.625 -0.048999999 0.68400002 93 16 0
2.609 -0.050000001 0.68800002 107 16 0
2.595 -0.052000001 0.69300002 96 16 0
2.5810001 -0.052999999 0.69800001 115 16 0
2.5610001 -0.054000001 0.70099998 102 16 0
2.552 -0.055 0.70700002 104 16 0
2.5420001 -0.056000002 0.713 108 16 0
2.533 -0.057 0.71799999 105 16 0
2.523 -0.059 0.72399998 111 16 0
2.5090001 -0.059999999 0.72799999 124 16 0
2.4990001 -0.061000001 0.73400003 121 16 0
2.4879999 -0.061999999 0.73900002 111 16 0
2.4760001 -0.064000003 0.74299997 124 16 0
2.4649999 -0.064999998 0.74800003 120 16 0
2.4560001 -0.066 0.75400001 122 16 0
2.4419999 -0.067000002 0.75700003 123 16 0
2.4260001 -0.068000004 0.75999999 139 16 0
2.424 -0.07 0.76800001 126 16 0
2.414 -0.071000002 0.773 125 16 0
2.405 -0.072999999 0.778 129 16 0
2.392 -0.074000001 0.78200001 131 16 0
2.3870001 -0.075000003 0.78799999 130 16 0
2.378 -0.077 0.79299998 123 16 0
