# .PCD v0.7 - Point Cloud Data file format
VERSION 0.7
FIELDS x y z intensity tag line
SIZE 4 4 4 4 1 1
TYPE F F F F U U
COUNT 1 1 1 1 1 1
WIDTH 1348
HEIGHT 1
VIEWPOINT 0 0 0 1 0 0 0
POINTS 1348
DATA ascii
3.0969999 0.017999999 0.463 46 16 0
3.0810001 0.017999999 0.47 44 16 0
3.066 0.017999999 0.47799999 44 16 0
3.0409999 0.017999999 0.484 45 16 0
3.03 0.017999999 0.49200001 46 16 0
3.0150001 0.017000001 0.5 47 16 0
2.9990001 0.017000001 0.50700003 42 16 0
2.9890001 0.017000001 0.51499999 41 16 0
2.974 0.017000001 0.52200001 41 16 0
2.95 0.016000001 0.528 39 16 0
2.938 0.016000001 0.53500003 41 16 0
2.9260001 0.016000001 0.54299998 41 16 0
2.904 0.016000001 0.54799998 39 16 0
2.885 0.015 0.55400002 44 16 0
2.8729999 0.015 0.56199998 46 16 0
2.8570001 0.015 0.56800002 72 16 0
2.8440001 0.014 0.57499999 81 16 0
2.836 0.014 0.583 52 16 0
2.819 0.013 0.588 41 16 0
2.8080001 0.013 0.59500003 45 16 0
2.79 0.012 0.60100001 49 16 0
2.777 0.012 0.60699999 47 16 0
2.7690001 0.011 0.61500001 47 16 0
2.7579999 0.011 0.62099999 61 16 0
2.7379999 0.0099999998 0.62599999 58 16 0
2.723 0.0099999998 0.63200003 59 16 0
2.7049999 0.0089999996 0.63599998 65 16 0
2.6949999 0.0089999996 0.64300001 60 16 0
2.6830001 0.0080000004 0.64899999 80 16 0
2.6730001 0.0080000004 0.65600002 80 16 0
2.665 0.0070000002 0.66299999 67 16 0
2.6500001 0.0060000001 0.66799998 70 16 0
2.638 0.0060000001 0.67299998 74 16 0
2.6270001 0.0049999999 0.67900002 66 16 0
2.6099999 0.0040000002 0.68400002 94 16 0
2.5999999 0.0040000002 0.69 96 16 0
2.585 0.003 0.69400001 109 16 0
2.5739999 0.0020000001 0.69999999 109 16 0
2.5610001 0.0020000001 0.70499998 113 16 0
2.543 0.001 0.70899999 120 16 0
2.5369999 0 0.71600002 108 16 0
2.523 0 0.72000003 113 16 0
2.5109999 0 0.72500002 124 16 0
2.5009999 -0.001 0.73000002 117 16 0
2.49 -0.0020000001 0.736 130 16 0
2.4779999 -0.003 0.74000001 150 16 0
2.467 -0.0040000002 0.74599999 150 16 0
2.451 -0.0049999999 0.74900001 150 16 0
2.4430001 -0.0060000001 0.755 150 16 0
2.434 -0.0060000001 0.75999999 150 16 0
2.425 -0.0070000002 0.76599997 150 16 0
2.4089999 -0.0080000004 0.76800001 150 16 0
2.4030001 -0.0089999996 0.77399999 150 16 0
2.3970001 -0.0099999998 0.78100002 150 16 0
2.385 -0.011 0.78500003 150 16 0
2.375 -0.012 0.78899997 150 16 0
2.3670001 -0.013 0.79500002 150 16 0
2.358 -0.014 0.80000001 150 16 0
2.349 -0.015 0.80500001 150 16 0
2.3369999 -0.016000001 0.80800003 150 16 0
2.3280001 -0.017000001 0.81300002 150 16 0
2.3150001 -0.017999999 0.81599998 150 16 0
2.302 -0.018999999 0.81900001 150 16 0
2.2969999 -0.021 0.82599998 150 16 0
2.2869999 -0.022 0.82999998 150 16 0
2.2780001 -0.023 0.83399999 150 16 0
2.2720001 -0.024 0.83899999 150 16 0
2.2579999 -0.025 0.84200001 150 16 0
2.247 -0.026000001 0.84500003 150 16 0
2.2409999 -0.028000001 0.85100001 150 16 0
2.24 -0.028999999 0.85699999 150 16 0
2.22 -0.029999999 0.85699999 150 16 0
2.2179999 -0.030999999 0.86400002 150 16 0
2.2060001 -0.033 0.86699998 150 16 0
2.198 -0.034000002 0.87099999 150 16 0
2.187 -0.035 0.87400001 150 16 0
2.178 -0.035999998 0.87800002 150 16 0
2.171 -0.037999999 0.88200003 150 16 0
2.1589999 -0.039000001 0.884 150 16 0
2.152 -0.039999999 0.889 150 16 0
2.1400001 -0.041999999 0.89099997 150 16 0
2.135 -0.043000001 0.89600003 150 16 0
2.1270001 -0.044 0.89899999 150 16 0
2.119 -0.046 0.903 150 16 0
2.1110001 -0.046999998 0.90700001 150 16 0
2.1040001 -0.048999999 0.91100001 150 16 0
2.096 -0.050000001 0.91399997 150 16 0
2.0869999 -0.050999999 0.917 150 16 0
2.0799999 -0.052999999 0.921 150 16 0
2.075 -0.054000001 0.926 150 16 0
2.066 -0.056000002 0.92799997 150 16 0
2.062 -0.057999998 0.93400002 150 16 0
2.049 -0.059 0.93400002 150 16 0
2.0439999 -0.061000001 0.93900001 150 16 0
2.036 -0.061999999 0.94199997 150 16 0
2.027 -0.064000003 0.94400001 150 16 0
2.0209999 -0.064999998 0.94800001 150 16 0
2.01 -0.067000002 0.94999999 150 16 0
1.999 -0.068000004 0.95099998 150 16 0
1.994 -0.07 0.95499998 150 16 0
1.985 -0.071000002 0.95700002 150 16 0
1.982 -0.072999999 0.96200001 150 16 0
1.975 -0.075000003 0.96499997 150 16 0
1.967 -0.075999998 0.96700001 150 16 0
1.961 -0.078000002 0.97000003 150 16 0
1.955 -0.079999998 0.97299999 150 16 0
1.947 -0.082000002 0.97600001 150 16 0
1.9400001 -0.082999997 0.97799999 150 16 0
1.929 -0.085000001 0.97899997 150 16 0
1.929 -0.086999997 0.98500001 150 16 0
1.9170001 -0.088 0.98500001 150 16 0
1.9119999 -0.090000004 0.98799998 150 16 0
1.906 -0.092 0.991 150 16 0
1.902 -0.093999997 0.995 150 16 0
1.896 -0.096000001 0.99699998 150 16 0
1.8890001 -0.097999997 0.99900001 150 16 0
1.883 -0.098999999 1.002 150 16 0
1.873 -0.101 1.002 150 16 0
1.868 -0.103 1.005 150 16 0
1.857 -0.105 1.005 150 16 0
1.855 -0.107 1.0089999 150 16 0
1.852 -0.109 1.013 150 16 0
1.848 -0.111 1.017 150 16 0
1.841 -0.113 1.018 150 16 0
1.8380001 -0.115 1.022 150 16 0
1.832 -0.117 1.023 150 16 0
1.827 -0.119 1.026 150 16 0
1.821 -0.121 1.028 150 16 0
1.813 -0.122 1.029 150 16 0
1.807 -0.124 1.03 150 16 0
1.803 -0.126 1.033 150 16 0
1.799 -0.12899999 1.035 150 16 0
1.795 -0.131 1.038 150 16 0
1.788 -0.133 1.039 150 16 0
1.772 -0.134 1.034 150 19 0
1.7690001 -0.13600001 1.0369999 150 16 0
1.768 -0.138 1.041 150 16 0
1.761 -0.14 1.0420001 150 16 0
1.757 -0.142 1.044 150 16 0
1.7539999 -0.145 1.0470001 150 16 0
1.75 -0.147 1.049 150 16 0
1.748 -0.149 1.052 150 16 0
1.7460001 -0.15099999 1.0549999 150 16 0
1.7410001 -0.154 1.057 150 16 0
1.739 -0.156 1.059 150 16 0
1.734 -0.15800001 1.061 150 16 0
1.7309999 -0.16 1.063 150 16 0
1.729 -0.163 1.066 150 16 0
1.725 -0.16500001 1.067 150 16 0
1.721 -0.167 1.068 150 16 0
1.715 -0.169 1.069 150 16 0
1.714 -0.17200001 1.072 150 16 0
1.711 -0.17399999 1.074 150 16 0
1.709 -0.176 1.076 150 16 0
1.7 -0.178 1.074 150 16 0
1.696 -0.18000001 1.075 150 16 0
1.693 -0.182 1.076 150 16 0
1.692 -0.185 1.079 150 16 0
1.689 -0.18700001 1.08 150 16 0
1.687 -0.19 1.082 150 16 0
1.692 -0.193 1.089 150 16 0
1.689 -0.19499999 1.09 146 16 0
1.679 -0.197 1.086 150 19 0
1.6720001 -0.199 1.085 150 16 0
1.666 -0.20100001 1.084 150 16 0
1.665 -0.20299999 1.086 150 16 0
1.664 -0.206 1.0880001 150 16 0
1.6619999 -0.208 1.09 150 16 0
1.661 -0.211 1.091 150 16 0
1.659 -0.213 1.092 150 16 0
1.658 -0.21600001 1.094 150 16 0
1.6569999 -0.21799999 1.096 150 16 0
1.652 -0.22 1.095 150 16 0
1.653 -0.223 1.097 150 16 0
1.65 -0.22499999 1.098 150 16 0
1.649 -0.227 1.099 150 16 0
1.646 -0.23 1.099 150 16 0
1.646 -0.233 1.101 150 16 0
1.645 -0.235 1.102 150 16 0
1.643 -0.237 1.102 150 16 0
1.643 -0.23999999 1.104 150 16 0
1.637 -0.242 1.102 150 16 0
1.64 -0.245 1.105 150 16 0
1.635 -0.24600001 1.103 150 16 0
1.638 -0.25 1.1059999 150 16 0
1.627 -0.25 1.1 150 16 0
1.633 -0.25400001 1.105 150 16 0
1.636 -0.257 1.108 150 16 0
1.631 -0.259 1.105 150 16 0
1.632 -0.26100001 1.107 150 16 0
1.63 -0.26300001 1.1059999 150 16 0
1.623 -0.26499999 1.103 150 19 0
1.6289999 -0.26800001 1.107 150 16 0
1.632 -0.271 1.11 150 16 0
1.632 -0.27399999 1.11 150 16 0
1.626 -0.27500001 1.1059999 150 19 0
1.631 -0.278 1.11 150 16 0
1.63 -0.28099999 1.109 150 16 0
1.63 -0.28299999 1.109 150 16 0
1.6289999 -0.285 1.109 150 16 0
1.63 -0.28799999 1.109 150 16 0
1.6289999 -0.28999999 1.108 150 16 0
1.63 -0.29300001 1.109 150 16 0
1.63 -0.29499999 1.108 150 16 0
1.6289999 -0.29699999 1.107 150 16 0
1.6289999 -0.29899999 1.1059999 150 16 0
1.631 -0.30199999 1.107 150 16 0
1.633 -0.30399999 1.108 150 16 0
1.633 -0.30599999 1.107 150 16 0
1.635 -0.30899999 1.107 150 16 0
1.635 -0.31099999 1.1059999 150 16 0
1.635 -0.31299999 1.105 150 16 0
1.637 -0.315 1.105 150 16 0
1.64 -0.31799999 1.1059999 150 16 0
1.643 -0.32100001 1.107 150 16 0
1.6390001 -0.322 1.103 150 16 0
1.6390001 -0.324 1.101 150 16 0
1.641 -0.32600001 1.101 150 16 0
1.642 -0.32800001 1.1 150 16 0
1.648 -0.331 1.102 150 16 0
1.648 -0.333 1.1 150 16 0
1.65 -0.33500001 1.1 150 16 0
1.647 -0.33700001 1.096 150 16 0
1.647 -0.338 1.094 150 16 0
1.655 -0.34200001 1.097 150 19 0
1.655 -0.34299999 1.095 150 16 0
1.656 -0.345 1.0930001 150 16 0
1.659 -0.347 1.092 150 16 0
1.6619999 -0.34999999 1.092 150 16 0
1.669 -0.35299999 1.094 150 16 0
1.671 -0.35499999 1.0930001 150 16 0
1.6720001 -0.35699999 1.091 150 16 0
1.675 -0.35800001 1.09 150 16 0
1.676 -0.36000001 1.087 150 16 0
1.683 -0.36300001 1.089 150 16 0
1.683 -0.36399999 1.085 150 16 0
1.684 -0.366 1.0829999 150 16 0
1.688 -0.368 1.0829999 150 16 0
1.692 -0.37 1.082 150 16 0
1.693 -0.37200001 1.079 150 16 0
1.696 -0.373 1.077 150 16 0
1.699 -0.375 1.076 150 16 0
1.7 -0.37599999 1.073 150 16 0
1.701 -0.37799999 1.0700001 150 16 0
1.705 -0.37900001 1.068 150 16 0
1.709 -0.38100001 1.067 150 16 0
1.711 -0.38299999 1.0650001 150 16 0
1.716 -0.38499999 1.064 150 16 0
1.716 -0.38499999 1.0599999 150 16 0
1.733 -0.38999999 1.067 150 18 0
1.739 -0.39199999 1.066 150 16 0
1.739 -0.39300001 1.062 150 16 0
1.744 -0.39500001 1.061 150 16 0
1.748 -0.396 1.058 150 16 0
1.751 -0.398 1.056 150 16 0
1.755 -0.39899999 1.054 150 16 0
1.7640001 -0.40200001 1.0549999 150 16 0
1.7690001 -0.403 1.054 150 16 0
1.774 -0.405 1.052 150 16 0
1.7819999 -0.40700001 1.052 150 16 0
1.79 -0.40900001 1.052 102 16 0
1.794 -0.41 1.049 130 16 0
1.794 -0.41100001 1.044 150 16 0
1.8 -0.412 1.043 150 16 0
1.799 -0.412 1.0369999 150 16 0
1.8049999 -0.414 1.036 150 16 0
1.8099999 -0.41499999 1.034 150 16 0
1.816 -0.41600001 1.0319999 150 16 0
1.821 -0.41800001 1.029 150 16 0
1.8329999 -0.41999999 1.031 150 16 0
1.835 -0.421 1.027 150 16 0
1.84 -0.42199999 1.024 150 16 0
1.844 -0.42300001 1.021 150 16 0
1.853 -0.42399999 1.02 150 16 0
1.858 -0.42500001 1.018 150 16 0
1.862 -0.426 1.015 150 16 0
1.8710001 -0.428 1.0140001 150 16 0
1.873 -0.428 1.0089999 150 16 0
1.88 -0.42899999 1.007 150 16 0
1.887 -0.43000001 1.005 150 16 0
1.891 -0.43099999 1.002 150 16 0
1.898 -0.43200001 0.99900001 150 16 0
1.904 -0.433 0.99699998 150 16 0
1.909 -0.433 0.99299997 150 16 0
1.9170001 -0.43399999 0.991 150 16 0
1.926 -0.43599999 0.99000001 150 16 0
1.9299999 -0.43599999 0.986 150 16 0
1.9349999 -0.43599999 0.98299998 150 16 0
1.941 -0.43700001 0.97899997 150 16 0
1.952 -0.43799999 0.97899997 150 16 0
1.959 -0.43900001 0.97600001 150 16 0
1.966 -0.44 0.97299999 150 16 0
1.977 -0.44100001 0.97299999 150 16 0
1.982 -0.442 0.96899998 150 16 0
1.988 -0.442 0.96600002 150 16 0
1.995 -0.442 0.963 150 16 0
2.006 -0.44400001 0.96100003 150 16 0
2.0090001 -0.44299999 0.95599997 150 16 0
2.017 -0.44400001 0.954 150 16 0
2.0250001 -0.44400001 0.95099998 150 16 0
2.033 -0.44499999 0.94800001 150 16 0
2.039 -0.44400001 0.94400001 150 16 0
2.0480001 -0.44499999 0.94199997 149 16 0
2.0569999 -0.44600001 0.93900001 146 16 0
2.0639999 -0.44600001 0.93599999 150 16 0
2.0680001 -0.44499999 0.93099999 150 16 0
2.0780001 -0.44600001 0.92900002 150 16 0
2.082 -0.44499999 0.92400002 150 16 0
2.092 -0.44600001 0.921 111 16 0
2.098 -0.44499999 0.917 108 16 0
2.108 -0.44600001 0.91399997 115 16 0
2.1129999 -0.44499999 0.91000003 118 16 0
2.1259999 -0.44600001 0.90799999 118 16 0
2.1340001 -0.44600001 0.90499997 118 16 0
2.145 -0.44600001 0.90200001 108 16 0
2.1500001 -0.44600001 0.898 108 16 0
2.158 -0.44499999 0.89399999 111 16 0
2.171 -0.44600001 0.89200002 108 16 0
2.1760001 -0.44499999 0.88700002 104 16 0
2.188 -0.44600001 0.88499999 97 16 0
2.191 -0.44400001 0.87900001 100 16 0
2.204 -0.44499999 0.87699997 110 16 0
2.2130001 -0.44400001 0.87300003 112 16 0
2.22 -0.44400001 0.86900002 109 16 0
2.2290001 -0.44299999 0.86500001 108 16 0
2.237 -0.44299999 0.861 113 16 0
2.247 -0.442 0.85799998 110 16 0
2.2539999 -0.44100001 0.85299999 107 16 0
2.2609999 -0.44100001 0.84899998 104 16 0
2.2739999 -0.44100001 0.84600002 104 16 0
2.283 -0.44 0.84200001 102 16 0
2.2950001 -0.44 0.83899999 80 16 0
2.3010001 -0.43799999 0.83399999 80 16 0
2.316 -0.43900001 0.83099997 78 16 0
2.3210001 -0.43700001 0.82599998 77 16 0
2.329 -0.43599999 0.82099998 78 16 0
2.3369999 -0.435 0.81599998 77 16 0
2.346 -0.43399999 0.81199998 75 16 0
2.358 -0.433 0.80900002 75 16 0
2.365 -0.43200001 0.80400002 72 16 0
2.3740001 -0.43099999 0.79900002 68 16 0
2.3840001 -0.43000001 0.79500002 72 16 0
2.3889999 -0.428 0.78899997 74 16 0
2.4030001 -0.42699999 0.78600001 61 16 0
2.4119999 -0.426 0.78100002 69 16 0
2.4260001 -0.426 0.778 68 16 0
2.4319999 -0.42300001 0.77200001 61 16 0
2.45 -0.42399999 0.76999998 67 16 0
2.457 -0.42199999 0.764 57 16 0
2.4660001 -0.41999999 0.759 64 16 0
2.4779999 -0.419 0.755 53 16 0
2.4849999 -0.417 0.75 53 16 0
2.4979999 -0.41600001 0.74599999 54 16 0
2.506 -0.414 0.74000001 59 16 0
2.5150001 -0.412 0.73500001 35 16 0
2.53 -0.41100001 0.73100001 36 16 0
2.539 -0.41 0.72600001 37 16 0
2.549 -0.40799999 0.72100002 35 16 0
2.5639999 -0.40700001 0.71700001 35 16 0
2.5710001 -0.40400001 0.71100003 33 16 0
2.5799999 -0.40200001 0.70599997 34 16 0
2.596 -0.40099999 0.70200002 34 16 0
2.6070001 -0.40000001 0.69700003 35 16 0
2.618 -0.39700001 0.69099998 32 16 0
2.6270001 -0.39500001 0.68599999 33 16 0
2.6389999 -0.39300001 0.68099999 34 16 0
2.6459999 -0.391 0.67500001 34 16 0
2.655 -0.38800001 0.66900003 31 16 0
2.6730001 -0.38699999 0.66500002 33 16 0
2.684 -0.38499999 0.66000003 33 16 0
2.6930001 -0.38299999 0.65399998 33 16 0
2.7079999 -0.38100001 0.64899999 33 16 0
2.7160001 -0.37799999 0.64300001 32 16 0
2.7260001 -0.375 0.63700002 31 16 0
2.744 -0.37400001 0.63300002 33 16 0
2.753 -0.37099999 0.62599999 33 16 0
2.7679999 -0.36899999 0.62099999 33 16 0
2.779 -0.36700001 0.616 33 16 0
2.7920001 -0.36399999 0.61000001 32 16 0
2.8050001 -0.36199999 0.60500002 32 16 0
2.8180001 -0.359 0.59899998 35 16 0
2.8269999 -0.35600001 0.59200001 35 16 0
2.8380001 -0.35299999 0.58600003 41 16 0
2.8529999 -0.35100001 0.58099997 43 16 0
2.8610001 -0.347 0.574 40 16 0
2.869 -0.34400001 0.56699997 37 16 0
2.878 -0.34099999 0.56 31 16 0
2.8870001 -0.33700001 0.55400002 27 16 0
2.8900001 -0.333 0.546 26 16 0
2.8970001 -0.329 0.53799999 26 16 0
2.902 -0.32600001 0.53100002 26 16 0
2.905 -0.32100001 0.523 26 16 0
2.9089999 -0.317 0.51499999 25 16 0
2.9170001 -0.31400001 0.50800002 25 16 0
2.924 -0.31 0.50099999 26 16 0
2.9300001 -0.30599999 0.493 26 16 0
2.931 -0.301 0.48500001 25 16 0
2.9430001 -0.29800001 0.47799999 26 16 0
2.9460001 -0.29300001 0.47 26 16 0
2.954 -0.289 0.463 24 16 0
2.9619999 -0.285 0.45500001 24 16 0
2.9649999 -0.28099999 0.447 24 16 0
2.9679999 -0.27700001 0.43900001 21 16 0
2.974 -0.27200001 0.43200001 21 16 0
2.99 -0.26899999 0.42500001 22 16 0
2.997 -0.26499999 0.41800001 22 16 0
3.0020001 -0.25999999 0.41 21 16 0
3.0079999 -0.25600001 0.40200001 22 16 0
3.0150001 -0.25099999 0.39500001 22 16 0
3.0250001 -0.24699999 0.38699999 21 16 0
3.03 -0.243 0.37900001 22 16 0
3.0369999 -0.23800001 0.37200001 22 16 0
3.0469999 -0.234 0.36399999 22 16 0
3.0510001 -0.229 0.35600001 21 16 0
3.0599999 -0.22499999 0.34900001 22 16 0
3.0680001 -0.22 0.34099999 22 16 0
3.073 -0.215 0.333 22 16 0
3.0769999 -0.211 0.32499999 22 16 0
3.0880001 -0.206 0.317 21 16 0
3.1010001 -0.20200001 0.31 22 16 0
3.1070001 -0.197 0.30199999 22 16 0
3.112 -0.192 0.294 22 16 0
3.1210001 -0.18700001 0.28600001 23 16 0
3.1229999 -0.182 0.27700001 22 16 0
3.1370001 -0.177 0.27000001 22 16 0
3.1470001 -0.17299999 0.26199999 22 16 0
3.1570001 -0.168 0.25400001 22 16 0
3.161 -0.162 0.24600001 22 16 0
3.1719999 -0.15700001 0.23800001 22 16 0
3.1800001 -0.152 0.23 22 16 0
3.1919999 -0.147 0.222 23 16 0
3.197 -0.142 0.213 23 16 0
3.204 -0.13699999 0.205 23 16 0
3.2119999 -0.131 0.19599999 22 16 0
3.224 -0.126 0.18799999 23 16 0
3.2279999 -0.121 0.18000001 23 16 0
3.2390001 -0.115 0.17200001 23 16 0
3.2509999 -0.11 0.163 24 16 0
3.253 -0.104 0.155 23 16 0
3.267 -0.098999999 0.147 23 16 0
3.276 -0.093999997 0.138 23 16 0
3.286 -0.088 0.13 23 16 0
3.293 -0.082000002 0.121 23 16 0
3.3050001 -0.077 0.112 25 16 0
3.309 -0.071000002 0.104 38 16 0
3.3069999 -0.064999998 0.094999999 94 16 0
3.3010001 -0.059 0.086000003 105 16 0
3.2969999 -0.052999999 0.077 69 16 0
3.286 -0.046 0.068000004 79 16 0
3.283 -0.039999999 0.059 67 16 0
3.273 -0.034000002 0.050000001 80 16 0
3.263 -0.028000001 0.041000001 75 16 0
3.2609999 -0.022 0.032000002 47 16 0
3.2609999 -0.016000001 0.024 27 16 0
3.26 -0.0099999998 0.015 17 16 0
3.2739999 -0.0040000002 0.0060000001 15 16 0
3.2820001 0.001 -0.001 15 16 0
3.2969999 0.0070000002 -0.0099999998 16 16 0
3.3050001 0.013 -0.018999999 16 16 0
3.3099999 0.018999999 -0.028000001 22 16 0
3.3110001 0.026000001 -0.037 33 16 0
3.309 0.032000002 -0.045000002 46 16 0
3.2939999 0.037999999 -0.054000001 48 16 0
3.289 0.044 -0.061999999 44 16 0
3.2850001 0.050000001 -0.071000002 36 16 0
3.2780001 0.056000002 -0.079000004 35 16 0
3.2690001 0.061999999 -0.088 42 16 0
3.2620001 0.068000004 -0.096000001 45 16 0
3.257 0.074000001 -0.104 46 16 0
3.2509999 0.081 -0.113 47 16 0
3.2490001 0.086999997 -0.121 49 16 0
3.24 0.093000002 -0.12899999 49 16 0
3.2349999 0.098999999 -0.138 47 16 0
3.2279999 0.105 -0.146 48 16 0
3.221 0.111 -0.154 54 16 0
3.2149999 0.117 -0.162 54 16 0
3.2049999 0.123 -0.17 54 16 0
3.201 0.12899999 -0.178 52 16 0
3.1930001 0.13500001 -0.185 55 16 0
3.181 0.141 -0.193 51 16 0
3.181 0.147 -0.20100001 52 16 0
3.1730001 0.153 -0.20900001 50 16 0
3.168 0.15899999 -0.21699999 54 16 0
3.158 0.16500001 -0.22400001 55 16 0
3.154 0.171 -0.23199999 57 16 0
3.148 0.177 -0.23999999 51 16 0
3.1389999 0.182 -0.24699999 49 16 0
3.132 0.18799999 -0.255 51 16 0
3.1229999 0.19400001 -0.26199999 50 16 0
3.115 0.2 -0.26899999 60 16 0
3.1129999 0.206 -0.27700001 54 16 0
3.1070001 0.212 -0.28400001 69 16 0
3.098 0.21699999 -0.29100001 77 16 0
3.092 0.223 -0.29899999 72 16 0
3.0840001 0.229 -0.30599999 81 16 0
3.0799999 0.235 -0.31299999 76 16 0
3.069 0.241 -0.31999999 88 16 0
3.066 0.24699999 -0.32699999 84 16 0
3.0569999 0.252 -0.33399999 80 16 0
3.052 0.25799999 -0.34099999 84 16 0
3.046 0.264 -0.34799999 90 16 0
3.0309999 0.26899999 -0.354 76 16 0
3.029 0.27500001 -0.36199999 71 16 0
3.0239999 0.28099999 -0.36899999 87 16 0
3.017 0.287 -0.37599999 71 16 0
3.0139999 0.29300001 -0.38299999 75 16 0
3.01 0.29899999 -0.38999999 79 16 0
2.9990001 0.30399999 -0.396 77 16 0
2.994 0.31 -0.403 80 16 0
2.9849999 0.31600001 -0.40900001 90 16 0
2.9809999 0.32100001 -0.41600001 82 16 0
2.98 0.32800001 -0.42300001 81 16 0
2.973 0.333 -0.43000001 90 16 0
2.964 0.33899999 -0.43599999 86 16 0
2.9590001 0.345 -0.442 95 16 0
2.9530001 0.34999999 -0.449 88 16 0
2.947 0.35600001 -0.45500001 89 16 0
2.9419999 0.36199999 -0.46200001 100 16 0
2.934 0.36700001 -0.46799999 86 16 0
2.931 0.373 -0.47499999 92 16 0
2.927 0.37900001 -0.48100001 109 16 0
2.921 0.38499999 -0.48800001 111 16 0
2.908 0.38999999 -0.49200001 107 16 0
2.901 0.39500001 -0.498 116 16 0
2.898 0.40200001 -0.505 105 16 0
2.891 0.40700001 -0.51099998 102 16 0
2.8870001 0.41299999 -0.51700002 96 16 0
2.885 0.419 -0.52399999 108 16 0
2.8740001 0.42399999 -0.52899998 108 16 0
2.869 0.43000001 -0.53500003 98 16 0
2.865 0.43599999 -0.54100001 109 16 0
2.8610001 0.442 -0.54799998 115 16 0
2.8499999 0.447 -0.55199999 115 16 0
2.8469999 0.45300001 -0.55900002 105 16 0
2.8380001 0.458 -0.56400001 106 16 0
2.8340001 0.46399999 -0.56999999 110 16 0
2.8310001 0.47 -0.57599998 148 16 0
2.8210001 0.47499999 -0.58099997 134 16 0
2.8169999 0.47999999 -0.58700001 128 16 0
2.813 0.486 -0.59299999 150 16 0
2.809 0.49200001 -0.59899998 140 16 0
2.8039999 0.498 -0.60399997 149 16 0
2.799 0.50400001 -0.61000001 142 16 0
2.789 0.509 -0.61400002 142 16 0
2.789 0.51499999 -0.62099999 143 16 0
2.7820001 0.52100003 -0.62599999 150 16 0
2.7739999 0.52600002 -0.63099998 150 16 0
2.7650001 0.53100002 -0.63499999 150 16 0
2.7620001 0.537 -0.64099997 150 16 0
2.7590001 0.54299998 -0.64700001 150 16 0
2.7539999 0.54900002 -0.65200001 150 16 0
2.747 0.55400002 -0.65700001 150 16 0
2.743 0.56 -0.66299999 150 16 0
2.7379999 0.565 -0.66799998 150 16 0
2.7290001 0.56999999 -0.67199999 150 16 0
2.7249999 0.57599998 -0.67699999 150 16 0
2.7160001 0.58099997 -0.68099999 150 16 0
2.717 0.588 -0.68800002 150 16 0
2.71 0.59299999 -0.69199997 150 16 0
2.704 0.59899998 -0.69700003 150 16 0
2.7019999 0.60500002 -0.70300001 150 16 0
2.6949999 0.61000001 -0.70700002 150 16 0
2.694 0.61699998 -0.713 150 16 0
2.6849999 0.62099999 -0.71700001 150 16 0
2.6789999 0.62699997 -0.72100002 150 16 0
2.6760001 0.63300002 -0.727 150 16 0
2.6730001 0.639 -0.73199999 150 16 0
2.6700001 0.64499998 -0.73699999 150 16 0
2.6589999 0.64899999 -0.74000001 150 16 0
2.654 0.65499997 -0.74400002 150 16 0
2.6440001 0.65899998 -0.74699998 150 16 0
2.6470001 0.667 -0.75400001 150 16 0
2.6389999 0.67199999 -0.75800002 150 16 0
2.635 0.67799997 -0.76200002 150 16 0
2.632 0.68400002 -0.76700002 150 16 0
2.625 0.68900001 -0.77100003 150 16 0
2.6210001 0.69499999 -0.77499998 150 16 0
2.6170001 0.69999999 -0.77999997 150 16 0
2.6099999 0.70599997 -0.78399998 150 16 0
2.605 0.71100003 -0.78799999 150 16 0
2.602 0.71700001 -0.792 150 16 0
2.599 0.72299999 -0.79699999 150 16 0
2.595 0.72899997 -0.801 150 16 0
2.5929999 0.73500001 -0.80599999 150 16 0
2.585 0.74000001 -0.80900002 150 16 0
2.5799999 0.74599999 -0.81300002 150 16 0
2.569 0.74900001 -0.815 150 16 0
2.5639999 0.755 -0.81800002 150 16 0
2.5580001 0.75999999 -0.82200003 150 16 0
2.553 0.76599997 -0.82499999 150 16 0
2.553 0.77200001 -0.82999998 150 16 0
2.55 0.778 -0.83399999 150 16 0
2.546 0.78399998 -0.83899999 150 16 0
2.5420001 0.79000002 -0.84200001 150 16 0
2.5350001 0.79500002 -0.84500003 150 16 0
2.5309999 0.80000001 -0.84899998 150 16 0
2.529 0.80699998 -0.85299999 150 16 0
2.5220001 0.81099999 -0.85500002 150 16 0
2.5190001 0.81699997 -0.85900003 150 16 0
2.5139999 0.82300001 -0.86199999 150 16 0
2.5109999 0.829 -0.866 150 16 0
2.5079999 0.83499998 -0.87 150 16 0
2.507 0.84100002 -0.87400001 150 16 0
2.4979999 0.84500003 -0.87599999 150 16 0
2.494 0.85100001 -0.87900001 150 16 0
2.4909999 0.85699999 -0.88200003 150 16 0
2.484 0.861 -0.88499999 150 16 0
2.4820001 0.86799997 -0.88800001 136 16 0
2.4820001 0.875 -0.89300001 18 16 0
2.4719999 0.87800002 -0.89300001 3 16 0
2.4289999 0.86900002 -0.88200003 0 17 0
2.4170001 0.87199998 -0.88200003 2 16 0
2.411 0.87699997 -0.884 8 16 0
2.4300001 0.88999999 -0.89499998 15 19 0
2.4489999 0.90399998 -0.90600002 63 16 0
2.4530001 0.91299999 -0.912 150 16 0
2.4430001 0.91600001 -0.912 150 16 0
2.4430001 0.92299998 -0.91600001 150 16 0
2.4400001 0.92799997 -0.91900003 150 16 0
2.4319999 0.93199998 -0.92000002 150 16 0
2.4330001 0.94 -0.92400002 150 16 0
2.424 0.94300002 -0.92400002 150 16 0
2.438 0.95499998 -0.93300003 150 19 0
2.461 0.97100002 -0.94599998 151 16 0
2.4300001 0.96600002 -0.93800002 151 16 0
2.4119999 0.96600002 -0.93400002 150 16 0
2.4059999 0.97000003 -0.935 150 16 0
2.402 0.97500002 -0.93699998 150 16 0
2.3970001 0.98000002 -0.93800002 150 16 0
2.3940001 0.98500001 -0.94 150 16 0
2.3900001 0.99000001 -0.94199997 150 16 0
2.3870001 0.99599999 -0.94400001 150 16 0
2.385 1.001 -0.94599998 150 16 0
2.3789999 1.006 -0.94700003 150 16 0
2.378 1.012 -0.94999999 150 16 0
2.372 1.016 -0.94999999 150 16 0
2.3699999 1.021 -0.95200002 150 16 0
2.368 1.027 -0.954 150 16 0
2.365 1.0319999 -0.95599997 150 16 0
2.3599999 1.036 -0.95599997 150 16 0
2.3610001 1.043 -0.95899999 150 16 0
2.3540001 1.0470001 -0.95899999 150 16 0
2.3510001 1.052 -0.95999998 150 16 0
2.3440001 1.0549999 -0.95999998 151 16 0
2.342 1.0599999 -0.96100003 151 16 0
2.3399999 1.066 -0.963 151 16 0
2.3369999 1.071 -0.96399999 150 16 0
2.335 1.076 -0.96499997 151 16 0
2.3299999 1.08 -0.96499997 151 16 0
2.329 1.085 -0.96600002 151 16 0
2.3280001 1.091 -0.96799999 151 16 0
2.322 1.094 -0.96700001 151 16 0
2.3210001 1.1 -0.96899998 151 16 0
2.3169999 1.104 -0.96899998 151 16 0
2.3180001 1.11 -0.97100002 151 16 0
2.313 1.114 -0.97000003 151 16 0
2.3110001 1.118 -0.97000003 151 16 0
2.3080001 1.123 -0.97100002 151 16 0
2.3050001 1.127 -0.97100002 151 16 0
2.303 1.131 -0.97100002 151 16 0
2.3 1.136 -0.97100002 151 16 0
2.3 1.141 -0.972 151 16 0
2.2969999 1.146 -0.972 151 16 0
2.2939999 1.149 -0.97100002 151 16 0
2.2920001 1.154 -0.972 151 16 0
2.289 1.158 -0.97100002 151 16 0
2.289 1.163 -0.972 151 16 0
2.2839999 1.166 -0.97000003 151 16 0
2.2850001 1.171 -0.97100002 151 16 0
2.2820001 1.175 -0.97000003 151 16 0
2.2809999 1.179 -0.97000003 151 16 0
2.2750001 1.181 -0.96799999 151 16 0
2.2720001 1.1849999 -0.96700001 151 16 0
2.2720001 1.189 -0.96700001 151 16 0
2.2739999 1.1950001 -0.96799999 151 16 0
2.2709999 1.198 -0.96600002 151 16 0
2.27 1.202 -0.96600002 151 16 0
2.2690001 1.206 -0.96499997 151 16 0
2.267 1.21 -0.96399999 151 16 0
2.2650001 1.2130001 -0.963 151 16 0
2.2639999 1.217 -0.96200001 151 16 0
2.26 1.219 -0.95999998 151 16 0
2.26 1.223 -0.95899999 151 16 0
2.2620001 1.228 -0.95899999 151 16 0
2.2579999 1.23 -0.95700002 151 16 0
2.257 1.234 -0.95599997 151 16 0
2.2539999 1.2359999 -0.95300001 151 16 0
2.2539999 1.24 -0.95200002 151 16 0
2.2520001 1.242 -0.94999999 151 16 0
2.2509999 1.245 -0.949 151 16 0
2.25 1.248 -0.94700003 151 16 0
2.25 1.252 -0.94599998 151 16 0
2.2509999 1.255 -0.94499999 151 16 0
2.2490001 1.257 -0.94199997 151 16 0
2.2460001 1.2589999 -0.94 151 16 0
2.2490001 1.2640001 -0.93900001 151 16 0
2.247 1.265 -0.93599999 151 16 0
2.2460001 1.268 -0.93400002 151 16 0
2.247 1.271 -0.93300003 151 16 0
2.247 1.274 -0.93099999 151 16 0
2.2449999 1.275 -0.92799997 151 16 0
2.244 1.277 -0.92500001 150 16 0
2.2420001 1.278 -0.92199999 150 16 0
2.243 1.281 -0.92000002 150 16 0
2.244 1.284 -0.91799998 151 16 0
2.2490001 1.288 -0.91799998 150 16 0
2.2449999 1.288 -0.91399997 150 16 0
2.247 1.291 -0.912 150 16 0
2.247 1.293 -0.90899998 150 16 0
2.247 1.295 -0.90700001 150 16 0
2.247 1.296 -0.90399998 150 16 0
2.2509999 1.3 -0.903 150 16 0
2.2490001 1.3 -0.89899999 150 16 0
2.25 1.302 -0.89600003 150 16 0
2.2520001 1.304 -0.89399999 150 16 0
2.2539999 1.307 -0.89200002 150 16 0
2.253 1.307 -0.88800001 71 16 0
2.26 1.312 -0.88800001 24 16 0
2.26 1.313 -0.884 10 16 0
2.2590001 1.313 -0.88099998 3 16 0
2.253 1.3099999 -0.875 1 16 0
2.25 1.308 -0.87 1 16 0
2.2609999 1.3150001 -0.87099999 1 16 0
2.2620001 1.316 -0.86799997 1 16 0
2.2679999 1.319 -0.866 1 16 0
2.286 1.33 -0.86900002 1 16 0
2.277 1.324 -0.86199999 1 16 0
2.2780001 1.325 -0.85799998 2 16 0
2.276 1.323 -0.85399997 2 16 0
2.2820001 1.326 -0.852 2 16 0
2.286 1.3279999 -0.84899998 2 16 0
2.2869999 1.3279999 -0.84600002 2 16 0
2.2809999 1.323 -0.83899999 2 16 0
2.289 1.327 -0.838 2 16 0
2.29 1.327 -0.83399999 2 16 0
2.2850001 1.323 -0.82800001 1 16 0
2.2980001 1.329 -0.82800001 1 16 0
2.29 1.323 -0.82099998 1 16 0
2.2820001 1.318 -0.81400001 1 16 0
2.286 1.318 -0.81099999 1 16 0
2.2880001 1.318 -0.80699998 1 16 0
2.2969999 1.321 -0.80500001 1 16 0
2.2980001 1.3200001 -0.801 5 16 0
2.2980001 1.318 -0.79699999 20 16 0
2.2939999 1.314 -0.79100001 93 16 0
2.3 1.3150001 -0.78799999 150 16 0
2.303 1.3150001 -0.78399998 150 16 0
2.3039999 1.313 -0.77999997 150 16 0
2.303 1.311 -0.77499998 150 16 0
2.3050001 1.309 -0.77100003 150 16 0
2.3099999 1.309 -0.76800001 150 16 0
2.309 1.306 -0.76200002 150 16 0
2.3099999 1.304 -0.75800002 150 16 0
2.3110001 1.302 -0.75300002 150 16 0
2.3169999 1.302 -0.75 150 16 0
2.322 1.302 -0.74699998 150 16 0
2.323 1.299 -0.74199998 150 16 0
2.325 1.2970001 -0.73799998 150 16 0
2.3280001 1.295 -0.73400003 150 16 0
2.329 1.293 -0.72899997 150 16 0
2.3329999 1.291 -0.72500002 150 16 0
2.3410001 1.2920001 -0.72299999 150 16 0
2.339 1.2869999 -0.71700001 150 16 0
2.3399999 1.285 -0.71200001 150 16 0
2.346 1.284 -0.70899999 150 16 0
2.3469999 1.281 -0.704 150 16 0
2.348 1.277 -0.699 150 16 0
2.3570001 1.278 -0.69599998 150 16 0
2.3570001 1.274 -0.69099998 150 16 0
2.3629999 1.273 -0.68800002 150 16 0
2.365 1.27 -0.68300003 150 16 0
2.3670001 1.266 -0.67799997 150 16 0
2.3740001 1.265 -0.67500001 150 16 0
2.3740001 1.261 -0.67000002 150 16 0
2.3770001 1.258 -0.66500002 150 16 0
2.381 1.256 -0.66100001 150 16 0
2.3840001 1.252 -0.65700001 150 16 0
2.3859999 1.248 -0.65200001 150 16 0
2.391 1.2460001 -0.648 150 16 0
2.3929999 1.242 -0.64399999 149 16 0
2.401 1.242 -0.63999999 69 16 0
2.4000001 1.2359999 -0.63499999 36 16 0
2.405 1.233 -0.63099998 35 16 0
2.4089999 1.23 -0.62699997 32 16 0
2.415 1.228 -0.62300003 39 16 0
2.4189999 1.225 -0.61900002 110 16 0
2.4159999 1.2180001 -0.61299998 142 16 0
2.425 1.217 -0.61000001 111 16 0
2.4219999 1.21 -0.60399997 143 16 0
2.428 1.207 -0.60000002 150 16 0
2.4349999 1.205 -0.59600002 150 16 0
2.438 1.2 -0.59200001 150 16 0
2.4389999 1.1950001 -0.58700001 150 16 0
2.444 1.192 -0.583 150 16 0
2.448 1.188 -0.57800001 150 16 0
2.4519999 1.184 -0.574 150 16 0
2.457 1.1799999 -0.56999999 150 16 0
2.46 1.175 -0.565 150 16 0
2.464 1.171 -0.56099999 150 16 0
2.471 1.168 -0.55800003 150 16 0
2.473 1.163 -0.55299997 150 16 0
2.4779999 1.159 -0.54900002 150 16 0
2.483 1.155 -0.54500002 150 16 0
2.487 1.151 -0.54000002 150 16 0
2.49 1.146 -0.53600001 150 16 0
2.494 1.141 -0.53200001 150 16 0
2.4990001 1.137 -0.528 150 16 0
2.5039999 1.133 -0.523 150 16 0
2.507 1.127 -0.51899999 150 16 0
2.51 1.122 -0.51499999 150 16 0
2.513 1.117 -0.50999999 150 16 0
2.517 1.112 -0.50599998 150 16 0
2.52 1.1059999 -0.50099999 150 16 0
2.523 1.101 -0.49700001 150 16 0
2.536 1.1 -0.49399999 150 16 0
2.54 1.095 -0.49000001 150 16 0
2.5469999 1.091 -0.48699999 150 16 0
2.55 1.085 -0.48199999 150 16 0
2.5539999 1.079 -0.47799999 150 16 0
2.559 1.074 -0.47400001 150 16 0
2.5650001 1.0700001 -0.47 150 16 0
2.5680001 1.064 -0.46599999 150 16 0
2.5739999 1.059 -0.46200001 150 16 0
2.5799999 1.054 -0.458 150 16 0
2.582 1.048 -0.45300001 150 16 0
2.585 1.0420001 -0.449 150 16 0
2.5869999 1.035 -0.44499999 150 16 0
2.596 1.0319999 -0.44100001 150 16 0
2.595 1.024 -0.43599999 150 16 0
2.6029999 1.0190001 -0.433 150 16 0
2.609 1.0140001 -0.42899999 150 16 0
2.612 1.008 -0.42500001 150 16 0
2.622 1.0039999 -0.42199999 150 16 0
2.6170001 0.995 -0.41600001 150 16 0
2.628 0.991 -0.41299999 150 16 0
2.6340001 0.986 -0.40900001 150 16 0
2.642 0.98100001 -0.40599999 150 16 0
2.648 0.97600001 -0.40200001 150 16 0
2.6689999 0.97500002 -0.40099999 145 16 0
2.6559999 0.963 -0.39399999 141 16 0
2.6570001 0.95599997 -0.38999999 150 16 0
2.6600001 0.949 -0.38600001 150 16 0
2.6670001 0.94300002 -0.382 150 16 0
2.6719999 0.93699998 -0.37799999 150 16 0
2.6760001 0.93099999 -0.37400001 150 16 0
2.681 0.92500001 -0.37 150 16 0
2.684 0.91799998 -0.366 150 16 0
2.691 0.912 -0.36300001 150 16 0
2.694 0.90499997 -0.359 150 16 0
2.697 0.898 -0.35499999 150 16 0
2.7060001 0.89300001 -0.35100001 150 16 0
2.7090001 0.88599998 -0.347 150 16 0
2.717 0.88 -0.34400001 150 16 0
2.723 0.87400001 -0.34 150 16 0
2.727 0.86699998 -0.336 150 16 0
2.73 0.86000001 -0.33199999 150 16 0
2.7390001 0.85500002 -0.329 150 16 0
2.7349999 0.84500003 -0.324 150 16 0
2.747 0.83999997 -0.32100001 150 16 0
2.7539999 0.83399999 -0.31799999 150 16 0
2.7590001 0.82700002 -0.31400001 150 16 0
2.7620001 0.81999999 -0.31 150 16 0
2.766 0.81300002 -0.30700001 150 16 0
2.7709999 0.80599999 -0.303 150 16 0
2.783 0.801 -0.30000001 150 16 0
2.786 0.79400003 -0.296 150 16 0
2.789 0.78600001 -0.292 150 16 0
2.793 0.77899998 -0.289 150 16 0
2.796 0.77100003 -0.285 150 16 0
2.8050001 0.76499999 -0.28200001 150 16 0
2.8110001 0.75800002 -0.278 150 16 0
2.8139999 0.75 -0.27399999 150 16 0
2.823 0.74400002 -0.271 150 16 0
2.825 0.736 -0.26699999 150 16 0
2.832 0.72899997 -0.264 150 16 0
2.8380001 0.722 -0.26100001 150 16 0
2.842 0.71399999 -0.257 150 16 0
2.846 0.70700002 -0.25299999 150 16 0
2.8540001 0.69999999 -0.25 150 16 0
2.8559999 0.69199997 -0.24600001 150 16 0
2.865 0.685 -0.243 150 16 0
2.869 0.67699999 -0.23999999 150 16 0
2.8759999 0.67000002 -0.236 150 16 0
2.878 0.662 -0.233 150 16 0
2.881 0.65399998 -0.229 150 16 0
2.8870001 0.64600003 -0.226 150 16 0
2.9000001 0.63999999 -0.223 150 16 0
2.9030001 0.63200003 -0.219 150 16 0
2.9100001 0.625 -0.21600001 150 16 0
2.9170001 0.61699998 -0.213 150 16 0
2.9200001 0.60900003 -0.20900001 150 16 0
2.927 0.60100001 -0.206 150 16 0
2.934 0.59399998 -0.20299999 150 16 0
2.9430001 0.58700001 -0.199 150 16 0
2.9449999 0.57800001 -0.19599999 150 16 0
2.951 0.56999999 -0.193 150 16 0
2.9560001 0.56199998 -0.189 150 16 0
2.9630001 0.55400002 -0.186 150 16 0
2.9690001 0.546 -0.183 150 16 0
2.9719999 0.53799999 -0.17900001 150 16 0
2.98 0.52999997 -0.176 150 16 0
2.9820001 0.52100003 -0.17299999 150 16 0
2.9920001 0.514 -0.17 150 16 0
2.9920001 0.50400001 -0.16599999 150 16 0
3.0020001 0.49700001 -0.163 138 16 0
3.0079999 0.48899999 -0.16 149 16 0
3.0090001 0.47999999 -0.156 149 16 0
3.0179999 0.472 -0.153 139 16 0
3.0209999 0.463 -0.15000001 139 16 0
3.0320001 0.45500001 -0.147 140 16 0
3.036 0.447 -0.14399999 127 16 0
3.0380001 0.43700001 -0.14 128 16 0
3.0480001 0.43000001 -0.13699999 139 16 0
3.0510001 0.421 -0.134 118 16 0
3.059 0.412 -0.131 150 16 0
3.063 0.403 -0.12800001 143 16 0
3.0669999 0.39399999 -0.124 146 16 0
3.076 0.38600001 -0.121 142 16 0
3.0840001 0.37799999 -0.118 136 16 0
3.089 0.36899999 -0.115 135 16 0
3.0969999 0.36000001 -0.112 122 16 0
3.1010001 0.35100001 -0.109 127 16 0
3.1110001 0.34200001 -0.106 126 16 0
3.1170001 0.333 -0.103 107 16 0
3.1199999 0.324 -0.1 111 16 0
3.1240001 0.315 -0.096000001 104 16 0
3.1359999 0.30599999 -0.093999997 113 16 0
3.1389999 0.29699999 -0.090000004 125 16 0
3.148 0.28799999 -0.086999997 109 16 0
3.1589999 0.27900001 -0.083999999 110 16 0
3.1619999 0.27000001 -0.081 108 16 0
3.1689999 0.26100001 -0.078000002 91 16 0
3.174 0.25099999 -0.075000003 107 16 0
3.1830001 0.242 -0.071999997 103 16 0
3.1889999 0.233 -0.068999998 90 16 0
3.1949999 0.223 -0.066 99 16 0
3.2019999 0.214 -0.063000001 89 16 0
3.211 0.205 -0.059999999 91 16 0
3.22 0.19499999 -0.057 108 16 0
3.2279999 0.186 -0.054000001 101 16 0
3.234 0.176 -0.050999999 98 16 0
3.2379999 0.16599999 -0.048 96 16 0
3.243 0.156 -0.045000002 100 16 0
3.25 0.147 -0.041999999 100 16 0
3.2539999 0.13699999 -0.039000001 97 16 0
3.26 0.127 -0.035999998 86 16 0
3.266 0.117 -0.033 98 16 0
3.2780001 0.107 -0.029999999 84 16 0
3.2820001 0.097000003 -0.027000001 94 16 0
3.2869999 0.086999997 -0.024 79 16 0
3.2969999 0.077 -0.022 103 16 0
3.2939999 0.067000002 -0.018999999 80 16 0
3.306 0.057 -0.016000001 46 16 0
3.313 0.046999998 -0.013 86 16 0
3.319 0.035999998 -0.0099999998 74 16 0
3.3269999 0.026000001 -0.0070000002 38 16 0
3.306 0.016000001 -0.0040000002 20 16 0
3.2809999 0.0049999999 -0.001 19 16 0
3.27 -0.0040000002 0.001 18 16 0
3.2479999 -0.014 0.0040000002 36 16 0
3.2509999 -0.024 0.0060000001 150 16 0
3.2590001 -0.035 0.0089999996 150 16 0
3.263 -0.045000002 0.012 150 16 0
3.2650001 -0.055 0.015 150 16 0
3.276 -0.064999998 0.017000001 150 16 0
3.263 -0.075999998 0.02 32 16 0
3.24 -0.085000001 0.023 32 16 0
3.2149999 -0.094999999 0.025 29 16 0
3.204 -0.104 0.027000001 30 16 0
3.1830001 -0.114 0.029999999 29 16 0
3.1619999 -0.123 0.032000002 29 16 0
3.1400001 -0.132 0.034000002 30 16 0
3.1229999 -0.141 0.037 28 16 0
3.1029999 -0.15000001 0.039000001 28 16 0
3.0810001 -0.15800001 0.041000001 31 16 0
3.0610001 -0.167 0.043000001 30 16 0
3.0439999 -0.176 0.045000002 31 16 0
3.027 -0.184 0.046999998 31 16 0
3.0009999 -0.192 0.048999999 31 16 0
2.987 -0.20100001 0.050999999 30 16 0
2.97 -0.20900001 0.052999999 31 16 0
2.948 -0.21699999 0.055 30 16 0
2.931 -0.22499999 0.057 31 16 0
2.915 -0.233 0.059 32 16 0
2.8970001 -0.241 0.059999999 33 16 0
2.8829999 -0.248 0.061999999 32 16 0
2.8670001 -0.25600001 0.064000003 32 16 0
2.8469999 -0.26300001 0.064999998 32 16 0
2.835 -0.271 0.067000002 33 16 0
2.8199999 -0.27900001 0.068999998 34 16 0
2.803 -0.28600001 0.07 33 16 0
2.7869999 -0.29300001 0.071999997 34 16 0
2.7739999 -0.301 0.072999999 34 16 0
2.7539999 -0.308 0.075000003 34 16 0
2.7390001 -0.315 0.075999998 35 16 0
2.7290001 -0.322 0.078000002 34 16 0
2.7179999 -0.33000001 0.079000004 35 16 0
2.7049999 -0.33700001 0.079999998 37 16 0
2.6819999 -0.34200001 0.081 38 16 0
2.674 -0.34999999 0.082999997 38 16 0
2.658 -0.35600001 0.083999999 38 16 0
2.642 -0.36300001 0.085000001 41 16 0
2.625 -0.36899999 0.086000003 40 16 0
2.6140001 -0.37599999 0.088 40 16 0
2.598 -0.382 0.089000002 44 16 0
2.5869999 -0.389 0.090000004 48 16 0
2.5739999 -0.39500001 0.090999998 44 16 0
2.5599999 -0.40099999 0.092 56 16 0
2.539 -0.40599999 0.093000002 52 16 0
2.529 -0.41299999 0.093999997 47 16 0
2.5150001 -0.41800001 0.094999999 63 16 0
2.5020001 -0.42399999 0.096000001 59 16 0
2.4920001 -0.43099999 0.097000003 59 16 0
2.4779999 -0.43599999 0.097999997 62 16 0
2.4660001 -0.442 0.097999997 61 16 0
2.4590001 -0.449 0.098999999 63 16 0
2.447 -0.45500001 0.1 72 16 0
2.4349999 -0.461 0.101 61 16 0
2.4200001 -0.46599999 0.102 66 16 0
2.4070001 -0.47099999 0.102 68 16 0
2.3929999 -0.47600001 0.103 64 16 0
2.3829999 -0.48199999 0.104 68 16 0
2.372 -0.48699999 0.104 76 16 0
2.3529999 -0.491 0.105 67 16 0
2.3440001 -0.49700001 0.106 64 16 0
2.332 -0.50199997 0.106 76 16 0
2.3210001 -0.50800002 0.107 79 16 0
2.3110001 -0.51300001 0.107 76 16 0
2.3 -0.51800001 0.108 83 16 0
2.286 -0.52200001 0.108 73 16 0
2.2739999 -0.52700001 0.109 85 16 0
2.2650001 -0.53299999 0.109 75 16 0
2.2550001 -0.53799999 0.11 81 16 0
2.2420001 -0.542 0.11 79 16 0
2.233 -0.54699999 0.11 89 16 0
2.22 -0.551 0.111 90 16 0
2.214 -0.55699998 0.111 88 16 0
2.2019999 -0.56199998 0.112 91 16 0
2.1900001 -0.56599998 0.112 92 16 0
2.181 -0.57099998 0.112 107 16 0
2.1700001 -0.57499999 0.112 105 16 0
2.1630001 -0.58099997 0.113 117 16 0
2.141 -0.58200002 0.112 119 19 0
2.131 -0.58600003 0.112 124 16 0
2.128 -0.59200001 0.113 118 16 0
2.1159999 -0.59600002 0.113 124 16 0
2.1059999 -0.60000002 0.113 126 16 0
2.0969999 -0.60500002 0.113 144 16 0
2.0840001 -0.60799998 0.113 150 16 0
2.0769999 -0.61299998 0.113 150 16 0
2.0710001 -0.61799997 0.114 146 16 0
2.062 -0.62300003 0.114 150 16 0
2.046 -0.625 0.113 147 16 0
2.0420001 -0.63 0.114 150 16 0
2.03 -0.63300002 0.114 150 16 0
2.017 -0.63599998 0.113 150 16 0
2.01 -0.64099997 0.113 149 16 0
2.006 -0.64600003 0.114 150 16 0
1.999 -0.65100002 0.114 150 16 0
1.99 -0.65499997 0.114 150 16 0
1.979 -0.65799999 0.113 150 16 0
1.964 -0.66000003 0.113 150 16 0
1.964 -0.66600001 0.113 150 16 0
1.952 -0.66900003 0.113 150 16 0
1.931 -0.66799998 0.112 150 16 0
1.929 -0.67400002 0.112 150 16 0
1.925 -0.67900002 0.112 150 16 0
1.916 -0.68199998 0.112 150 16 0
1.91 -0.68699998 0.111 150 16 0
1.901 -0.69 0.111 150 16 0
1.8940001 -0.69400001 0.111 150 16 0
1.886 -0.69700003 0.111 150 16 0
1.878 -0.70099998 0.11 150 16 0
1.865 -0.70300001 0.11 150 16 0
1.8609999 -0.70700002 0.11 150 16 0
1.857 -0.71200001 0.109 3 0 0
1.848 -0.71499997 0.109 3 0 0
1.835 -0.71600002 0.108 150 16 0
1.8329999 -0.722 0.108 2 0 0
1.822 -0.72299999 0.107 150 16 0
1.818 -0.72799999 0.107 2 0 0
1.806 -0.72899997 0.106 150 16 0
1.802 -0.73400003 0.106 150 16 0
1.794 -0.73699999 0.105 150 16 0
1.786 -0.74000001 0.105 3 0 0
1.779 -0.74299997 0.104 150 16 0
1.773 -0.74599999 0.104 150 16 0
1.765 -0.74900001 0.103 150 16 0
1.76 -0.75300002 0.103 150 16 0
1.7539999 -0.75599998 0.102 150 16 0
1.7460001 -0.759 0.101 150 16 0
1.7359999 -0.75999999 0.1 150 16 0
1.732 -0.76499999 0.1 150 16 0
1.726 -0.76700002 0.098999999 150 16 0
1.724 -0.77200001 0.098999999 86 0 0
1.711 -0.77200001 0.097999997 127 0 0
1.702 -0.77399999 0.097000003 95 0 0
1.697 -0.778 0.096000001 80 0 0
1.692 -0.78100002 0.094999999 150 16 0
1.687 -0.78399998 0.094999999 103 0 0
1.6799999 -0.787 0.093999997 121 0 0
1.671 -0.78799999 0.093000002 90 0 0
1.6670001 -0.792 0.092 115 0 0
1.658 -0.79299998 0.090999998 122 0 0
1.656 -0.79799998 0.090000004 84 0 0
1.647 -0.79900002 0.089000002 108 0 0
1.638 -0.80000001 0.088 83 0 0
1.631 -0.80199999 0.086999997 115 0 0
1.626 -0.80500001 0.086000003 76 0 0
1.624 -0.80900002 0.086000003 123 0 0
1.618 -0.81199998 0.085000001 97 0 0
1.613 -0.815 0.083999999 135 0 0
1.605 -0.81599998 0.082000002 95 0 0
1.595 -0.81599998 0.081 109 0 0
1.5930001 -0.81999999 0.079999998 112 0 0
1.582 -0.81900001 0.079000004 93 0 0
1.581 -0.824 0.078000002 123 0 0
1.576 -0.82700002 0.077 110 0 0
1.571 -0.829 0.075999998 96 0 0
1.569 -0.833 0.075000003 118 0 0
1.566 -0.83600003 0.074000001 112 0 0
1.563 -0.83899999 0.072999999 99 0 0
1.551 -0.838 0.071000002 137 0 0
1.545 -0.83899999 0.07 124 0 0
1.539 -0.84100002 0.068999998 129 0 0
1.5369999 -0.84500003 0.068000004 150 0 0
1.53 -0.84600002 0.067000002 134 0 0
1.525 -0.84799999 0.064999998 135 0 0
1.521 -0.85000002 0.064000003 131 0 0
1.516 -0.852 0.063000001 118 0 0
1.511 -0.85399997 0.061999999 150 0 0
1.507 -0.85600001 0.059999999 150 0 0
1.501 -0.85699999 0.059 132 0 0
1.499 -0.861 0.057999998 121 0 0
1.492 -0.861 0.056000002 123 0 0
1.488 -0.86299998 0.055 129 0 0
1.48 -0.86299998 0.054000001 150 0 0
1.4809999 -0.86799997 0.052000001 131 0 0
1.474 -0.86799997 0.050999999 146 0 0
1.472 -0.87099999 0.050000001 150 0 0
1.467 -0.87199998 0.048 141 0 0
1.4630001 -0.87400001 0.046999998 147 0 0
1.454 -0.87300003 0.045000002 120 0 0
1.456 -0.87800002 0.044 150 0 0
1.45 -0.87900001 0.041999999 150 0 0
1.4450001 -0.87900001 0.041000001 150 0 0
1.441 -0.88099998 0.039000001 107 0 0
1.436 -0.88099998 0.037999999 136 0 0
1.434 -0.884 0.035999998 136 0 0
1.428 -0.884 0.035 126 0 0
1.426 -0.88599998 0.033 131 0 0
1.4220001 -0.88700002 0.032000002 114 0 0
1.418 -0.889 0.029999999 150 0 0
1.413 -0.889 0.028999999 109 0 0
1.411 -0.89099997 0.027000001 139 0 0
1.41 -0.89399999 0.025 127 0 0
1.404 -0.89399999 0.024 126 0 0
1.399 -0.89399999 0.022 140 0 0
1.393 -0.89300001 0.02 103 0 0
1.3940001 -0.89700001 0.018999999 138 0 0
1.393 -0.89999998 0.017000001 120 0 0
1.386 -0.898 0.015 150 0 0
1.387 -0.90200001 0.014 134 0 0
1.383 -0.90200001 0.012 113 0 0
1.382 -0.90399998 0.011 133 0 0
1.377 -0.90399998 0.0089999996 124 0 0
1.376 -0.90600002 0.0070000002 150 0 0
1.374 -0.90799999 0.0049999999 125 0 0
1.369 -0.90700001 0.0040000002 142 0 0
1.368 -0.90899998 0.0020000001 130 0 0
1.364 -0.90899998 0 134 0 0
1.3660001 -0.912 0 102 0 0
1.364 -0.91399997 -0.0020000001 150 0 0
1.358 -0.912 -0.0040000002 137 0 0
1.3559999 -0.91299999 -0.0060000001 150 0 0
1.354 -0.91399997 -0.0070000002 150 0 0
1.354 -0.917 -0.0089999996 117 0 0
1.352 -0.917 -0.011 116 0 0
1.345 -0.91399997 -0.013 150 3 0
1.349 -0.91900003 -0.015 133 0 0
1.346 -0.91900003 -0.016000001 141 0 0
1.342 -0.91799998 -0.017999999 121 0 0
1.341 -0.91900003 -0.02 138 0 0
1.341 -0.921 -0.022 146 0 0
1.337 -0.92000002 -0.024 129 0 0
1.336 -0.921 -0.026000001 135 0 0
1.336 -0.92199999 -0.027000001 138 0 0
1.335 -0.92299998 -0.028999999 150 0 0
1.332 -0.92199999 -0.030999999 126 0 0
1.331 -0.92299998 -0.033 119 0 0
1.331 -0.92400002 -0.035 148 0 0
1.327 -0.92199999 -0.037 150 0 0
1.313 -0.91399997 -0.037999999 102 0 0
1.327 -0.92400002 -0.039999999 143 0 0
1.312 -0.91500002 -0.041999999 125 0 0
1.312 -0.91600001 -0.044 113 0 0
1.311 -0.91600001 -0.045000002 137 0 0
1.322 -0.92400002 -0.048 140 1 0
1.311 -0.917 -0.048999999 123 0 0
1.3099999 -0.917 -0.050999999 126 0 0
1.3099999 -0.91799998 -0.052999999 121 0 0
1.308 -0.917 -0.055 90 0 0
1.307 -0.91600001 -0.057 122 0 0
1.308 -0.917 -0.059 115 0 0
1.307 -0.917 -0.059999999 123 0 0
1.307 -0.917 -0.061999999 83 0 0
1.3049999 -0.91600001 -0.064000003 120 0 0
1.3049999 -0.91600001 -0.066 106 0 0
1.306 -0.917 -0.068000004 148 0 0
1.3049999 -0.91500002 -0.07 140 0 0
1.3049999 -0.91500002 -0.071000002 98 0 0
1.3049999 -0.91500002 -0.072999999 123 0 0
1.3049999 -0.91500002 -0.075000003 132 0 0
1.307 -0.91500002 -0.077 135 0 0
1.307 -0.91500002 -0.079000004 133 0 0
1.3049999 -0.91299999 -0.079999998 149 0 0
1.306 -0.91299999 -0.082000002 143 0 0
1.306 -0.912 -0.083999999 104 0 0
1.304 -0.91000003 -0.086000003 133 0 0
1.306 -0.91100001 -0.088 109 0 0
1.306 -0.91000003 -0.089000002 131 0 0
1.3099999 -0.912 -0.090999998 116 0 0
1.309 -0.91000003 -0.093000002 111 0 0
1.308 -0.90799999 -0.094999999 126 0 0
1.3099999 -0.90799999 -0.097000003 150 0 0
1.311 -0.90799999 -0.097999997 115 0 0
1.311 -0.90700001 -0.1 116 0 0
1.312 -0.90600002 -0.102 142 0 0
1.326 -0.91399997 -0.105 150 1 0
1.311 -0.90200001 -0.105 111 3 0
1.324 -0.91000003 -0.108 140 3 0
1.314 -0.90100002 -0.108 135 0 0
1.329 -0.90899998 -0.111 148 0 0
1.329 -0.90700001 -0.113 150 0 0
1.332 -0.90799999 -0.115 150 0 0
1.3329999 -0.90600002 -0.116 144 0 0
1.335 -0.90499997 -0.118 150 0 0
1.336 -0.90399998 -0.12 149 0 0
1.336 -0.90200001 -0.121 150 0 0
1.34 -0.90200001 -0.123 150 0 0
1.339 -0.89899999 -0.124 150 0 0
1.34 -0.89700001 -0.126 150 0 0
1.341 -0.89600003 -0.127 129 0 0
1.346 -0.89700001 -0.12899999 142 0 0
1.35 -0.89700001 -0.131 150 0 0
1.35 -0.89499998 -0.133 150 0 0
1.353 -0.89399999 -0.134 150 0 0
1.352 -0.88999999 -0.13500001 150 0 0
1.357 -0.89099997 -0.13699999 150 0 0
1.3609999 -0.89099997 -0.139 150 0 0
1.36 -0.88700002 -0.14 150 0 0
1.367 -0.889 -0.142 143 0 0
1.367 -0.88599998 -0.14300001 150 0 0
1.369 -0.884 -0.145 150 0 0
1.372 -0.88300002 -0.146 150 0 0
1.374 -0.88099998 -0.148 150 0 0
1.376 -0.87900001 -0.149 150 0 0
1.3789999 -0.87699997 -0.15099999 150 0 0
1.38 -0.875 -0.152 150 0 0
1.382 -0.87300003 -0.153 150 0 0
1.386 -0.87199998 -0.155 150 0 0
1.388 -0.87 -0.156 150 0 0
1.39 -0.86699998 -0.15700001 150 0 0
1.392 -0.86500001 -0.15800001 150 0 0
1.395 -0.86299998 -0.16 150 0 0
1.4 -0.86299998 -0.161 150 0 0
1.399 -0.85799998 -0.162 150 0 0
1.4069999 -0.86000001 -0.164 150 0 0
1.4069999 -0.85600001 -0.16500001 150 0 0
1.411 -0.85399997 -0.16599999 150 0 0
1.419 -0.85500002 -0.168 150 0 0
1.42 -0.852 -0.169 150 0 0
1.4220001 -0.84899998 -0.17 150 0 0
1.428 -0.84899998 -0.171 132 0 0
1.431 -0.84600002 -0.17200001 150 0 0
1.437 -0.84500003 -0.17299999 150 0 0
1.437 -0.84100002 -0.17399999 150 0 0
1.4400001 -0.83899999 -0.175 150 0 0
1.454 -0.84299999 -0.178 150 2 0
1.455 -0.83899999 -0.178 148 0 0
1.4579999 -0.83600003 -0.17900001 143 0 0
1.46 -0.833 -0.18000001 148 0 0
1.467 -0.833 -0.18099999 123 0 0
1.465 -0.82700002 -0.182 150 0 0
1.473 -0.82700002 -0.183 150 0 0
1.478 -0.82499999 -0.184 145 0 0
1.482 -0.82300001 -0.185 145 0 0
1.487 -0.82099998 -0.186 150 0 0
1.492 -0.81900001 -0.18700001 150 0 0
1.4960001 -0.81699997 -0.18799999 144 0 0
1.5 -0.81400001 -0.189 150 0 0
1.508 -0.81400001 -0.19 150 0 0
1.5089999 -0.81 -0.19 140 0 0
1.518 -0.81 -0.192 150 0 0
1.522 -0.80699998 -0.193 145 0 0
1.527 -0.80400002 -0.193 138 0 0
1.5319999 -0.80199999 -0.19400001 144 0 0
1.5369999 -0.80000001 -0.19499999 142 0 0
1.541 -0.79699999 -0.19599999 150 0 0
1.546 -0.79500002 -0.19599999 112 0 0
1.548 -0.79000002 -0.197 136 0 0
1.551 -0.787 -0.197 137 0 0
1.564 -0.78799999 -0.199 128 0 0
1.5650001 -0.78399998 -0.199 120 0 0
1.572 -0.78200001 -0.2 127 0 0
1.577 -0.77899998 -0.2 147 0 0
1.585 -0.778 -0.20100001 150 0 0
1.59 -0.77499998 -0.20200001 144 0 0
1.5930001 -0.77100003 -0.20200001 150 0 0
1.599 -0.76899999 -0.20299999 150 0 0
1.603 -0.76599997 -0.20299999 150 0 0
1.61 -0.76300001 -0.204 150 0 0
1.61 -0.75800002 -0.20299999 149 0 0
1.618 -0.75599998 -0.204 120 0 0
1.63 -0.75700003 -0.205 85 0 0
1.636 -0.75400001 -0.206 150 16 0
1.6440001 -0.75199997 -0.206 150 16 0
1.648 -0.74800003 -0.207 150 16 0
1.652 -0.74400002 -0.207 150 16 0
1.658 -0.74199998 -0.207 150 16 0
1.668 -0.741 -0.208 2 0 0
1.674 -0.73799998 -0.208 2 0 0
1.678 -0.73400003 -0.208 2 0 0
1.6849999 -0.73100001 -0.208 150 16 0
1.691 -0.72799999 -0.20900001 150 16 0
1.6950001 -0.72399998 -0.20900001 150 16 0
1.704 -0.722 -0.20900001 150 16 0
1.71 -0.71899998 -0.20900001 150 16 0
1.7180001 -0.71600002 -0.20999999 150 16 0
1.723 -0.713 -0.20999999 150 16 0
1.7359999 -0.71200001 -0.211 150 16 0
1.74 -0.708 -0.20999999 150 16 0
1.745 -0.704 -0.20999999 150 16 0
1.752 -0.70099998 -0.20999999 150 16 0
1.762 -0.699 -0.211 150 16 0
1.765 -0.69400001 -0.20999999 70 0 0
1.775 -0.69199997 -0.211 150 16 0
1.78 -0.68800002 -0.20999999 52 0 0
1.791 -0.68599999 -0.211 63 0 0
1.798 -0.68300003 -0.211 49 0 0
1.807 -0.68000001 -0.211 2 0 0
1.812 -0.676 -0.20999999 2 0 0
1.8200001 -0.67299998 -0.20999999 1 0 0
1.829 -0.67000002 -0.20999999 1 0 0
1.839 -0.667 -0.211 1 0 0
1.842 -0.662 -0.20999999 150 16 0
1.8559999 -0.66100001 -0.20999999 150 16 0
1.8609999 -0.65700001 -0.20999999 150 16 0
