# .PCD v0.7 - Point Cloud Data file format
VERSION 0.7
FIELDS x y z intensity tag line
SIZE 4 4 4 4 1 1
TYPE F F F F U U
COUNT 1 1 1 1 1 1
WIDTH 1346
HEIGHT 1
VIEWPOINT 0 0 0 1 0 0 0
POINTS 1346
DATA ascii
2.0150001 -0.398 -1.288 101 16 0
2.0209999 -0.396 -1.29 93 16 0
2.0239999 -0.39300001 -1.288 87 16 0
2.0320001 -0.391 -1.291 116 16 0
2.0339999 -0.38800001 -1.289 94 16 0
2.0420001 -0.38600001 -1.291 108 16 0
2.0469999 -0.38299999 -1.291 115 16 0
2.0539999 -0.38100001 -1.2920001 109 16 0
2.0639999 -0.37900001 -1.294 118 16 0
2.066 -0.37599999 -1.293 125 16 0
2.073 -0.373 -1.293 119 16 0
2.0799999 -0.37099999 -1.294 112 16 0
2.082 -0.36700001 -1.291 110 16 0
2.0899999 -0.36500001 -1.293 116 16 0
2.0969999 -0.36300001 -1.293 111 16 0
2.1029999 -0.36000001 -1.293 111 16 0
2.105 -0.35699999 -1.29 111 16 0
2.1140001 -0.354 -1.291 109 16 0
2.118 -0.35100001 -1.289 111 16 0
2.1229999 -0.34799999 -1.288 106 16 0
2.1329999 -0.34599999 -1.289 107 16 0
2.138 -0.34299999 -1.288 111 16 0
2.1440001 -0.34099999 -1.2869999 113 16 0
2.151 -0.338 -1.2869999 117 16 0
2.151 -0.33399999 -1.2819999 100 16 0
2.1630001 -0.333 -1.284 101 16 0
2.168 -0.33000001 -1.2819999 96 16 0
2.177 -0.32699999 -1.2819999 109 16 0
2.184 -0.32499999 -1.2819999 107 16 0
2.1900001 -0.322 -1.279 110 16 0
2.198 -0.31900001 -1.279 93 16 0
2.204 -0.317 -1.277 88 16 0
2.207 -0.31299999 -1.274 66 16 0
2.2149999 -0.31099999 -1.273 81 16 0
2.2219999 -0.308 -1.271 81 16 0
2.227 -0.30500001 -1.2690001 80 16 0
2.2360001 -0.303 -1.268 82 16 0
2.2420001 -0.30000001 -1.266 76 16 0
2.25 -0.29699999 -1.2640001 80 16 0
2.2579999 -0.294 -1.262 77 16 0
2.2650001 -0.292 -1.26 78 16 0
2.2750001 -0.28999999 -1.26 84 16 0
2.283 -0.287 -1.258 84 16 0
2.2869999 -0.28400001 -1.2539999 80 16 0
2.2869999 -0.28 -1.248 81 16 0
2.3010001 -0.278 -1.249 78 16 0
2.306 -0.27500001 -1.2460001 83 16 0
2.312 -0.273 -1.243 79 16 0
2.3180001 -0.27000001 -1.239 78 16 0
2.329 -0.26800001 -1.238 78 16 0
2.335 -0.26499999 -1.235 80 16 0
2.3399999 -0.26199999 -1.2309999 80 16 0
2.3469999 -0.259 -1.228 74 16 0
2.3529999 -0.25600001 -1.224 84 16 0
2.3640001 -0.25400001 -1.223 78 16 0
2.3699999 -0.25099999 -1.219 79 16 0
2.3729999 -0.248 -1.214 79 16 0
2.3900001 -0.24699999 -1.215 74 16 0
2.3929999 -0.243 -1.21 59 16 0
2.401 -0.241 -1.207 61 16 0
2.405 -0.23800001 -1.202 65 16 0
2.4119999 -0.235 -1.198 62 16 0
2.4219999 -0.233 -1.196 79 16 0
2.4319999 -0.23100001 -1.193 80 16 0
2.438 -0.228 -1.188 75 16 0
2.4460001 -0.22499999 -1.1849999 70 16 0
2.4549999 -0.223 -1.181 69 16 0
2.461 -0.22 -1.177 59 16 0
2.4660001 -0.21799999 -1.1720001 56 16 0
2.474 -0.215 -1.168 61 16 0
2.4790001 -0.212 -1.163 53 16 0
2.4849999 -0.20999999 -1.158 57 16 0
2.4909999 -0.207 -1.152 62 16 0
2.497 -0.204 -1.147 56 16 0
2.503 -0.20200001 -1.142 61 16 0
2.513 -0.2 -1.1390001 60 16 0
2.5239999 -0.197 -1.136 61 16 0
2.5320001 -0.19499999 -1.132 53 16 0
2.5380001 -0.192 -1.126 60 16 0
2.5420001 -0.19 -1.12 54 16 0
2.5480001 -0.18700001 -1.114 54 16 0
2.5599999 -0.185 -1.112 61 16 0
2.563 -0.182 -1.105 56 16 0
2.572 -0.18000001 -1.1 57 16 0
2.579 -0.178 -1.095 60 16 0
2.589 -0.176 -1.091 59 16 0
2.5929999 -0.17299999 -1.084 54 16 0
2.599 -0.171 -1.0779999 57 16 0
2.605 -0.168 -1.072 50 16 0
2.615 -0.16599999 -1.068 52 16 0
2.6259999 -0.164 -1.064 62 16 0
2.632 -0.161 -1.058 53 16 0
2.638 -0.15899999 -1.052 56 16 0
2.6500001 -0.15700001 -1.048 56 16 0
2.655 -0.155 -1.041 49 16 0
2.6619999 -0.153 -1.035 49 16 0
2.665 -0.15000001 -1.028 57 16 0
2.6719999 -0.148 -1.022 41 16 0
2.684 -0.146 -1.017 47 16 0
2.6930001 -0.14399999 -1.012 55 16 0
2.6960001 -0.142 -1.0039999 49 16 0
2.701 -0.139 -0.99699998 44 16 0
2.7130001 -0.13699999 -0.99299997 37 16 0
2.7179999 -0.13500001 -0.986 37 16 0
2.727 -0.133 -0.98000002 33 16 0
2.7309999 -0.131 -0.97299999 35 16 0
2.743 -0.12899999 -0.96799999 34 16 0
2.7490001 -0.127 -0.96100003 34 16 0
2.7550001 -0.125 -0.954 33 16 0
2.7639999 -0.123 -0.94800001 34 16 0
2.767 -0.121 -0.94 34 16 0
2.7720001 -0.119 -0.93199998 35 16 0
2.7839999 -0.117 -0.92699999 35 16 0
2.7980001 -0.115 -0.92299998 33 16 0
2.8010001 -0.113 -0.91399997 33 16 0
2.8069999 -0.111 -0.90700001 34 16 0
2.8139999 -0.109 -0.89999998 34 16 0
2.822 -0.107 -0.89300001 34 16 0
2.8269999 -0.105 -0.88499999 32 16 0
2.8329999 -0.104 -0.87800002 32 16 0
2.835 -0.101 -0.86900002 34 16 0
2.846 -0.1 -0.86299998 33 16 0
2.8529999 -0.097999997 -0.85600001 32 16 0
2.8599999 -0.096000001 -0.84799999 34 16 0
2.868 -0.093999997 -0.84100002 33 16 0
2.8800001 -0.093000002 -0.83499998 34 16 0
2.8829999 -0.090999998 -0.82700002 33 16 0
2.8870001 -0.089000002 -0.81800002 36 16 0
2.891 -0.086999997 -0.81 38 16 0
2.9089999 -0.086000003 -0.80500001 46 16 0
2.9130001 -0.083999999 -0.79699999 82 16 0
2.9189999 -0.082000002 -0.78899997 122 16 0
2.927 -0.081 -0.78100002 150 16 0
2.928 -0.079000004 -0.77200001 150 16 0
2.9300001 -0.077 -0.76300001 150 16 0
2.9319999 -0.075999998 -0.75400001 150 16 0
2.9360001 -0.074000001 -0.745 150 16 0
2.9419999 -0.071999997 -0.73699999 150 16 0
2.944 -0.071000002 -0.72799999 150 16 0
2.948 -0.068999998 -0.71899998 150 16 0
2.9489999 -0.067000002 -0.70999998 150 16 0
2.9560001 -0.066 -0.70099998 150 16 0
2.9549999 -0.064000003 -0.69099998 150 16 0
2.961 -0.063000001 -0.68300003 150 16 0
2.9630001 -0.061000001 -0.67400002 150 16 0
2.9630001 -0.059999999 -0.66399997 150 16 0
2.967 -0.057999998 -0.65499997 150 16 0
2.9749999 -0.057 -0.64700001 150 16 0
2.974 -0.055 -0.63800001 150 16 0
2.9820001 -0.054000001 -0.62900001 150 16 0
2.9820001 -0.052000001 -0.62 150 16 0
2.9860001 -0.050999999 -0.611 150 16 0
2.9879999 -0.050000001 -0.60100001 150 16 0
2.993 -0.048 -0.59200001 150 16 0
2.9920001 -0.046999998 -0.58200002 150 16 0
3.0020001 -0.046 -0.574 150 16 0
3.006 -0.044 -0.565 150 16 0
3.0109999 -0.043000001 -0.55699998 150 16 0
3.013 -0.041999999 -0.54699999 150 16 0
3.0150001 -0.041000001 -0.537 150 16 0
3.02 -0.039000001 -0.528 150 16 0
3.0209999 -0.037999999 -0.51899999 150 16 0
3.0239999 -0.037 -0.509 150 16 0
3.03 -0.035999998 -0.50099999 150 16 0
3.0309999 -0.035 -0.491 150 16 0
3.03 -0.034000002 -0.48100001 150 16 0
3.0339999 -0.032000002 -0.47099999 150 16 0
3.0420001 -0.030999999 -0.463 150 16 0
3.0439999 -0.029999999 -0.45300001 150 16 0
3.0469999 -0.028999999 -0.44400001 150 16 0
3.0569999 -0.028000001 -0.435 150 16 0
3.0580001 -0.027000001 -0.42500001 150 16 0
3.0599999 -0.026000001 -0.41600001 150 16 0
3.066 -0.025 -0.40599999 101 16 0
3.066 -0.024 -0.396 76 16 0
3.0739999 -0.023 -0.38699999 60 16 0
3.0769999 -0.022 -0.37799999 47 16 0
3.0810001 -0.022 -0.368 42 16 0
3.086 -0.021 -0.359 36 16 0
3.0910001 -0.02 -0.34900001 34 16 0
3.095 -0.018999999 -0.34 32 16 0
3.099 -0.017999999 -0.33000001 29 16 0
3.109 -0.017000001 -0.32100001 27 16 0
3.112 -0.016000001 -0.31099999 25 16 0
3.122 -0.016000001 -0.30199999 25 16 0
3.1240001 -0.015 -0.292 24 16 0
3.128 -0.014 -0.28200001 23 16 0
3.1340001 -0.013 -0.273 22 16 0
3.141 -0.013 -0.26300001 21 16 0
3.1470001 -0.012 -0.25299999 20 16 0
3.151 -0.011 -0.244 20 16 0
3.158 -0.011 -0.234 20 16 0
3.1659999 -0.0099999998 -0.22400001 19 16 0
3.168 -0.0089999996 -0.214 18 16 0
3.177 -0.0089999996 -0.204 18 16 0
3.1819999 -0.0080000004 -0.19400001 18 16 0
3.1849999 -0.0070000002 -0.184 18 16 0
3.1860001 -0.0070000002 -0.17399999 18 16 0
3.194 -0.0060000001 -0.164 18 16 0
3.197 -0.0060000001 -0.154 18 16 0
3.207 -0.0049999999 -0.14399999 18 16 0
3.2090001 -0.0049999999 -0.134 18 16 0
3.211 -0.0040000002 -0.123 18 16 0
3.223 -0.0040000002 -0.113 18 16 0
3.2249999 -0.003 -0.103 19 16 0
3.233 -0.003 -0.093000002 18 16 0
3.234 -0.0020000001 -0.082000002 18 16 0
3.2349999 -0.0020000001 -0.071999997 19 16 0
3.2449999 -0.0020000001 -0.061999999 18 16 0
3.2490001 -0.001 -0.050999999 19 16 0
3.257 -0.001 -0.041000001 18 16 0
3.2609999 0 -0.029999999 18 16 0
3.2650001 0 -0.02 19 16 0
3.2690001 0 -0.0089999996 19 16 0
3.276 0 0 19 16 0
3.2820001 0 0.011 18 16 0
3.289 0 0.022 19 16 0
3.2939999 0 0.032000002 19 16 0
3.2939999 0.001 0.043000001 19 16 0
3.299 0.001 0.054000001 20 16 0
3.3099999 0.001 0.064999998 19 16 0
3.3110001 0.001 0.075000003 19 16 0
3.3139999 0.001 0.086000003 21 16 0
3.3139999 0.001 0.097000003 32 16 0
3.2920001 0.0020000001 0.107 53 16 0
3.2909999 0.0020000001 0.117 150 16 0
3.293 0.0020000001 0.12800001 150 16 0
3.2969999 0.0020000001 0.139 150 16 0
3.3050001 0.0020000001 0.15000001 150 16 0
3.3010001 0.0020000001 0.161 150 16 0
3.3110001 0.0020000001 0.17200001 150 16 0
3.313 0.0020000001 0.183 150 16 0
3.323 0.0020000001 0.19400001 150 16 0
3.3299999 0.0020000001 0.205 150 16 0
3.332 0.0020000001 0.21600001 150 16 0
3.3340001 0.0020000001 0.227 150 16 0
3.3410001 0.001 0.23899999 150 16 0
3.3410001 0.001 0.25 150 16 0
3.3440001 0.001 0.26100001 150 16 0
3.3559999 0.001 0.273 150 16 0
3.362 0.001 0.28400001 150 16 0
3.3659999 0.001 0.29499999 150 16 0
3.369 0 0.30599999 150 16 0
3.3770001 0 0.31799999 150 16 0
3.3789999 0 0.329 150 16 0
3.375 0 0.34 150 16 0
3.3659999 0 0.34999999 46 16 0
3.349 0 0.359 40 16 0
3.323 0 0.36700001 43 16 0
3.306 -0.001 0.37599999 43 16 0
3.2839999 -0.001 0.384 42 16 0
3.273 -0.001 0.39399999 42 16 0
3.25 -0.0020000001 0.40099999 43 16 0
3.2290001 -0.0020000001 0.40900001 43 16 0
3.2079999 -0.003 0.417 43 16 0
3.1949999 -0.003 0.426 45 16 0
3.175 -0.0040000002 0.43399999 46 16 0
3.158 -0.0040000002 0.442 44 16 0
3.1440001 -0.0049999999 0.44999999 42 16 0
3.1199999 -0.0049999999 0.45699999 42 16 0
3.092 -0.0060000001 0.463 41 16 0
3.0840001 -0.0060000001 0.472 42 16 0
3.0650001 -0.0070000002 0.479 40 16 0
3.053 -0.0070000002 0.48699999 40 16 0
3.0350001 -0.0080000004 0.49399999 42 16 0
3.0209999 -0.0080000004 0.50199997 41 16 0
2.9990001 -0.0089999996 0.50800002 40 16 0
2.987 -0.0099999998 0.51599997 40 16 0
2.97 -0.0099999998 0.52200001 41 16 0
2.9560001 -0.011 0.52999997 40 16 0
2.9419999 -0.012 0.537 42 16 0
2.9260001 -0.012 0.54400003 43 16 0
2.9100001 -0.013 0.55000001 41 16 0
2.892 -0.014 0.55699998 45 16 0
2.8729999 -0.014 0.56199998 44 16 0
2.865 -0.015 0.56999999 62 16 0
2.8529999 -0.016000001 0.57700002 46 16 0
2.8380001 -0.017000001 0.583 43 16 0
2.8239999 -0.017000001 0.58999997 42 16 0
2.8110001 -0.017999999 0.59600002 48 16 0
2.7939999 -0.018999999 0.602 49 16 0
2.7820001 -0.02 0.60900003 45 16 0
2.7679999 -0.021 0.61500001 53 16 0
2.753 -0.021 0.62099999 56 16 0
2.7420001 -0.022 0.62699997 51 16 0
2.7279999 -0.023 0.63300002 54 16 0
2.717 -0.024 0.639 58 16 0
2.698 -0.025 0.64399999 81 16 0
2.688 -0.026000001 0.64999998 85 16 0
2.677 -0.027000001 0.65700001 97 16 0
2.665 -0.028000001 0.66299999 91 16 0
2.654 -0.028999999 0.66900003 88 16 0
2.6389999 -0.029999999 0.67400002 84 16 0
2.631 -0.030999999 0.68000001 100 16 0
2.625 -0.032000002 0.68699998 94 16 0
2.605 -0.032000002 0.69099998 97 16 0
2.5880001 -0.033 0.69499999 115 16 0
2.5739999 -0.034000002 0.69999999 97 16 0
2.563 -0.035 0.70499998 117 16 0
2.5510001 -0.035999998 0.71100003 118 16 0
2.54 -0.037 0.71600002 113 16 0
2.523 -0.037999999 0.71899998 105 16 0
2.517 -0.039999999 0.72600001 110 16 0
2.506 -0.041000001 0.73100001 118 16 0
2.49 -0.041999999 0.73500001 106 16 0
2.483 -0.043000001 0.741 121 16 0
2.47 -0.044 0.74599999 123 16 0
2.4579999 -0.045000002 0.75 124 16 0
2.444 -0.046 0.75400001 124 16 0
2.4360001 -0.046999998 0.75999999 121 16 0
2.425 -0.048999999 0.764 119 16 0
2.418 -0.050000001 0.76999998 131 16 0
2.4059999 -0.050999999 0.77499998 120 16 0
2.3970001 -0.052000001 0.77999997 138 16 0
2.391 -0.054000001 0.78600001 132 16 0
2.3800001 -0.055 0.79000002 129 16 0
2.3740001 -0.056000002 0.796 150 16 0
2.362 -0.057 0.80000001 150 16 0
2.3469999 -0.059 0.80299997 146 16 0
2.342 -0.059999999 0.80900002 150 16 0
2.335 -0.061000001 0.81400001 150 16 0
2.3239999 -0.063000001 0.81800002 150 16 0
2.3080001 -0.064000003 0.81999999 150 16 0
2.2969999 -0.064999998 0.824 150 16 0
2.289 -0.066 0.829 150 16 0
2.2850001 -0.068000004 0.83499998 150 16 0
2.2709999 -0.068999998 0.83700001 150 16 0
2.263 -0.071000002 0.84200001 150 16 0
2.253 -0.071999997 0.84500003 150 16 0
2.243 -0.072999999 0.84899998 150 16 0
2.2379999 -0.075000003 0.85399997 150 16 0
2.2290001 -0.075999998 0.85900003 150 16 0
2.2190001 -0.078000002 0.86199999 150 16 0
2.2119999 -0.079000004 0.86699998 150 16 0
2.1989999 -0.081 0.86900002 150 16 0
2.1900001 -0.082000002 0.87300003 150 16 0
2.1819999 -0.083999999 0.87699997 150 16 0
2.1700001 -0.085000001 0.87900001 150 16 0
2.1630001 -0.086999997 0.88300002 150 16 0
2.158 -0.088 0.88800001 150 16 0
2.1470001 -0.090000004 0.89099997 150 16 0
2.1370001 -0.090999998 0.89399999 150 16 0
2.132 -0.093000002 0.89899999 150 16 0
2.1240001 -0.093999997 0.90200001 150 16 0
2.1170001 -0.096000001 0.90600002 150 16 0
2.108 -0.097999997 0.90899998 150 16 0
2.1010001 -0.098999999 0.91299999 150 16 0
2.0910001 -0.101 0.91600001 150 16 0
2.086 -0.103 0.92000002 150 16 0
2.0769999 -0.104 0.92299998 150 16 0
2.0710001 -0.106 0.92699999 150 16 0
2.0639999 -0.108 0.93000001 150 16 0
2.0569999 -0.11 0.93400002 150 16 0
2.046 -0.111 0.93599999 150 16 0
2.0409999 -0.113 0.94 150 16 0
2.0320001 -0.115 0.94300002 150 16 0
2.023 -0.116 0.94400001 150 16 0
2.0179999 -0.118 0.949 150 16 0
2.0079999 -0.12 0.94999999 150 16 0
2.0050001 -0.122 0.95499998 150 16 0
2.0020001 -0.124 0.95999998 150 16 0
1.985 -0.125 0.958 150 16 0
1.979 -0.127 0.96200001 150 16 0
1.972 -0.12899999 0.96499997 150 16 0
1.966 -0.131 0.96799999 150 16 0
1.96 -0.133 0.97100002 150 16 0
1.947 -0.134 0.97000003 150 16 0
1.944 -0.13600001 0.97500002 150 16 0
1.937 -0.138 0.977 150 16 0
1.9349999 -0.14 0.98199999 150 16 0
1.928 -0.142 0.98400003 150 16 0
1.916 -0.14399999 0.98500001 150 16 0
1.9119999 -0.146 0.98799998 150 16 0
1.908 -0.148 0.99199998 150 16 0
1.903 -0.15000001 0.995 150 16 0
1.896 -0.152 0.99699998 150 16 0
1.892 -0.154 1 150 16 0
1.8839999 -0.156 1.002 150 16 0
1.881 -0.15800001 1.006 150 16 0
1.868 -0.15899999 1.0039999 150 16 0
1.865 -0.162 1.008 150 16 0
1.8609999 -0.164 1.011 150 16 0
1.853 -0.16599999 1.012 150 16 0
1.847 -0.168 1.0140001 150 16 0
1.842 -0.17 1.017 150 16 0
1.836 -0.17200001 1.018 150 16 0
1.8329999 -0.17399999 1.022 150 16 0
1.8279999 -0.177 1.024 150 16 0
1.823 -0.17900001 1.027 150 16 0
1.818 -0.18099999 1.028 150 16 0
1.814 -0.183 1.031 150 16 0
1.8099999 -0.185 1.034 150 16 0
1.804 -0.18700001 1.035 150 16 0
1.796 -0.189 1.035 150 16 0
1.791 -0.191 1.0369999 150 16 0
1.786 -0.19400001 1.039 150 16 0
1.784 -0.19599999 1.0420001 150 16 0
1.779 -0.198 1.044 150 16 0
1.777 -0.20100001 1.0470001 150 16 0
1.7589999 -0.20100001 1.041 150 18 0
1.756 -0.204 1.044 150 16 0
1.753 -0.206 1.046 150 16 0
1.751 -0.20900001 1.049 150 16 0
1.7460001 -0.211 1.05 150 16 0
1.744 -0.213 1.053 150 16 0
1.739 -0.21600001 1.054 150 16 0
1.737 -0.21799999 1.056 150 16 0
1.735 -0.221 1.0599999 150 16 0
1.7309999 -0.223 1.061 150 16 0
1.729 -0.22499999 1.063 150 16 0
1.727 -0.228 1.066 150 16 0
1.723 -0.23 1.067 150 16 0
1.719 -0.233 1.068 150 16 0
1.719 -0.235 1.072 150 16 0
1.715 -0.23800001 1.072 150 16 0
1.709 -0.23999999 1.072 150 16 0
1.7079999 -0.242 1.075 150 16 0
1.706 -0.245 1.077 145 16 0
1.705 -0.248 1.079 150 16 0
1.702 -0.25 1.08 150 16 0
1.693 -0.252 1.0779999 150 16 0
1.689 -0.25400001 1.0779999 150 16 0
1.688 -0.25600001 1.08 150 16 0
1.686 -0.259 1.082 150 16 0
1.678 -0.26100001 1.08 150 16 0
1.682 -0.264 1.084 150 16 0
1.678 -0.266 1.085 150 16 0
1.674 -0.26800001 1.084 150 16 0
1.671 -0.271 1.085 150 16 0
1.67 -0.273 1.087 150 16 0
1.669 -0.27599999 1.0880001 150 16 0
1.6670001 -0.27900001 1.09 150 16 0
1.664 -0.28099999 1.089 150 16 0
1.6619999 -0.28299999 1.09 150 16 0
1.661 -0.28600001 1.092 150 16 0
1.658 -0.28799999 1.092 150 16 0
1.656 -0.28999999 1.092 150 16 0
1.656 -0.29300001 1.094 150 16 0
1.655 -0.296 1.095 150 16 0
1.653 -0.29800001 1.095 150 16 0
1.651 -0.30000001 1.095 150 16 0
1.651 -0.303 1.096 150 16 0
1.65 -0.30599999 1.097 150 16 0
1.648 -0.308 1.097 150 16 0
1.648 -0.31099999 1.098 150 16 0
1.648 -0.31299999 1.099 150 16 0
1.645 -0.315 1.098 150 16 0
1.641 -0.317 1.096 150 16 0
1.64 -0.31999999 1.096 150 16 0
1.645 -0.32300001 1.1 150 19 0
1.6440001 -0.32600001 1.1 150 16 0
1.6440001 -0.32800001 1.1 150 16 0
1.647 -0.331 1.103 150 16 0
1.643 -0.333 1.101 150 16 0
1.646 -0.336 1.103 150 16 0
1.651 -0.34 1.1059999 150 16 0
1.65 -0.34200001 1.1059999 150 16 0
1.651 -0.345 1.107 150 16 0
1.655 -0.34799999 1.109 139 16 0
1.654 -0.34999999 1.108 106 16 0
1.652 -0.352 1.107 100 16 0
1.6569999 -0.35499999 1.109 92 16 0
1.654 -0.35699999 1.107 83 16 0
1.665 -0.36199999 1.114 82 18 0
1.668 -0.36500001 1.115 77 16 0
1.669 -0.36700001 1.1160001 76 16 0
1.67 -0.37 1.115 74 16 0
1.6720001 -0.37200001 1.1160001 71 16 0
1.6720001 -0.37400001 1.115 69 16 0
1.6720001 -0.377 1.114 73 16 0
1.677 -0.38 1.1160001 76 16 0
1.677 -0.382 1.114 73 16 0
1.679 -0.384 1.115 75 16 0
1.675 -0.38499999 1.11 78 16 0
1.678 -0.38800001 1.1109999 79 16 0
1.678 -0.38999999 1.11 82 16 0
1.678 -0.39199999 1.108 86 16 0
1.678 -0.39399999 1.1059999 95 16 0
1.6799999 -0.396 1.105 99 16 0
1.681 -0.398 1.104 112 16 0
1.682 -0.40000001 1.103 118 16 0
1.6799999 -0.40099999 1.099 142 16 0
1.671 -0.40099999 1.091 144 18 0
1.6720001 -0.403 1.09 150 16 0
1.676 -0.405 1.09 150 16 0
1.679 -0.40799999 1.089 150 16 0
1.679 -0.40900001 1.0880001 150 16 0
1.682 -0.41100001 1.087 150 16 0
1.684 -0.41299999 1.085 150 16 0
1.6849999 -0.41499999 1.0829999 150 16 0
1.687 -0.417 1.082 150 16 0
1.687 -0.41800001 1.079 150 16 0
1.6900001 -0.41999999 1.0779999 150 16 0
1.692 -0.42199999 1.076 150 16 0
1.694 -0.42399999 1.074 150 16 0
1.6950001 -0.42500001 1.072 150 16 0
1.701 -0.428 1.073 150 16 0
1.7029999 -0.42899999 1.0700001 150 16 0
1.7029999 -0.43000001 1.067 150 16 0
1.7180001 -0.435 1.073 150 18 0
1.724 -0.43799999 1.073 150 16 0
1.726 -0.43900001 1.071 150 16 0
1.732 -0.442 1.0700001 150 16 0
1.733 -0.44299999 1.068 150 16 0
1.733 -0.44299999 1.064 150 16 0
1.74 -0.44600001 1.064 150 16 0
1.747 -0.449 1.064 150 16 0
1.749 -0.44999999 1.061 150 16 0
1.75 -0.45100001 1.058 150 16 0
1.7589999 -0.45300001 1.059 150 16 0
1.7589999 -0.454 1.0549999 150 16 0
1.768 -0.45699999 1.056 150 16 0
1.77 -0.458 1.053 150 16 0
1.771 -0.45899999 1.049 150 16 0
1.777 -0.461 1.048 150 16 0
1.779 -0.461 1.045 150 16 0
1.786 -0.463 1.044 150 16 0
1.79 -0.465 1.0420001 150 16 0
1.7970001 -0.46700001 1.0420001 150 16 0
1.804 -0.46900001 1.041 150 16 0
1.8150001 -0.472 1.0420001 127 16 0
1.819 -0.47299999 1.039 126 16 0
1.818 -0.472 1.034 150 16 0
1.825 -0.47400001 1.033 150 16 0
1.8279999 -0.47499999 1.03 150 16 0
1.837 -0.477 1.029 150 16 0
1.8380001 -0.477 1.025 150 16 0
1.845 -0.479 1.023 150 16 0
1.85 -0.47999999 1.021 150 16 0
1.853 -0.47999999 1.018 150 16 0
1.8609999 -0.48199999 1.016 150 16 0
1.868 -0.48300001 1.015 150 16 0
1.873 -0.484 1.012 150 16 0
1.88 -0.486 1.01 150 16 0
1.882 -0.486 1.006 150 16 0
1.8890001 -0.48699999 1.0039999 150 16 0
1.899 -0.48899999 1.003 150 16 0
1.904 -0.49000001 1 150 16 0
1.911 -0.491 0.99800003 150 16 0
1.915 -0.491 0.995 150 16 0
1.918 -0.491 0.99000001 150 16 0
1.924 -0.491 0.98699999 150 16 0
1.939 -0.49399999 0.98900002 150 16 0
1.9400001 -0.49399999 0.98400003 150 16 0
1.948 -0.495 0.98199999 150 16 0
1.959 -0.49599999 0.98100001 150 16 0
1.962 -0.49599999 0.977 150 16 0
1.972 -0.498 0.97500002 150 16 0
1.978 -0.498 0.972 150 16 0
1.983 -0.498 0.96799999 150 16 0
1.9910001 -0.49900001 0.96600002 150 16 0
1.9960001 -0.49900001 0.96200001 150 16 0
2.0020001 -0.49900001 0.95899999 150 16 0
2.0090001 -0.49900001 0.95599997 150 16 0
2.02 -0.50099999 0.95499998 150 16 0
2.0250001 -0.5 0.95099998 150 16 0
2.03 -0.5 0.94700003 150 16 0
2.0409999 -0.50099999 0.94499999 150 16 0
2.0439999 -0.50099999 0.94 150 16 0
2.052 -0.50099999 0.93699998 150 16 0
2.059 -0.50099999 0.93400002 148 16 0
2.0739999 -0.50300002 0.93400002 103 16 0
2.076 -0.50199997 0.92799997 108 16 0
2.085 -0.50199997 0.926 115 16 0
2.092 -0.50199997 0.92199999 112 16 0
2.096 -0.50099999 0.917 115 16 0
2.1110001 -0.50300002 0.917 113 16 0
2.118 -0.50199997 0.91299999 107 16 0
2.131 -0.50300002 0.912 110 16 0
2.1340001 -0.50199997 0.90600002 105 16 0
2.142 -0.50199997 0.903 117 16 0
2.1489999 -0.50099999 0.89899999 104 16 0
2.1559999 -0.50099999 0.89499998 104 16 0
2.164 -0.50099999 0.89099997 105 16 0
2.174 -0.50099999 0.88800001 90 16 0
2.1849999 -0.50099999 0.88599998 93 16 0
2.191 -0.5 0.88099998 116 16 0
2.2019999 -0.5 0.87900001 108 16 0
2.2130001 -0.5 0.87599999 112 16 0
2.2190001 -0.49900001 0.87099999 100 16 0
2.2279999 -0.49900001 0.86699998 109 16 0
2.2379999 -0.498 0.86400002 104 16 0
2.244 -0.49700001 0.86000001 100 16 0
2.256 -0.49700001 0.85699999 99 16 0
2.2639999 -0.49599999 0.852 96 16 0
2.2739999 -0.49599999 0.84899998 109 16 0
2.283 -0.495 0.84500003 100 16 0
2.29 -0.49399999 0.84100002 110 16 0
2.3010001 -0.49399999 0.83700001 101 16 0
2.309 -0.49200001 0.833 96 16 0
2.313 -0.491 0.82700002 97 16 0
2.3239999 -0.49000001 0.82300001 98 16 0
2.336 -0.48899999 0.81999999 96 16 0
2.3410001 -0.48800001 0.815 94 16 0
2.348 -0.486 0.80900002 99 16 0
2.3629999 -0.486 0.80699998 89 16 0
2.3699999 -0.484 0.80199999 101 16 0
2.3789999 -0.48300001 0.79799998 90 16 0
2.3900001 -0.48199999 0.79400003 82 16 0
2.398 -0.48100001 0.78899997 86 16 0
2.4070001 -0.479 0.78399998 86 16 0
2.4159999 -0.47799999 0.77999997 91 16 0
2.427 -0.47600001 0.77600002 53 16 0
2.4419999 -0.47600001 0.773 67 16 0
2.448 -0.47400001 0.76700002 54 16 0
2.461 -0.47299999 0.764 56 16 0
2.4679999 -0.47099999 0.75800002 38 16 0
2.4749999 -0.46900001 0.75300002 32 16 0
2.49 -0.46799999 0.75 34 16 0
2.4990001 -0.46599999 0.745 35 16 0
2.513 -0.465 0.741 36 16 0
2.52 -0.463 0.73500001 34 16 0
2.5309999 -0.461 0.73100001 34 16 0
2.54 -0.45899999 0.72600001 35 16 0
2.556 -0.458 0.722 35 16 0
2.5680001 -0.456 0.71799999 41 16 0
2.5739999 -0.454 0.71100003 33 16 0
2.5869999 -0.45199999 0.70700002 34 16 0
2.598 -0.44999999 0.70200002 34 16 0
2.612 -0.449 0.69800001 34 16 0
2.618 -0.44600001 0.69199997 34 16 0
2.628 -0.44299999 0.68699998 34 16 0
2.6340001 -0.44 0.68000001 33 16 0
2.6459999 -0.43799999 0.67500001 34 16 0
2.658 -0.43599999 0.67000002 35 16 0
2.6689999 -0.43399999 0.66500002 35 16 0
2.6800001 -0.43099999 0.66000003 36 16 0
2.6960001 -0.43000001 0.65600002 39 16 0
2.704 -0.42699999 0.64999998 54 16 0
2.7149999 -0.42399999 0.64399999 59 16 0
2.724 -0.421 0.63800001 47 16 0
2.7309999 -0.41800001 0.63200003 36 16 0
2.734 -0.414 0.625 30 16 0
2.743 -0.41100001 0.61799997 28 16 0
2.7509999 -0.40799999 0.61199999 26 16 0
2.757 -0.40400001 0.60500002 26 16 0
2.7590001 -0.40000001 0.59799999 26 16 0
2.7639999 -0.396 0.59100002 25 16 0
2.77 -0.39300001 0.58399999 25 16 0
2.7739999 -0.389 0.57700002 26 16 0
2.7820001 -0.38499999 0.56999999 25 16 0
2.7869999 -0.38100001 0.56300002 25 16 0
2.7939999 -0.377 0.55599999 26 16 0
2.799 -0.373 0.54900002 25 16 0
2.8050001 -0.36899999 0.54299998 26 16 0
2.813 -0.366 0.53600001 26 16 0
2.816 -0.361 0.528 26 16 0
2.8280001 -0.35800001 0.523 26 16 0
2.8280001 -0.35299999 0.51499999 26 16 0
2.8329999 -0.34900001 0.50700003 26 16 0
2.8410001 -0.345 0.50099999 27 16 0
2.855 -0.34200001 0.495 27 16 0
2.852 -0.33700001 0.486 24 16 0
2.8640001 -0.333 0.47999999 25 16 0
2.8699999 -0.329 0.47299999 24 16 0
2.8729999 -0.32499999 0.465 24 16 0
2.881 -0.31999999 0.45899999 25 16 0
2.8929999 -0.317 0.45300001 25 16 0
2.902 -0.31299999 0.44600001 24 16 0
2.9070001 -0.308 0.43799999 23 16 0
2.9119999 -0.30399999 0.43099999 24 16 0
2.9200001 -0.29899999 0.42399999 23 16 0
2.925 -0.29499999 0.417 24 16 0
2.9289999 -0.28999999 0.40900001 24 16 0
2.9400001 -0.28600001 0.40200001 24 16 0
2.947 -0.28099999 0.39500001 24 16 0
2.9549999 -0.27700001 0.38800001 24 16 0
2.961 -0.27200001 0.38100001 24 16 0
2.9690001 -0.26699999 0.37400001 24 16 0
2.9760001 -0.26300001 0.366 24 16 0
2.9790001 -0.25799999 0.359 23 16 0
2.987 -0.25299999 0.35100001 24 16 0
3.0050001 -0.249 0.345 24 16 0
3.01 -0.244 0.338 22 16 0
3.0179999 -0.23899999 0.33000001 21 16 0
3.027 -0.234 0.32300001 22 16 0
3.0320001 -0.229 0.315 21 16 0
3.0469999 -0.22499999 0.30899999 21 16 0
3.0550001 -0.22 0.301 22 16 0
3.062 -0.215 0.294 21 16 0
3.0699999 -0.20900001 0.28600001 21 16 0
3.0769999 -0.204 0.27900001 21 16 0
3.0829999 -0.199 0.271 21 16 0
3.1010001 -0.19400001 0.264 21 16 0
3.1070001 -0.189 0.25600001 21 16 0
3.1159999 -0.184 0.249 22 16 0
3.1210001 -0.178 0.241 23 16 0
3.1300001 -0.17299999 0.233 22 16 0
3.1400001 -0.167 0.22499999 21 16 0
3.152 -0.162 0.21799999 22 16 0
3.165 -0.15700001 0.20999999 22 16 0
3.1689999 -0.15099999 0.20200001 23 16 0
3.1830001 -0.146 0.19499999 22 16 0
3.1900001 -0.14 0.18700001 23 16 0
3.2019999 -0.134 0.17900001 23 16 0
3.2090001 -0.12899999 0.171 23 16 0
3.2219999 -0.123 0.163 23 16 0
3.23 -0.117 0.155 22 16 0
3.2379999 -0.111 0.147 24 16 0
3.2509999 -0.105 0.139 24 16 0
3.2539999 -0.098999999 0.131 23 16 0
3.27 -0.093000002 0.123 23 16 0
3.277 -0.086999997 0.115 23 16 0
3.29 -0.081 0.107 24 16 0
3.303 -0.075000003 0.097999997 26 16 0
3.312 -0.068999998 0.090000004 47 16 0
3.3039999 -0.061999999 0.081 106 16 0
3.2969999 -0.056000002 0.071999997 75 16 0
3.2909999 -0.048999999 0.064000003 74 16 0
3.283 -0.043000001 0.055 74 16 0
3.273 -0.035999998 0.046999998 81 16 0
3.2709999 -0.029999999 0.037999999 88 16 0
3.256 -0.023 0.029999999 51 16 0
3.2539999 -0.017000001 0.021 27 16 0
3.2639999 -0.0099999998 0.013 16 16 0
3.2739999 -0.0040000002 0.0049999999 15 16 0
3.2850001 0.0020000001 -0.003 16 16 0
3.299 0.0089999996 -0.011 16 16 0
3.3039999 0.015 -0.018999999 17 16 0
3.323 0.022 -0.028000001 27 16 0
3.312 0.028000001 -0.035999998 40 16 0
3.3050001 0.035 -0.045000002 45 16 0
3.2939999 0.041999999 -0.052999999 45 16 0
3.286 0.048 -0.061000001 36 16 0
3.279 0.055 -0.068999998 33 16 0
3.276 0.061000001 -0.077 41 16 0
3.2739999 0.068000004 -0.086000003 47 16 0
3.2620001 0.074000001 -0.093000002 48 16 0
3.257 0.081 -0.102 47 16 0
3.25 0.086999997 -0.109 48 16 0
3.243 0.093999997 -0.117 49 16 0
3.2379999 0.101 -0.125 47 16 0
3.233 0.107 -0.133 48 16 0
3.221 0.113 -0.141 50 16 0
3.2149999 0.12 -0.148 47 16 0
3.2149999 0.126 -0.156 50 16 0
3.2019999 0.133 -0.164 48 16 0
3.194 0.139 -0.171 48 16 0
3.1930001 0.146 -0.17900001 49 16 0
3.1789999 0.152 -0.186 46 16 0
3.178 0.15800001 -0.19400001 46 16 0
3.1670001 0.164 -0.20100001 46 16 0
3.1589999 0.171 -0.20900001 41 16 0
3.1489999 0.177 -0.21600001 43 16 0
3.148 0.184 -0.223 49 16 0
3.1429999 0.19 -0.23100001 62 16 0
3.1329999 0.19599999 -0.23800001 63 16 0
3.1240001 0.20200001 -0.245 67 16 0
3.1170001 0.208 -0.252 69 16 0
3.112 0.215 -0.259 69 16 0
3.1070001 0.221 -0.266 73 16 0
3.0940001 0.227 -0.273 58 16 0
3.0929999 0.233 -0.28 77 16 0
3.089 0.23999999 -0.287 80 16 0
3.082 0.24600001 -0.294 77 16 0
3.069 0.252 -0.30000001 76 16 0
3.0610001 0.25799999 -0.30700001 85 16 0
3.059 0.264 -0.31400001 83 16 0
3.0580001 0.271 -0.32100001 79 16 0
3.05 0.27700001 -0.32800001 85 16 0
3.036 0.28299999 -0.33399999 79 16 0
3.039 0.289 -0.34099999 86 16 0
3.029 0.29499999 -0.34799999 80 16 0
3.02 0.301 -0.354 73 16 0
3.016 0.308 -0.361 70 16 0
3.0139999 0.31400001 -0.368 74 16 0
3.006 0.31999999 -0.37400001 85 16 0
3.0009999 0.32600001 -0.38 75 16 0
2.993 0.33199999 -0.38699999 82 16 0
2.9849999 0.338 -0.39300001 76 16 0
2.9779999 0.34400001 -0.39899999 86 16 0
2.9760001 0.35100001 -0.40599999 92 16 0
2.9679999 0.35600001 -0.412 85 16 0
2.961 0.36199999 -0.41800001 88 16 0
2.9579999 0.36899999 -0.42399999 84 16 0
2.9489999 0.375 -0.43000001 91 16 0
2.944 0.38100001 -0.43599999 118 16 0
2.944 0.38800001 -0.44299999 95 16 0
2.931 0.39300001 -0.44800001 101 16 0
2.9200001 0.398 -0.45300001 101 16 0
2.9119999 0.40400001 -0.45899999 109 16 0
2.908 0.41 -0.465 90 16 0
2.902 0.41600001 -0.47099999 86 16 0
2.9000001 0.42199999 -0.47799999 100 16 0
2.8959999 0.42899999 -0.484 102 16 0
2.8900001 0.435 -0.48899999 103 16 0
2.8829999 0.44 -0.495 100 16 0
2.8800001 0.447 -0.50099999 105 16 0
2.869 0.45199999 -0.50599998 106 16 0
2.865 0.458 -0.51200002 128 16 0
2.859 0.46399999 -0.51700002 134 16 0
2.852 0.47 -0.52200001 116 16 0
2.8440001 0.47499999 -0.528 128 16 0
2.8399999 0.48199999 -0.53299999 121 16 0
2.836 0.48800001 -0.53899997 136 16 0
2.832 0.49399999 -0.54500002 139 16 0
2.823 0.5 -0.55000001 145 16 0
2.819 0.50599998 -0.55500001 146 16 0
2.8139999 0.51200002 -0.56099999 150 16 0
2.809 0.51800001 -0.56599998 150 16 0
2.806 0.52399999 -0.57200003 145 16 0
2.7980001 0.52999997 -0.57700002 137 16 0
2.786 0.53399998 -0.57999998 141 16 0
2.7909999 0.542 -0.588 150 16 0
2.779 0.54699999 -0.59100002 147 16 0
2.77 0.55199999 -0.59600002 148 16 0
2.766 0.55800003 -0.60100001 143 16 0
2.7639999 0.565 -0.60699999 145 16 0
2.7609999 0.57099998 -0.61199999 150 16 0
2.7520001 0.57599998 -0.616 150 16 0
2.7479999 0.583 -0.62199998 142 16 0
2.7409999 0.588 -0.62599999 150 16 0
2.7320001 0.59299999 -0.63 150 16 0
2.73 0.60000002 -0.63599998 150 16 0
2.7320001 0.60699999 -0.64200002 150 16 0
2.724 0.61299998 -0.64600003 150 16 0
2.7149999 0.61799997 -0.64999998 150 16 0
2.71 0.62300003 -0.65499997 150 16 0
2.707 0.63 -0.66000003 150 16 0
2.698 0.63499999 -0.66399997 150 16 0
2.6960001 0.64099997 -0.66900003 150 16 0
2.6930001 0.648 -0.67400002 150 16 0
2.687 0.653 -0.67799997 150 16 0
2.677 0.65799999 -0.68099999 150 16 0
2.674 0.66399997 -0.68599999 150 16 0
2.6670001 0.67000002 -0.69 150 16 0
2.6659999 0.67699999 -0.69599998 150 16 0
2.661 0.68300003 -0.69999999 150 16 0
2.658 0.68900001 -0.70499998 150 16 0
2.6470001 0.69300002 -0.70700002 150 16 0
2.6429999 0.699 -0.71200001 150 16 0
2.6400001 0.70599997 -0.71600002 150 16 0
2.6370001 0.71200001 -0.72100002 150 16 0
2.6289999 0.71700001 -0.72399998 150 16 0
2.6289999 0.72399998 -0.73000002 150 16 0
2.6199999 0.72899997 -0.73199999 150 16 0
2.6140001 0.73400003 -0.736 150 16 0
2.6110001 0.741 -0.741 150 16 0
2.608 0.74699998 -0.745 150 16 0
2.6040001 0.75300002 -0.74900001 150 16 0
2.6010001 0.759 -0.75300002 150 16 0
2.598 0.76599997 -0.75800002 150 16 0
2.589 0.76999998 -0.75999999 150 16 0
2.5780001 0.77399999 -0.76200002 150 16 0
2.572 0.77999997 -0.76499999 150 16 0
2.572 0.78600001 -0.76999998 150 16 0
2.5680001 0.792 -0.77399999 150 16 0
2.5610001 0.79799998 -0.77700001 150 16 0
2.556 0.80299997 -0.77999997 150 16 0
2.5550001 0.81 -0.78500003 150 16 0
2.5510001 0.81599998 -0.78799999 150 16 0
2.5439999 0.82099998 -0.79100001 150 16 0
2.5409999 0.82700002 -0.79500002 150 16 0
2.5369999 0.833 -0.79799998 150 16 0
2.5339999 0.83899999 -0.80199999 150 16 0
2.526 0.84399998 -0.80400002 150 16 0
2.529 0.852 -0.80900002 150 16 0
2.5179999 0.85600001 -0.81 150 16 0
2.5190001 0.86299998 -0.815 150 16 0
2.513 0.86799997 -0.81699997 52 16 0
2.5109999 0.875 -0.82099998 20 16 0
2.51 0.88200003 -0.82499999 18 16 0
2.5009999 0.88599998 -0.82700002 18 16 0
2.5 0.89300001 -0.83099997 19 16 0
2.497 0.89899999 -0.83399999 26 16 0
2.4890001 0.903 -0.83499998 31 16 0
2.4860001 0.90899998 -0.83899999 23 16 0
2.48 0.91399997 -0.84100002 27 16 0
2.4749999 0.91900003 -0.84299999 122 16 0
2.471 0.92500001 -0.84600002 150 16 0
2.467 0.93099999 -0.84799999 150 16 0
2.4649999 0.93699998 -0.85100001 150 16 0
2.4630001 0.94400001 -0.85399997 150 16 0
2.4579999 0.949 -0.85699999 150 16 0
2.471 0.96100003 -0.86500001 150 16 0
2.4649999 0.96600002 -0.86699998 150 16 0
2.4460001 0.96600002 -0.86400002 150 16 0
2.437 0.96899998 -0.86400002 150 16 0
2.434 0.97500002 -0.866 150 16 0
2.4319999 0.98100001 -0.86900002 150 16 0
2.427 0.986 -0.87099999 150 16 0
2.4230001 0.99199998 -0.87300003 150 16 0
2.421 0.99800003 -0.875 150 16 0
2.415 1.002 -0.87699997 150 16 0
2.411 1.007 -0.87800002 150 16 0
2.405 1.012 -0.87900001 150 16 0
2.405 1.0190001 -0.88200003 150 16 0
2.4000001 1.024 -0.88300002 150 16 0
2.3970001 1.03 -0.88499999 151 16 0
2.3929999 1.034 -0.88700002 150 16 0
2.398 1.044 -0.89200002 29 16 0
2.405 1.053 -0.89700001 4 16 0
2.405 1.0599999 -0.89999998 3 16 0
2.4030001 1.066 -0.90200001 3 16 0
2.3970001 1.0700001 -0.90200001 2 16 0
2.3900001 1.074 -0.90200001 2 16 0
2.388 1.08 -0.90399998 2 16 0
2.3929999 1.089 -0.90799999 2 16 0
2.3840001 1.091 -0.90700001 2 16 0
2.382 1.097 -0.90799999 2 16 0
2.3729999 1.1 -0.90700001 2 16 0
2.3729999 1.1059999 -0.91000003 2 16 0
2.369 1.1109999 -0.91000003 2 16 0
2.369 1.117 -0.912 2 16 0
2.368 1.123 -0.91399997 1 16 0
2.3629999 1.128 -0.91399997 2 16 0
2.3610001 1.133 -0.91500002 2 16 0
2.3529999 1.135 -0.91299999 2 16 0
2.349 1.14 -0.91399997 3 16 0
2.3380001 1.141 -0.91100001 3 16 0
2.3340001 1.145 -0.91100001 4 16 0
2.3380001 1.153 -0.91399997 8 16 0
2.3299999 1.155 -0.912 13 16 0
2.3299999 1.161 -0.91399997 18 16 0
2.3269999 1.166 -0.91399997 24 16 0
2.319 1.168 -0.912 33 16 0
2.3169999 1.173 -0.912 58 16 0
2.3139999 1.177 -0.912 105 16 0
2.3150001 1.184 -0.91399997 150 16 0
2.3110001 1.187 -0.91299999 150 16 0
2.3039999 1.189 -0.91100001 150 16 0
2.3039999 1.1950001 -0.912 150 16 0
2.299 1.198 -0.91000003 150 16 0
2.2969999 1.202 -0.91000003 150 16 0
2.296 1.207 -0.91000003 150 16 0
2.2939999 1.211 -0.91000003 150 16 0
2.29 1.215 -0.90899998 150 16 0
2.2869999 1.219 -0.90799999 150 16 0
2.2850001 1.222 -0.90700001 150 16 0
2.2839999 1.227 -0.90700001 150 16 0
2.2820001 1.2309999 -0.90600002 150 16 0
2.2820001 1.2359999 -0.90600002 150 16 0
2.2809999 1.24 -0.90600002 150 16 0
2.279 1.244 -0.90499997 150 16 0
2.2739999 1.2460001 -0.90200001 150 16 0
2.2750001 1.251 -0.903 150 16 0
2.2709999 1.2539999 -0.90100002 150 16 0
2.2709999 1.258 -0.89999998 150 16 0
2.273 1.2640001 -0.90100002 150 16 0
2.27 1.266 -0.89899999 150 16 0
2.2709999 1.271 -0.898 150 16 0
2.2690001 1.274 -0.89700001 150 16 0
2.2709999 1.279 -0.89700001 137 16 0
2.2639999 1.28 -0.89300001 75 16 0
2.2650001 1.284 -0.89200002 50 16 0
2.2609999 1.286 -0.88999999 34 16 0
2.2650001 1.2920001 -0.88999999 25 16 0
2.266 1.296 -0.889 19 16 0
2.2650001 1.299 -0.88800001 14 16 0
2.26 1.3 -0.884 9 16 0
2.2579999 1.302 -0.88200003 4 16 0
2.26 1.306 -0.88099998 3 16 0
2.26 1.3099999 -0.88 2 16 0
2.2650001 1.316 -0.88 1 16 0
2.2539999 1.313 -0.87400001 1 16 0
2.2550001 1.316 -0.87300003 1 16 0
2.253 1.317 -0.87 1 16 0
2.257 1.323 -0.86900002 1 16 0
2.2650001 1.33 -0.87 1 16 0
2.2650001 1.332 -0.86799997 1 16 0
2.2609999 1.3329999 -0.86400002 1 16 0
2.2709999 1.341 -0.866 1 19 0
2.273 1.344 -0.86400002 1 16 0
2.2720001 1.346 -0.86199999 1 16 0
2.2590001 1.34 -0.85399997 1 18 0
2.2750001 1.351 -0.85699999 2 16 0
2.2709999 1.351 -0.85399997 2 16 0
2.266 1.35 -0.84899998 2 16 0
2.2690001 1.353 -0.847 1 16 0
2.27 1.355 -0.84500003 1 16 0
2.27 1.357 -0.84200001 1 16 0
2.266 1.3559999 -0.83700001 1 16 0
2.263 1.355 -0.833 1 16 0
2.263 1.3559999 -0.82999998 1 16 0
2.2639999 1.357 -0.82700002 1 16 0
2.2620001 1.357 -0.82300001 1 16 0
2.2620001 1.358 -0.81999999 1 16 0
2.263 1.359 -0.81699997 1 16 0
2.2590001 1.357 -0.81199998 1 16 0
2.263 1.36 -0.81 1 16 0
2.2550001 1.3559999 -0.80400002 1 19 0
2.2590001 1.358 -0.80199999 1 16 0
2.244 1.349 -0.79299998 0 18 0
2.2520001 1.354 -0.792 0 16 0
2.2820001 1.372 -0.79900002 2 16 0
2.266 1.362 -0.78899997 6 16 0
2.2739999 1.3660001 -0.78799999 18 16 0
2.2739999 1.3660001 -0.78399998 43 16 0
2.2709999 1.364 -0.77899998 150 16 0
2.2780001 1.367 -0.778 150 16 0
2.2780001 1.367 -0.77399999 150 16 0
2.276 1.364 -0.76899999 150 16 0
2.279 1.365 -0.76599997 150 16 0
2.2809999 1.365 -0.76200002 150 16 0
2.279 1.363 -0.75800002 150 16 0
2.2839999 1.364 -0.755 150 16 0
2.2880001 1.365 -0.75199997 150 16 0
2.283 1.3609999 -0.74599999 150 16 0
2.2880001 1.362 -0.74400002 150 16 0
2.29 1.362 -0.74000001 150 16 0
2.293 1.362 -0.73699999 150 16 0
2.2950001 1.3609999 -0.73299998 150 16 0
2.2969999 1.36 -0.72899997 150 16 0
2.299 1.359 -0.72500002 150 16 0
2.299 1.357 -0.72000003 150 16 0
2.3039999 1.358 -0.71700001 150 16 0
2.3039999 1.355 -0.713 150 16 0
2.306 1.354 -0.70899999 150 16 0
2.3139999 1.3559999 -0.70599997 150 16 0
2.3099999 1.351 -0.70099998 150 16 0
2.3150001 1.351 -0.69700003 150 16 0
2.3169999 1.349 -0.69300002 150 16 0
2.3199999 1.348 -0.68900001 150 16 0
2.3239999 1.347 -0.68599999 150 16 0
2.325 1.344 -0.68099999 150 16 0
2.326 1.341 -0.67699999 132 16 0
2.3280001 1.339 -0.67199999 84 16 0
2.3329999 1.3380001 -0.66900003 45 16 0
2.335 1.336 -0.66500002 30 16 0
2.3429999 1.337 -0.662 24 16 0
2.3469999 1.335 -0.65799999 24 16 0
2.3440001 1.33 -0.653 35 16 0
2.349 1.329 -0.64899999 88 16 0
2.3510001 1.326 -0.64499998 84 16 0
2.352 1.322 -0.63999999 31 16 0
2.3599999 1.323 -0.63700002 25 16 0
2.3629999 1.3200001 -0.63300002 24 16 0
2.3629999 1.316 -0.62800002 32 16 0
2.3629999 1.311 -0.62300003 123 16 0
2.369 1.3099999 -0.62 150 16 0
2.368 1.3049999 -0.61400002 150 16 0
2.3710001 1.302 -0.61000001 144 16 0
2.375 1.299 -0.60600001 125 16 0
2.382 1.298 -0.60299999 97 16 0
2.381 1.293 -0.59799999 123 16 0
2.3859999 1.291 -0.59399998 150 16 0
2.391 1.288 -0.58999997 150 16 0
2.3929999 1.284 -0.58600003 150 16 0
2.4030001 1.284 -0.583 137 16 0
2.3989999 1.277 -0.57700002 150 16 0
2.4030001 1.274 -0.57300001 150 16 0
2.408 1.271 -0.56900001 150 16 0
2.411 1.267 -0.565 150 16 0
2.418 1.265 -0.56099999 116 16 0
2.425 1.263 -0.55800003 89 16 0
2.428 1.2589999 -0.55400002 29 16 0
2.4319999 1.255 -0.55000001 35 16 0
2.437 1.253 -0.546 128 16 0
2.441 1.248 -0.542 106 16 0
2.4489999 1.247 -0.53899997 22 16 0
2.4400001 1.2359999 -0.53200001 4 16 0
2.447 1.234 -0.528 3 16 0
2.448 1.228 -0.523 3 16 0
2.4649999 1.2309999 -0.52200001 8 16 0
2.4630001 1.223 -0.51700002 38 16 0
2.464 1.2180001 -0.51200002 150 16 0
2.464 1.211 -0.50700003 150 16 0
2.47 1.2079999 -0.50300002 150 16 0
2.473 1.2029999 -0.49900001 150 16 0
2.4760001 1.198 -0.495 150 16 0
2.4809999 1.194 -0.491 150 16 0
2.493 1.193 -0.48800001 150 16 0
2.4890001 1.184 -0.48300001 150 16 0
2.4990001 1.183 -0.47999999 150 16 0
2.5039999 1.178 -0.47600001 150 16 0
2.507 1.173 -0.472 150 16 0
2.5090001 1.1670001 -0.46700001 150 16 0
2.5179999 1.165 -0.46399999 150 16 0
2.5220001 1.159 -0.46000001 150 16 0
2.5250001 1.154 -0.456 150 16 0
2.5280001 1.148 -0.45199999 150 16 0
2.5320001 1.143 -0.44800001 150 16 0
2.5369999 1.138 -0.44400001 150 16 0
2.5409999 1.132 -0.44 150 16 0
2.5480001 1.128 -0.43599999 150 16 0
2.5469999 1.1210001 -0.43200001 150 16 0
2.5539999 1.117 -0.428 150 16 0
2.5599999 1.112 -0.42500001 150 16 0
2.5610001 1.105 -0.41999999 150 16 0
2.5669999 1.1 -0.417 150 16 0
2.573 1.095 -0.41299999 150 16 0
2.576 1.089 -0.40900001 150 16 0
2.5810001 1.084 -0.405 150 16 0
2.586 1.0779999 -0.40099999 150 16 0
2.592 1.073 -0.398 150 16 0
2.5969999 1.068 -0.39399999 150 16 0
2.602 1.062 -0.38999999 150 16 0
2.6070001 1.057 -0.38699999 150 16 0
2.6099999 1.05 -0.38299999 150 16 0
2.6140001 1.044 -0.37900001 150 16 0
2.622 1.039 -0.37599999 150 16 0
2.6229999 1.0319999 -0.37099999 150 16 0
2.628 1.026 -0.368 150 16 0
2.631 1.02 -0.36399999 150 16 0
2.6389999 1.015 -0.361 150 16 0
2.642 1.008 -0.35699999 150 16 0
2.6489999 1.003 -0.35299999 150 16 0
2.652 0.99599999 -0.34999999 150 16 0
2.6600001 0.991 -0.34599999 150 16 0
2.6619999 0.98299998 -0.34200001 150 16 0
2.6700001 0.97799999 -0.33899999 150 16 0
2.6889999 0.977 -0.33700001 128 16 0
2.688 0.96899998 -0.333 85 16 0
2.6819999 0.958 -0.32800001 150 16 0
2.684 0.95099998 -0.324 150 16 0
2.691 0.94499999 -0.32100001 150 16 0
2.6949999 0.93800002 -0.31799999 150 16 0
2.7049999 0.93300003 -0.315 150 16 0
2.7060001 0.92500001 -0.31099999 150 16 0
2.7130001 0.92000002 -0.30700001 150 16 0
2.7160001 0.912 -0.30399999 150 16 0
2.7179999 0.90499997 -0.30000001 150 16 0
2.73 0.89999998 -0.29699999 150 16 0
2.7360001 0.89399999 -0.294 150 16 0
2.7390001 0.88599998 -0.28999999 150 16 0
2.7420001 0.87900001 -0.287 150 16 0
2.7479999 0.87199998 -0.28299999 150 16 0
2.7509999 0.86500001 -0.28 150 16 0
2.76 0.85900003 -0.27700001 150 16 0
2.7620001 0.85100001 -0.273 150 16 0
2.7639999 0.84299999 -0.27000001 150 16 0
2.7709999 0.83700001 -0.26699999 150 16 0
2.7809999 0.83099997 -0.264 150 16 0
2.7820001 0.82300001 -0.25999999 150 16 0
2.7880001 0.81599998 -0.257 150 16 0
2.7980001 0.81 -0.25400001 150 16 0
2.799 0.80199999 -0.25 150 16 0
2.8039999 0.79500002 -0.24699999 150 16 0
2.8069999 0.787 -0.244 150 16 0
2.816 0.77999997 -0.241 150 16 0
2.823 0.773 -0.23800001 150 16 0
2.825 0.76499999 -0.234 150 16 0
2.8299999 0.75800002 -0.23100001 150 16 0
2.836 0.75 -0.228 150 16 0
2.842 0.74299997 -0.22499999 150 16 0
2.8469999 0.736 -0.222 150 16 0
2.8540001 0.72799999 -0.219 150 16 0
2.8559999 0.72000003 -0.21600001 150 16 0
2.8599999 0.71200001 -0.212 150 16 0
2.868 0.70499998 -0.20900001 150 16 0
2.8729999 0.69700003 -0.206 150 16 0
2.875 0.68900001 -0.20299999 150 16 0
2.8870001 0.68300003 -0.2 150 16 0
2.8929999 0.67500001 -0.197 150 16 0
2.8940001 0.667 -0.19400001 150 16 0
2.9000001 0.65899998 -0.191 150 16 0
2.9119999 0.653 -0.189 150 16 0
2.914 0.64399999 -0.185 150 16 0
2.921 0.63599998 -0.183 150 16 0
2.925 0.62800002 -0.17900001 150 16 0
2.9319999 0.62 -0.177 150 16 0
2.934 0.61199999 -0.17299999 150 16 0
2.9389999 0.60299999 -0.17 150 16 0
2.944 0.59500003 -0.167 150 16 0
2.9549999 0.588 -0.16500001 150 16 0
2.961 0.57999998 -0.162 150 16 0
2.9630001 0.57099998 -0.15899999 149 16 0
2.971 0.56300002 -0.156 150 16 0
2.9719999 0.55400002 -0.153 145 16 0
2.9760001 0.546 -0.15000001 133 16 0
2.9879999 0.53799999 -0.147 126 16 0
2.9920001 0.52999997 -0.145 149 16 0
3 0.52200001 -0.142 141 16 0
3.0020001 0.51300001 -0.139 139 16 0
3.006 0.50400001 -0.13600001 139 16 0
3.0139999 0.49599999 -0.133 140 16 0
3.0190001 0.48699999 -0.13 121 16 0
3.023 0.47799999 -0.12800001 121 16 0
3.0250001 0.46900001 -0.125 141 16 0
3.036 0.46200001 -0.122 128 16 0
3.0439999 0.45300001 -0.12 134 16 0
3.0480001 0.44400001 -0.117 127 16 0
3.052 0.435 -0.114 132 16 0
3.0569999 0.426 -0.111 136 16 0
3.0639999 0.41800001 -0.108 133 16 0
3.0710001 0.40900001 -0.106 133 16 0
3.079 0.40000001 -0.103 127 16 0
3.0869999 0.39199999 -0.101 130 16 0
3.0880001 0.382 -0.097999997 125 16 0
3.096 0.373 -0.094999999 131 16 0
3.099 0.36399999 -0.092 120 16 0
3.1099999 0.35600001 -0.090000004 112 16 0
3.1170001 0.347 -0.086999997 111 16 0
3.122 0.33700001 -0.085000001 104 16 0
3.125 0.32800001 -0.082000002 104 16 0
3.1329999 0.31900001 -0.079000004 106 16 0
3.1400001 0.31 -0.077 117 16 0
3.148 0.301 -0.074000001 109 16 0
3.154 0.29100001 -0.071999997 123 16 0
3.1630001 0.28200001 -0.068999998 119 16 0
3.168 0.273 -0.067000002 106 16 0
3.1730001 0.26300001 -0.064000003 103 16 0
3.1789999 0.25400001 -0.061000001 102 16 0
3.1830001 0.244 -0.059 107 16 0
3.1930001 0.235 -0.056000002 107 16 0
3.198 0.22499999 -0.054000001 89 16 0
3.204 0.215 -0.050999999 97 16 0
3.2179999 0.206 -0.048999999 94 16 0
3.22 0.19599999 -0.046 107 16 0
3.2290001 0.18700001 -0.044 106 16 0
3.2349999 0.177 -0.041000001 96 16 0
3.2390001 0.167 -0.039000001 93 16 0
3.2479999 0.15700001 -0.035999998 100 16 0
3.2520001 0.147 -0.034000002 90 16 0
3.253 0.13699999 -0.030999999 89 16 0
3.2620001 0.127 -0.028999999 101 16 0
3.2720001 0.117 -0.027000001 91 16 0
3.2739999 0.107 -0.024 82 16 0
3.283 0.097000003 -0.022 76 16 0
3.289 0.086000003 -0.018999999 82 16 0
3.293 0.075999998 -0.017000001 78 16 0
3.3050001 0.066 -0.015 55 16 0
3.306 0.056000002 -0.012 46 16 0
3.312 0.045000002 -0.0099999998 86 16 0
3.319 0.035 -0.0070000002 89 16 0
3.329 0.025 -0.0049999999 36 16 0
3.3050001 0.014 -0.003 19 16 0
3.2820001 0.003 0 19 16 0
3.26 -0.0060000001 0.001 19 16 0
3.243 -0.016000001 0.003 45 16 0
3.253 -0.027000001 0.0049999999 150 16 0
3.2590001 -0.037 0.0080000004 150 16 0
3.263 -0.046999998 0.0099999998 150 16 0
3.27 -0.057999998 0.012 150 16 0
3.2690001 -0.068000004 0.014 90 16 0
3.2520001 -0.078000002 0.016000001 28 16 0
3.234 -0.088 0.017999999 30 16 0
3.2149999 -0.097999997 0.02 28 16 0
3.1930001 -0.107 0.022 29 16 0
3.1700001 -0.116 0.024 29 16 0
3.151 -0.126 0.026000001 29 16 0
3.1300001 -0.13500001 0.028000001 29 16 0
3.1129999 -0.14399999 0.028999999 28 16 0
3.0940001 -0.153 0.030999999 29 16 0
3.072 -0.162 0.033 29 16 0
3.05 -0.17 0.034000002 28 16 0
3.03 -0.17900001 0.035999998 30 16 0
3.007 -0.18700001 0.037 29 16 0
2.993 -0.19599999 0.039000001 28 16 0
2.9760001 -0.204 0.041000001 28 16 0
2.9579999 -0.212 0.041999999 28 16 0
2.9449999 -0.221 0.043000001 29 16 0
2.921 -0.228 0.045000002 29 16 0
2.9070001 -0.236 0.046 30 16 0
2.8900001 -0.244 0.048 29 16 0
2.8740001 -0.252 0.048999999 32 16 0
2.848 -0.259 0.050000001 32 16 0
2.8410001 -0.26800001 0.050999999 32 16 0
2.822 -0.27500001 0.052000001 34 16 0
2.8039999 -0.28200001 0.054000001 33 16 0
2.7909999 -0.28999999 0.055 34 16 0
2.7720001 -0.29699999 0.056000002 33 16 0
2.76 -0.30399999 0.057 32 16 0
2.7420001 -0.31099999 0.057999998 35 16 0
2.7309999 -0.31900001 0.059 36 16 0
2.714 -0.32600001 0.059999999 37 16 0
2.704 -0.333 0.061000001 38 16 0
2.6860001 -0.33899999 0.061999999 36 16 0
2.675 -0.347 0.063000001 36 16 0
2.6589999 -0.35299999 0.064000003 37 16 0
2.6370001 -0.359 0.064999998 40 16 0
2.6289999 -0.366 0.066 42 16 0
2.6129999 -0.373 0.066 40 16 0
2.596 -0.37900001 0.067000002 45 16 0
2.5810001 -0.38499999 0.068000004 41 16 0
2.572 -0.39199999 0.068999998 40 16 0
2.559 -0.398 0.07 55 16 0
2.5409999 -0.40400001 0.07 44 16 0
2.527 -0.41 0.071000002 57 16 0
2.5139999 -0.41600001 0.071000002 59 16 0
2.5 -0.42199999 0.071999997 58 16 0
2.4920001 -0.428 0.072999999 61 16 0
2.4779999 -0.43399999 0.072999999 70 16 0
2.464 -0.44 0.074000001 64 16 0
2.457 -0.447 0.075000003 69 16 0
2.4430001 -0.45199999 0.075000003 69 16 0
2.4289999 -0.45699999 0.075000003 59 16 0
2.415 -0.463 0.075999998 58 16 0
2.404 -0.46900001 0.075999998 67 16 0
2.3870001 -0.47299999 0.077 62 16 0
2.3759999 -0.479 0.077 62 16 0
2.3640001 -0.484 0.078000002 75 16 0
2.3499999 -0.48899999 0.078000002 64 16 0
2.339 -0.495 0.078000002 70 16 0
2.3280001 -0.5 0.079000004 76 16 0
2.3169999 -0.505 0.079000004 75 16 0
2.3039999 -0.50999999 0.079000004 75 16 0
2.29 -0.514 0.079000004 76 16 0
2.279 -0.51899999 0.079000004 75 16 0
2.2720001 -0.52600002 0.079999998 81 16 0
2.2579999 -0.52999997 0.079999998 81 16 0
2.243 -0.53399998 0.079999998 72 16 0
2.24 -0.54000002 0.079999998 93 16 0
2.2249999 -0.54400003 0.079999998 93 16 0
2.217 -0.55000001 0.081 99 16 0
2.2049999 -0.55400002 0.081 105 16 0
2.197 -0.55900002 0.081 99 16 0
2.184 -0.56300002 0.081 101 16 0
2.178 -0.56900001 0.081 106 16 0
2.165 -0.57300001 0.081 116 16 0
2.1440001 -0.57499999 0.081 109 16 0
2.135 -0.579 0.081 108 16 0
2.131 -0.58499998 0.081 112 16 0
2.1199999 -0.58999997 0.081 110 16 0
2.109 -0.59399998 0.081 110 16 0
2.098 -0.59799999 0.081 120 16 0
2.085 -0.60100001 0.079999998 128 16 0
2.082 -0.60699999 0.079999998 125 16 0
2.0710001 -0.611 0.079999998 109 16 0
2.0599999 -0.61400002 0.079999998 118 16 0
2.053 -0.61900002 0.079999998 122 16 0
2.0450001 -0.62400001 0.079999998 134 16 0
2.033 -0.62699997 0.079999998 127 16 0
2.023 -0.63099998 0.079000004 128 16 0
2.013 -0.634 0.079000004 128 16 0
2.0050001 -0.63800001 0.079000004 136 16 0
1.9960001 -0.64300001 0.079000004 150 16 0
1.9859999 -0.64600003 0.078000002 150 16 0
1.9809999 -0.65100002 0.078000002 150 16 0
1.967 -0.653 0.078000002 150 16 0
1.962 -0.65799999 0.077 150 16 0
1.954 -0.662 0.077 150 16 0
1.936 -0.66299999 0.075999998 150 16 0
1.933 -0.66799998 0.075999998 150 16 0
1.921 -0.671 0.075999998 150 16 0
1.916 -0.67500001 0.075000003 150 16 0
1.913 -0.68099999 0.075000003 150 16 0
1.9 -0.68300003 0.075000003 150 16 0
1.89 -0.68599999 0.074000001 150 16 0
1.886 -0.69 0.074000001 150 16 0
1.875 -0.69300002 0.072999999 150 16 0
1.869 -0.69700003 0.072999999 150 16 0
1.862 -0.70099998 0.071999997 150 16 0
1.853 -0.704 0.071999997 150 16 0
1.851 -0.70899999 0.071000002 150 16 0
1.837 -0.70999998 0.07 150 16 0
1.8329999 -0.71499997 0.07 6 0 0
1.826 -0.71799999 0.068999998 5 0 0
1.816 -0.72100002 0.068999998 67 0 0
1.811 -0.72500002 0.068000004 3 0 0
1.803 -0.72799999 0.068000004 6 0 0
1.7920001 -0.73000002 0.067000002 92 0 0
1.785 -0.73199999 0.066 72 0 0
1.778 -0.736 0.064999998 88 0 0
1.771 -0.73900002 0.064999998 4 0 0
1.765 -0.74299997 0.064000003 80 0 0
